# .PCD v0.7 - Point Cloud Data file format
VERSION 0.7
FIELDS x y z intensity
SIZE 4 4 4 4
TYPE F F F F
COUNT 1 1 1 1
WIDTH 1824
HEIGHT 1
VIEWPOINT 0 0 0 1 0 0 0
POINTS 1824
DATA ascii
0 0 0 0
0 0 0 0
0 0 0 0
0 0 0 0
0 0 0 0
0 0 0 0
0 0 0 0
0 0 0 0
0 0 0 0
0 0 0 0
0 0 0 0
0 0 0 0
0 0 0 0
0 0 0 0
0 0 0 0
0 0 0 0
0 0 0 0
0 0 0 0
0 0 0 0
0 0 0 0
0 0 0 0
0 0 0 0
0 0 0 0
0 0 0 0
0 0 0 0
0 0 0 0
0 0 0 0
0 0 0 0
0 0 0 0
0 0 0 0
0 0 0 0
0 0 0 0
0 0 0 0
0 0 0 0
0 0 0 0
0 0 0 0
0 0 0 0
0 0 0 0
0 0 0 0
0 0 0 0
0 0 0 0
0 0 0 0
0 0 0 0
0 0 0 0
0 0 0 0
0 0 0 0
0 0 0 0
0 0 0 0
0 0 0 0
0 0 0 0
0 0 0 0
0 0 0 0
0 0 0 0
0 0 0 0
0 0 0 0
0 0 0 0
0 0 0 0
0 0 0 0
0 0 0 0
0 0 0 0
0 0 0 0
0 0 0 0
0 0 0 0
0 0 0 0
0 0 0 0
0 0 0 0
0 0 0 0
0 0 0 0
0 0 0 0
0 0 0 0
0 0 0 0
0 0 0 0
0 0 0 0
0 0 0 0
0 0 0 0
0 0 0 0
0 0 0 0
0 0 0 0
0 0 0 0
0 0 0 0
0 0 0 0
0 0 0 0
0 0 0 0
0 0 0 0
0 0 0 0
0 0 0 0
0 0 0 0
0 0 0 0
0 0 0 0
0 0 0 0
0 0 0 0
0 0 0 0
0 0 0 0
0 0 0 0
0 0 0 0
0 0 0 0
0 0 0 0
0 0 0 0
0 0 0 0
0 0 0 0
0 0 0 0
0 0 0 0
0 0 0 0
0 0 0 0
0 0 0 0
0 0 0 0
0 0 0 0
0 0 0 0
0 0 0 0
0 0 0 0
0 0 0 0
0 0 0 0
0 0 0 0
0 0 0 0
0 0 0 0
0 0 0 0
0 0 0 0
0 0 0 0
0 0 0 0
0 0 0 0
0 0 0 0
0 0 0 0
0 0 0 0
0 0 0 0
0 0 0 0
0 0 0 0
0 0 0 0
0 0 0 0
0 0 0 0
0 0 0 0
0 0 0 0
0 0 0 0
0 0 0 0
0 0 0 0
0 0 0 0
0 0 0 0
90.836998 -0.0099999998 10.703 19
0 0 0 0
0 0 0 0
0 0 0 0
0 0 0 0
0 0 0 0
90.964996 0.098999999 10.085 29
0 0 0 0
0 0 0 0
0 0 0 0
0 0 0 0
0 0 0 0
91.108002 0.20299999 9.4659996 24
90.973999 0.155 10.807 16
0 0 0 0
0 0 0 0
0 0 0 0
0 0 0 0
93.905998 0.303 9.1099997 35
90.380997 0.24699999 10.103 29
0 0 0 0
0 0 0 0
0 0 0 0
0 0 0 0
92.632004 0.38100001 8.3360004 21
90.710999 0.329 9.507 33
0 0 0 0
0 0 0 0
0 0 0 0
0 0 0 0
0 0 0 0
92.876999 0.41 9.0819998 22
90.168999 0.35600001 10.155 21
0 0 0 0
0 0 0 0
0 0 0 0
86.119003 0.479 6.5500002 46
92.787003 0.47400001 8.4219999 32
90.464996 0.421 9.5459995 30
92.139 0.38699999 11.099 8
0 0 0 0
0 0 0 0
87.339996 0.53299999 6.0320001 19
86.238998 0.48800001 7.2259998 18
92.860001 0.486 9.1520004 18
90.153 0.433 10.224 20
0 0 0 0
0 0 0 0
87.291 0.57099998 5.4180002 39
86.128998 0.52700001 6.6079998 46
92.32 0.52600002 8.4429998 39
90.408997 0.47799999 9.6120005 32
0 0 0 0
0 0 0 0
88.071999 0.60500002 4.8540001 45
87.531998 0.565 6.1090002 16
86.199997 0.52200001 7.2839999 16
92.751999 0.52499998 9.2080002 13
90.167999 0.47499999 10.294 21
0 0 0 0
88.439003 0.62599999 4.2639999 5
87.294998 0.58399999 5.4840002 45
86.143997 0.542 6.6799998 46
92.282997 0.54500002 8.5120001 34
90.324997 0.5 9.6689997 39
0 0 0 0
121.134 0.86900002 4.994 19
88.113998 0.59899998 4.9180002 47
85.916 0.55199999 6.0580001 7
86.193001 0.52200001 7.3449998 24
92.957001 0.52999997 9.2939997 8
90.108002 0.48199999 10.349 24
45.709 0.32699999 1.567 4
88.573997 0.60100001 4.323 5
87.258003 0.56099999 5.5349998 37
86.230003 0.52499998 6.7389998 47
92.414001 0.53100002 8.5839996 34
90.389 0.48899999 9.7320004 42
45.014 0.31600001 1.226 72
120.989 0.80900002 5.0570002 19
87.908997 0.55699998 4.9549999 47
85.920998 0.51499999 6.1059999 14
86.067001 0.48800001 7.381 9
98.223 0.52600002 9.8719997 12
44.264 0.30000001 0.89700001 60
121.574 0.78399998 4.2319999 11
88.476997 0.542 4.3699999 8
87.268997 0.50599998 5.5830002 34
86.252998 0.47299999 6.783 43
92.745003 0.48100001 8.6619997 35
43.970001 0.28200001 0.58200002 50
45.106998 0.27500001 1.253 65
120.867 0.69999999 5.1240001 26
88.070999 0.48300001 5.02 39
85.986 0.44600001 6.164 25
92.307999 0.45300001 7.9720001 17
43.853001 0.26100001 0.27500001 46
44.358002 0.25 0.92199999 67
0 0 0 0
121.055 0.61199999 6.0450001 32
87.287003 0.417 5.6389999 38
86.222 0.38800001 6.8319998 28
43.955002 0.236 -0.028999999 50
44.069 0.223 0.611 51
45.307999 0.21600001 1.285 24
120.889 0.54500002 5.191 26
88.198997 0.37400001 5.0739999 18
85.976997 0.34299999 6.2069998 24
36.410999 0.169 -0.27700001 14
43.972 0.192 0.30199999 56
44.634998 0.184 0.95899999 61
0 0 0 0
121.207 0.43700001 6.1360002 27
87.356003 0.294 5.6960001 31
36.389999 0.14 -0.528 38
44.106998 0.15800001 0 51
44.238998 0.147 0.64300001 61
45.514 0.14 1.323 4
120.735 0.345 5.2690001 29
0 0 0 0
33.360001 0.097000003 -0.71499997 4
36.169998 0.096000001 -0.249 46
44.123001 0.107 0.33500001 56
44.987999 0.098999999 0.99800003 55
0 0 0 0
121.218 0.215 6.2129998 36
30.902 0.057999998 -0.87300003 45
35.997002 0.059 -0.49700001 46
36.318001 0.052000001 0.026000001 11
44.519001 0.054000001 0.68099999 52
153.798 0.154 4.579 17
120.858 0.097000003 5.3530002 45
30.836 0.022 -1.086 53
33.763 0.017000001 -0.69800001 5
35.988998 0.0099999998 -0.221 60
44.351002 0.0040000002 0.37 55
45.321999 -0.003 1.0369999 17
122.174 -0.033 4.5689998 8
30.950001 -0.016000001 -1.302 52
31.056999 -0.023 -0.85699999 35
35.778999 -0.033 -0.46799999 42
36.172001 -0.039999999 0.052000001 46
44.929001 -0.057999998 0.71399999 60
0 0 0 0
30.922001 -0.059 -1.515 27
30.895 -0.064999998 -1.0650001 57
33.688999 -0.077 -0.67299998 1
35.750999 -0.088 -0.19400001 61
44.618999 -0.117 0.403 54
56.245998 -0.156 1.324 9
28.74 -0.097999997 -1.605 7
30.966999 -0.111 -1.278 55
31.077999 -0.116 -0.83099997 34
35.623001 -0.139 -0.43599999 45
36.037998 -0.146 0.079999998 51
45.423 -0.19 0.75999999 29
25.393999 -0.127 -1.59 6
31.028 -0.161 -1.493 34
30.982 -0.16500001 -1.04 57
35.575001 -0.19499999 -0.67799997 44
35.584999 -0.199 -0.163 70
36.375 -0.208 0.36000001 3
22.973 -0.155 -1.595 11
28.653 -0.197 -1.573 6
30.996 -0.21799999 -1.251 68
0 0 0 0
35.570999 -0.259 -0.405 45
35.872002 -0.26499999 0.111 68
21.132 -0.18099999 -1.61 16
25.462 -0.221 -1.569 6
31.004 -0.273 -1.459 43
30.969999 -0.27599999 -1.006 75
35.377998 -0.31900001 -0.63700002 51
35.459999 -0.32300001 -0.127 69
19.610001 -0.206 -1.626 14
23.193001 -0.24600001 -1.585 13
30.274 -0.324 -1.628 9
30.990999 -0.33399999 -1.215 77
0 0 0 0
35.355 -0.38800001 -0.36300001 58
18.245001 -0.229 -1.637 12
21.375 -0.27000001 -1.604 16
26.17 -0.333 -1.5829999 6
31.104 -0.39899999 -1.429 52
30.941 -0.39899999 -0.97399998 64
35.238998 -0.45699999 -0.60000002 60
17.033001 -0.25099999 -1.6440001 10
19.794001 -0.294 -1.62 14
23.636 -0.352 -1.59 11
30.535 -0.45699999 -1.61 10
30.968 -0.46599999 -1.184 63
0 0 0 0
15.971 -0.273 -1.65 9
18.334999 -0.31400001 -1.624 12
21.705 -0.373 -1.6059999 17
26.530001 -0.45699999 -1.577 5
31.055 -0.53600001 -1.395 57
31.1 -0.53899997 -0.94800001 47
15.032 -0.29300001 -1.653 10
17.171 -0.33500001 -1.636 10
20.094 -0.39300001 -1.6210001 14
24.091999 -0.47099999 -1.592 10
30.799999 -0.60399997 -1.5880001 20
31.014 -0.60900003 -1.151 63
14.106 -0.31 -1.645 34
16.118999 -0.35499999 -1.642 9
18.688999 -0.41100001 -1.63 12
21.988001 -0.484 -1.597 15
27.155001 -0.59799999 -1.577 5
31.155001 -0.68699998 -1.359 57
13.591 -0.33399999 -1.674 59
15.208 -0.37400001 -1.649 9
17.464001 -0.42899999 -1.638 11
20.448 -0.50300002 -1.619 15
24.58 -0.60399997 -1.5880001 8
31.017 -0.76300001 -1.556 27
13.015 -0.35600001 -1.6900001 48
14.218 -0.38800001 -1.636 33
16.403999 -0.44800001 -1.646 10
19.006001 -0.51800001 -1.6289999 13
22.549999 -0.61400002 -1.603 18
27.868999 -0.759 -1.5779999 5
12.433 -0.375 -1.696 50
13.709 -0.41299999 -1.6670001 75
15.439 -0.465 -1.65 9
17.736 -0.53299999 -1.635 11
20.825001 -0.625 -1.6160001 15
25.065001 -0.75099999 -1.581 6
11.913 -0.39500001 -1.7029999 53
13.141 -0.43399999 -1.683 59
14.405 -0.47499999 -1.633 24
16.691 -0.55000001 -1.647 10
19.354 -0.63700002 -1.627 13
22.879 -0.75199997 -1.591 14
11.469 -0.41499999 -1.715 52
12.542 -0.45300001 -1.689 70
13.766 -0.49599999 -1.65 49
15.692 -0.565 -1.65 9
18.096001 -0.64999998 -1.637 12
21.181999 -0.759 -1.608 16
11.054 -0.435 -1.725 54
12.024 -0.472 -1.696 79
13.151 -0.51499999 -1.66 30
14.841 -0.57999998 -1.654 11
16.955 -0.66100001 -1.641 10
19.716 -0.76700002 -1.622 14
10.677 -0.45500001 -1.734 53
11.592 -0.493 -1.709 75
12.634 -0.53600001 -1.675 17
14.074 -0.59500003 -1.658 11
15.999 -0.67500001 -1.65 9
18.482 -0.778 -1.637 12
10.304 -0.47400001 -1.74 50
11.16 -0.51200002 -1.717 72
12.179 -0.55699998 -1.692 11
13.476 -0.61500001 -1.673 10
15.089 -0.68599999 -1.65 11
17.271999 -0.78299999 -1.637 11
9.9840002 -0.495 -1.75 47
10.764 -0.53100002 -1.724 73
11.734 -0.57700002 -1.704 10
12.932 -0.634 -1.686 11
14.343 -0.70099998 -1.658 12
16.341 -0.796 -1.65 9
9.6619997 -0.51300001 -1.7539999 47
10.422 -0.55199999 -1.735 70
11.312 -0.597 -1.7130001 10
12.416 -0.65200001 -1.6950001 10
13.69 -0.71700001 -1.668 12
15.385 -0.80400002 -1.65 10
9.3839998 -0.53399998 -1.7640001 45
10.08 -0.57099998 -1.742 71
10.934 -0.61699998 -1.724 10
11.933 -0.67000002 -1.7029999 10
13.159 -0.73699999 -1.683 12
14.616 -0.81599998 -1.655 12
9.0950003 -0.55199999 -1.767 43
9.7209997 -0.58700001 -1.74 55
10.581 -0.63599998 -1.734 10
11.489 -0.68900001 -1.711 10
12.626 -0.75400001 -1.693 10
13.939 -0.82999998 -1.664 12
8.8430004 -0.57099998 -1.773 43
9.4440002 -0.60699999 -1.749 18
10.256 -0.65600002 -1.743 11
11.111 -0.70899999 -1.722 10
12.137 -0.77100003 -1.7 10
13.382 -0.84799999 -1.678 11
8.6120005 -0.59100002 -1.78 41
9.2189999 -0.63 -1.7640001 10
9.9420004 -0.676 -1.751 10
10.747 -0.72799999 -1.7309999 11
11.694 -0.78899997 -1.709 10
12.878 -0.866 -1.691 11
8.4569998 -0.61500001 -1.8 25
8.9720001 -0.64899999 -1.771 10
9.6420002 -0.69499999 -1.757 10
10.418 -0.74800003 -1.7410001 11
11.294 -0.80800003 -1.7180001 11
12.361 -0.88099998 -1.697 10
8.1780005 -0.63 -1.791 10
8.7370005 -0.66900003 -1.778 9
9.375 -0.71499997 -1.765 10
10.098 -0.76700002 -1.748 10
10.928 -0.82700002 -1.727 11
11.915 -0.898 -1.706 10
7.9790001 -0.64899999 -1.795 9
8.507 -0.68800002 -1.7819999 9
9.1149998 -0.73400003 -1.77 10
9.8039999 -0.78600001 -1.7539999 10
10.595 -0.84600002 -1.735 11
11.506 -0.91500002 -1.7130001 11
7.8000002 -0.66799998 -1.802 9
8.2849998 -0.70700002 -1.785 9
8.8859997 -0.75400001 -1.777 9
9.5389996 -0.80599999 -1.762 10
10.288 -0.866 -1.745 11
11.144 -0.935 -1.723 11
7.619 -0.68800002 -1.806 9
8.0880003 -0.72600001 -1.79 9
8.6560001 -0.773 -1.7819999 9
9.2720003 -0.82499999 -1.766 9
9.9779997 -0.884 -1.749 10
10.806 -0.954 -1.732 11
7.4499998 -0.70700002 -1.8099999 9
7.9099998 -0.74699998 -1.7970001 9
8.4390001 -0.79299998 -1.786 9
9.0389996 -0.84500003 -1.774 9
9.7150002 -0.90399998 -1.7589999 10
10.485 -0.972 -1.74 10
7.2919998 -0.727 -1.8150001 9
7.7179999 -0.76499999 -1.799 9
8.2449999 -0.81300002 -1.793 10
8.816 -0.86500001 -1.78 9
9.4630003 -0.92400002 -1.767 10
10.184 -0.991 -1.748 10
7.132 -0.745 -1.817 9
7.5609999 -0.78500003 -1.806 9
8.052 -0.83200002 -1.7970001 10
8.5959997 -0.884 -1.785 9
9.2040005 -0.94199997 -1.77 10
9.9130001 -1.011 -1.755 10
6.9889998 -0.764 -1.821 8
7.3920002 -0.80400002 -1.808 9
7.8649998 -0.85100001 -1.799 10
8.3950005 -0.90399998 -1.79 9
8.9860001 -0.963 -1.777 10
9.6440001 -1.029 -1.761 10
6.8660002 -0.78500003 -1.8279999 9
7.2459998 -0.824 -1.813 9
7.6929998 -0.87 -1.803 9
8.2080002 -0.92400002 -1.795 10
8.7600002 -0.98100001 -1.78 9
9.3940001 -1.048 -1.766 10
6.73 -0.80400002 -1.83 8
7.1170001 -0.84500003 -1.821 9
7.5370002 -0.89099997 -1.808 9
8.0150003 -0.94199997 -1.7970001 9
8.5530005 -1.001 -1.785 10
9.1680002 -1.069 -1.773 10
6.6110001 -0.824 -1.836 8
6.9559999 -0.86199999 -1.819 8
7.3920002 -0.91100001 -1.814 9
7.8439999 -0.96200001 -1.801 9
8.3730001 -1.022 -1.7920001 10
8.9569998 -1.089 -1.779 10
6.4520001 -0.838 -1.827 10
6.8429999 -0.884 -1.826 9
7.2490001 -0.93099999 -1.818 9
7.6810002 -0.98199999 -1.8049999 10
8.1899996 -1.0420001 -1.796 9
8.75 -1.108 -1.784 10
6.3299999 -0.85699999 -1.8279999 10
6.6830001 -0.89899999 -1.8200001 10
7.1129999 -0.95099998 -1.823 9
7.5380001 -1.003 -1.811 9
8.0129995 -1.061 -1.799 9
8.559 -1.1289999 -1.789 10
6.2220001 -0.87599999 -1.831 10
6.5630002 -0.91900003 -1.823 10
6.9580002 -0.96899998 -1.8200001 11
7.3959999 -1.024 -1.816 10
7.8530002 -1.082 -1.804 10
8.3649998 -1.148 -1.7920001 10
6.1059999 -0.89399999 -1.83 9
6.4499998 -0.93800002 -1.827 10
6.8239999 -0.98699999 -1.821 10
7.2600002 -1.045 -1.8200001 10
7.6999998 -1.103 -1.808 10
8.1899996 -1.1670001 -1.795 10
6.0019999 -0.91299999 -1.832 9
6.3369999 -0.958 -1.8279999 10
6.7090001 -1.008 -1.826 11
7.1269999 -1.0650001 -1.824 9
7.559 -1.124 -1.814 10
8.0310001 -1.189 -1.801 10
5.915 -0.93300003 -1.837 9
6.2280002 -0.977 -1.83 9
6.592 -1.028 -1.827 10
7 -1.085 -1.827 9
7.4310002 -1.147 -1.8200001 10
7.8779998 -1.21 -1.8049999 10
5.8200002 -0.95300001 -1.8380001 9
6.1240001 -0.99599999 -1.831 10
6.4850001 -1.048 -1.831 10
6.8520002 -1.102 -1.822 10
7.2839999 -1.165 -1.8200001 9
7.7259998 -1.23 -1.808 9
5.7389998 -0.97299999 -1.8430001 9
6.0279999 -1.016 -1.8329999 10
6.3720002 -1.067 -1.831 10
6.737 -1.122 -1.825 10
7.158 -1.187 -1.823 9
7.5960002 -1.253 -1.814 10
5.6350002 -0.99000001 -1.8380001 10
5.9330001 -1.035 -1.834 10
6.2620001 -1.086 -1.831 10
6.632 -1.1440001 -1.829 10
7.0120001 -1.2029999 -1.8200001 10
7.4619999 -1.274 -1.817 10
5.559 -1.01 -1.842 9
5.8520002 -1.056 -1.839 11
6.1680002 -1.107 -1.834 10
6.5250001 -1.164 -1.831 11
6.9000001 -1.224 -1.823 11
7.3309999 -1.295 -1.819 9
5.4759998 -1.029 -1.842 9
5.7589998 -1.075 -1.8380001 10
6.0819998 -1.128 -1.8380001 10
6.4299998 -1.186 -1.835 10
6.783 -1.245 -1.824 10
7.1849999 -1.312 -1.816 10
5.3969998 -1.048 -1.8430001 9
5.6760001 -1.095 -1.84 10
5.9990001 -1.15 -1.842 10
6.3299999 -1.206 -1.836 10
6.671 -1.265 -1.825 11
7.1020002 -1.34 -1.827 9
5.322 -1.068 -1.844 10
5.592 -1.114 -1.84 9
5.9109998 -1.17 -1.8430001 11
6.2309999 -1.227 -1.837 10
6.5770001 -1.288 -1.83 10
6.9590001 -1.3559999 -1.822 10
5.2550001 -1.0880001 -1.847 10
5.5159998 -1.1339999 -1.841 10
5.816 -1.189 -1.841 11
6.1300001 -1.245 -1.835 10
6.487 -1.3099999 -1.8329999 11
6.8429999 -1.376 -1.821 9
5.1849999 -1.108 -1.847 9
5.4390001 -1.154 -1.841 11
5.7350001 -1.2079999 -1.841 9
6.0549998 -1.268 -1.84 11
6.3909998 -1.331 -1.835 11
6.744 -1.398 -1.824 10
5.1160002 -1.126 -1.847 9
5.3730001 -1.174 -1.8430001 10
5.6630001 -1.23 -1.8430001 11
5.9720001 -1.289 -1.841 10
6.3119998 -1.355 -1.839 10
6.6469998 -1.42 -1.826 10
5.059 -1.148 -1.85 10
5.3099999 -1.196 -1.846 10
5.5970001 -1.252 -1.847 10
5.895 -1.311 -1.8430001 11
6.2129998 -1.374 -1.837 11
6.5549998 -1.442 -1.8279999 10
4.994 -1.1670001 -1.85 10
5.2470002 -1.217 -1.848 9
5.527 -1.273 -1.848 11
5.8169999 -1.331 -1.8430001 10
6.1339998 -1.396 -1.839 10
6.48 -1.467 -1.8329999 10
4.941 -1.187 -1.852 9
5.1859999 -1.237 -1.849 10
5.4559999 -1.293 -1.848 11
5.7470002 -1.353 -1.846 11
6.0549998 -1.4170001 -1.84 10
6.3889999 -1.488 -1.8329999 10
4.8800001 -1.206 -1.851 9
5.125 -1.257 -1.85 10
5.3889999 -1.313 -1.848 9
5.6690001 -1.373 -1.8430001 11
5.9819999 -1.4400001 -1.841 10
6.3130002 -1.511 -1.836 10
4.8200002 -1.225 -1.85 9
5.0689998 -1.278 -1.851 10
5.3309999 -1.335 -1.85 10
5.6160002 -1.397 -1.849 9
5.914 -1.4630001 -1.844 11
6.243 -1.536 -1.839 9
4.7729998 -1.2460001 -1.852 10
5.0110002 -1.298 -1.851 10
5.2740002 -1.357 -1.852 10
5.5500002 -1.418 -1.849 10
5.8499999 -1.4859999 -1.846 10
6.1659999 -1.558 -1.839 10
4.717 -1.265 -1.851 9
4.961 -1.3200001 -1.853 10
5.2090001 -1.376 -1.85 10
5.4889998 -1.4400001 -1.85 9
5.7779999 -1.507 -1.845 9
6.0910001 -1.579 -1.839 10
4.6700001 -1.285 -1.851 9
4.915 -1.342 -1.855 9
5.1609998 -1.399 -1.853 10
5.4310002 -1.462 -1.851 9
5.723 -1.531 -1.848 10
6.0310001 -1.605 -1.842 10
4.6269999 -1.306 -1.853 9
4.8569999 -1.36 -1.853 10
5.1199999 -1.423 -1.857 9
5.3800001 -1.485 -1.853 10
5.6599998 -1.553 -1.848 10
5.9580002 -1.625 -1.841 10
4.5840001 -1.327 -1.854 9
4.8109999 -1.381 -1.853 10
5.0630002 -1.443 -1.855 9
5.3140001 -1.5039999 -1.85 10
5.5900002 -1.572 -1.845 11
5.9029999 -1.65 -1.8430001 10
4.546 -1.349 -1.857 9
4.7709999 -1.404 -1.8559999 9
5.0190001 -1.465 -1.857 10
5.263 -1.526 -1.85 10
5.5539999 -1.6 -1.851 10
5.842 -1.674 -1.844 10
4.5110002 -1.3710001 -1.86 9
4.7220001 -1.423 -1.855 9
4.9679999 -1.4859999 -1.8559999 10
5.2150002 -1.549 -1.851 10
5.5110002 -1.626 -1.8559999 9
5.7930002 -1.699 -1.847 10
4.467 -1.39 -1.859 9
4.6869998 -1.446 -1.858 9
4.9299998 -1.51 -1.86 9
5.184 -1.576 -1.858 11
5.4499998 -1.646 -1.853 10
5.7410002 -1.724 -1.848 9
4.4299998 -1.4119999 -1.859 9
4.6399999 -1.466 -1.855 10
4.881 -1.53 -1.858 9
5.1339998 -1.598 -1.8559999 10
5.4109998 -1.673 -1.8559999 10
5.6919999 -1.749 -1.849 10
4.395 -1.433 -1.8609999 8
4.6069999 -1.489 -1.858 9
4.8439999 -1.553 -1.859 10
5.0890002 -1.62 -1.8559999 11
5.3590002 -1.694 -1.854 10
5.6409998 -1.772 -1.849 10
4.3579998 -1.4529999 -1.86 9
4.5679998 -1.51 -1.858 10
4.8080001 -1.576 -1.8609999 10
5.0580001 -1.646 -1.86 11
5.3080001 -1.716 -1.852 10
5.5879998 -1.795 -1.847 10
4.3260002 -1.474 -1.8609999 9
4.5300002 -1.53 -1.857 10
4.7740002 -1.6 -1.862 9
5.013 -1.6670001 -1.859 10
5.2670002 -1.739 -1.853 10
5.5549998 -1.823 -1.851 9
4.303 -1.499 -1.865 9
4.5040002 -1.5549999 -1.86 10
4.7379999 -1.622 -1.862 11
4.9770002 -1.691 -1.859 10
5.23 -1.765 -1.854 10
5.5139999 -1.848 -1.852 9
4.2849998 -1.524 -1.8710001 11
4.4720001 -1.576 -1.8609999 10
4.7059999 -1.645 -1.863 9
4.9429998 -1.714 -1.86 10
5.191 -1.788 -1.854 10
5.4809999 -1.875 -1.855 9
4.2360001 -1.538 -1.863 13
4.4400001 -1.598 -1.8609999 9
4.671 -1.6670001 -1.863 10
4.9130001 -1.739 -1.862 10
5.164 -1.8150001 -1.857 11
5.4510002 -1.904 -1.858 9
4.223 -1.5650001 -1.87 14
4.4190001 -1.623 -1.864 9
4.6479998 -1.692 -1.8660001 10
4.875 -1.761 -1.86 10
5.1279998 -1.839 -1.8559999 10
5.4159999 -1.929 -1.858 9
4.178 -1.58 -1.862 12
4.3889999 -1.6440001 -1.863 10
4.6139998 -1.7130001 -1.864 10
4.8569999 -1.789 -1.865 10
5.1030002 -1.867 -1.859 10
5.388 -1.957 -1.86 8
4.1620002 -1.605 -1.8660001 9
4.3660002 -1.668 -1.865 9
4.5949998 -1.74 -1.868 10
4.8299999 -1.814 -1.8660001 9
5.072 -1.891 -1.859 9
5.349 -1.9809999 -1.858 9
4.138 -1.626 -1.8660001 8
4.3280001 -1.6849999 -1.859 16
4.5710001 -1.763 -1.868 10
4.8039999 -1.8380001 -1.8660001 9
5.052 -1.919 -1.862 9
5.3280001 -2.01 -1.8609999 9
4.1209998 -1.651 -1.869 9
4.3169999 -1.712 -1.865 16
4.546 -1.786 -1.868 9
4.7839999 -1.865 -1.868 10
5.0370002 -1.949 -1.8660001 9
5.2849998 -2.03 -1.855 10
4.1009998 -1.673 -1.87 12
4.302 -1.737 -1.868 10
4.5190001 -1.808 -1.867 9
4.7600002 -1.8890001 -1.868 9
5.007 -1.972 -1.865 9
5.2709999 -2.0610001 -1.859 9
4.0819998 -1.6950001 -1.8710001 13
4.2740002 -1.757 -1.865 8
4.4980001 -1.832 -1.867 9
4.7309999 -1.91 -1.865 9
4.967 -1.99 -1.858 10
5.2509999 -2.0899999 -1.8609999 9
4.0760002 -1.723 -1.877 10
4.263 -1.783 -1.869 9
4.4770002 -1.8559999 -1.8660001 11
4.7150002 -1.938 -1.868 9
4.9580002 -2.0209999 -1.863 8
5.2410002 -2.1210001 -1.865 8
4.0539999 -1.743 -1.875 8
4.2509999 -1.809 -1.872 14
4.467 -1.883 -1.87 9
4.704 -1.966 -1.87 9
4.9559999 -2.0550001 -1.869 9
5.2189999 -2.1489999 -1.864 8
4.0229998 -1.7589999 -1.868 8
4.2340002 -1.832 -1.872 16
4.4460001 -1.906 -1.869 9
4.684 -1.99 -1.87 8
4.9419999 -2.0829999 -1.8710001 9
5.197 -2.175 -1.863 8
4.0190001 -1.7869999 -1.874 8
4.2069998 -1.85 -1.867 14
4.4320002 -1.931 -1.87 9
4.6719999 -2.017 -1.8710001 9
4.9250002 -2.109 -1.87 9
5.1880002 -2.2060001 -1.865 8
4.007 -1.8099999 -1.875 8
4.198 -1.876 -1.869 10
4.421 -1.957 -1.8710001 8
4.6550002 -2.0420001 -1.87 9
4.9120002 -2.1370001 -1.8710001 9
5.177 -2.2360001 -1.8660001 8
3.9890001 -1.83 -1.873 8
4.1929998 -1.904 -1.873 9
4.4060001 -1.9809999 -1.87 9
4.6479998 -2.0710001 -1.872 8
4.8959999 -2.1630001 -1.869 9
5.1669998 -2.266 -1.867 8
3.9779999 -1.853 -1.873 7
4.1929998 -1.933 -1.878 10
4.3940001 -2.0050001 -1.87 9
4.638 -2.098 -1.873 9
4.8870001 -2.1919999 -1.87 8
5.1589999 -2.296 -1.868 7
3.971 -1.878 -1.875 8
4.1620002 -1.947 -1.869 15
4.3870001 -2.0320001 -1.8710001 10
4.6259999 -2.1229999 -1.872 9
4.8800001 -2.221 -1.8710001 8
5.1550002 -2.3280001 -1.87 8
3.9579999 -1.899 -1.873 8
4.165 -1.977 -1.874 16
4.3769999 -2.056 -1.8710001 9
4.6259999 -2.1530001 -1.875 7
4.8699999 -2.2479999 -1.87 8
5.1500001 -2.358 -1.87 8
3.9590001 -1.927 -1.878 7
4.1599998 -2.0020001 -1.875 11
4.3759999 -2.085 -1.873 9
4.6209998 -2.181 -1.876 8
4.869 -2.2780001 -1.8710001 8
5.145 -2.3889999 -1.87 8
3.95 -1.949 -1.877 8
4.1490002 -2.0239999 -1.873 9
4.3600001 -2.1059999 -1.869 12
4.6139998 -2.207 -1.875 9
4.8610001 -2.3050001 -1.87 8
5.1459999 -2.421 -1.8710001 8
3.9419999 -1.971 -1.876 8
4.1479998 -2.0510001 -1.875 8
4.3530002 -2.1300001 -1.867 13
4.6090002 -2.234 -1.874 7
4.8709998 -2.3399999 -1.875 8
5.1409998 -2.45 -1.87 8
3.9360001 -1.994 -1.875 8
4.1539998 -2.0810001 -1.8789999 12
4.3709998 -2.1659999 -1.876 8
4.6220002 -2.2690001 -1.88 8
4.875 -2.3710001 -1.876 8
5.1539998 -2.4879999 -1.874 9
3.928 -2.0150001 -1.872 7
4.1459999 -2.1029999 -1.876 14
4.369 -2.1919999 -1.875 7
4.6240001 -2.2980001 -1.881 8
4.869 -2.398 -1.873 8
5.1659999 -2.5239999 -1.877 7
3.9360001 -2.0439999 -1.877 7
4.1440001 -2.1270001 -1.876 16
4.368 -2.2179999 -1.875 8
4.6149998 -2.3210001 -1.876 8
4.8730001 -2.4289999 -1.873 8
5.164 -2.553 -1.874 8
3.9360001 -2.0680001 -1.877 8
4.1370001 -2.148 -1.872 10
4.3559999 -2.2379999 -1.869 13
4.6149998 -2.348 -1.875 7
4.8930001 -2.467 -1.8789999 7
5.1810002 -2.5910001 -1.878 8
3.9430001 -2.096 -1.88 7
4.1529999 -2.1819999 -1.878 7
4.3629999 -2.267 -1.87 13
4.6300001 -2.382 -1.878 7
4.8990002 -2.4979999 -1.8789999 8
5.1810002 -2.619 -1.874 8
3.951 -2.1240001 -1.883 7
4.1560001 -2.207 -1.878 7
4.382 -2.302 -1.876 9
4.6440001 -2.415 -1.881 7
4.9060001 -2.5280001 -1.878 8
5.2010002 -2.658 -1.877 8
3.9519999 -2.1470001 -1.881 7
4.1630001 -2.234 -1.8789999 15
4.3969998 -2.3340001 -1.88 7
4.6469998 -2.4419999 -1.8789999 7
4.927 -2.5650001 -1.881 7
5.2129998 -2.6919999 -1.877 8
3.96 -2.1730001 -1.883 7
4.1669998 -2.2590001 -1.878 15
4.4099998 -2.365 -1.882 7
4.6680002 -2.4779999 -1.883 7
4.9359999 -2.596 -1.88 8
5.2290001 -2.7260001 -1.876 8
3.9690001 -2.1989999 -1.8839999 7
4.1739998 -2.2850001 -1.877 10
4.4190001 -2.3929999 -1.881 7
4.677 -2.506 -1.882 8
4.961 -2.6340001 -1.883 7
5.2490001 -2.7639999 -1.877 8
3.971 -2.221 -1.881 7
4.184 -2.312 -1.877 8
4.441 -2.427 -1.885 8
4.6820002 -2.5320001 -1.878 7
4.9770002 -2.6670001 -1.883 8
5.2639999 -2.796 -1.875 7
3.9790001 -2.247 -1.88 8
4.197 -2.3399999 -1.878 9
4.447 -2.4519999 -1.882 7
4.7119999 -2.5710001 -1.883 8
4.993 -2.6989999 -1.882 7
5.296 -2.8380001 -1.878 8
3.9949999 -2.2750001 -1.883 7
4.2220001 -2.375 -1.883 13
4.4689999 -2.4849999 -1.885 7
4.7290001 -2.6029999 -1.883 7
5.0300002 -2.743 -1.887 8
5.323 -2.8770001 -1.8789999 8
4.0089998 -2.302 -1.883 7
4.2199998 -2.3929999 -1.876 16
4.4879999 -2.516 -1.885 8
4.7480001 -2.6340001 -1.882 8
5.0510001 -2.776 -1.886 7
5.3520002 -2.9159999 -1.8789999 8
4.02 -2.326 -1.881 7
4.2399998 -2.4230001 -1.877 10
4.5029998 -2.5439999 -1.883 8
4.7750001 -2.6700001 -1.8839999 7
5.072 -2.809 -1.8839999 7
5.3920002 -2.96 -1.882 8
4.046 -2.358 -1.886 9
4.27 -2.4579999 -1.882 7
4.527 -2.5769999 -1.8839999 7
4.8099999 -2.7090001 -1.887 8
5.1100001 -2.8499999 -1.888 7
5.4239998 -2.9990001 -1.882 8
4.0749998 -2.392 -1.891 10
4.2950001 -2.49 -1.8839999 11
4.552 -2.609 -1.885 7
4.836 -2.7420001 -1.887 7
5.1409998 -2.888 -1.887 8
5.4629998 -3.0420001 -1.883 8
4.0869999 -2.415 -1.888 12
4.3189998 -2.52 -1.885 18
4.5749998 -2.6389999 -1.8839999 7
4.8699999 -2.78 -1.8890001 7
5.1729999 -2.924 -1.886 7
5.5289998 -3.098 -1.892 19
4.0960002 -2.4349999 -1.882 8
4.3319998 -2.543 -1.88 17
4.5999999 -2.6689999 -1.882 7
4.9089999 -2.819 -1.891 7
5.211 -2.964 -1.887 8
5.5419998 -3.1240001 -1.882 28
4.1240001 -2.4660001 -1.8839999 8
4.3559999 -2.572 -1.8789999 13
4.631 -2.7030001 -1.883 7
4.9419999 -2.8540001 -1.891 7
5.2459998 -3.0009999 -1.886 8
5.5749998 -3.161 -1.878 28
4.158 -2.5 -1.888 12
4.3959999 -2.609 -1.8839999 8
4.6700001 -2.74 -1.885 7
4.973 -2.8870001 -1.8890001 7
5.2870002 -3.04 -1.885 7
5.6160002 -3.201 -1.876 24
4.1739998 -2.5209999 -1.883 15
4.4250002 -2.6400001 -1.883 7
4.7080002 -2.776 -1.887 8
5.0209999 -2.9289999 -1.892 8
5.3569999 -3.095 -1.8940001 18
5.6409998 -3.23 -1.867 14
4.1919999 -2.5439999 -1.8789999 14
4.4580002 -2.671 -1.8839999 7
4.7459998 -2.8110001 -1.888 7
5.059 -2.964 -1.891 8
5.3969998 -3.132 -1.891 30
5.7680001 -3.3180001 -1.891 7
4.2199998 -2.5710001 -1.878 9
4.4920001 -2.7019999 -1.883 7
4.789 -2.848 -1.8890001 7
5.1059999 -3.0039999 -1.892 7
5.4310002 -3.165 -1.885 43
5.823 -3.3629999 -1.89 7
4.2800002 -2.6170001 -1.89 7
4.5339999 -2.7379999 -1.886 7
4.8319998 -2.8840001 -1.89 8
5.1430001 -3.0369999 -1.888 8
5.4650002 -3.1960001 -1.8789999 29
5.8850002 -3.4119999 -1.89 7
4.316 -2.648 -1.89 13
4.573 -2.77 -1.885 8
4.8790002 -2.9219999 -1.891 8
5.2129998 -3.089 -1.895 11
5.4949999 -3.2249999 -1.869 20
5.9400001 -3.4549999 -1.886 7
4.3439999 -2.6730001 -1.886 14
4.6149998 -2.8039999 -1.885 8
4.927 -2.9590001 -1.891 8
5.2610002 -3.1259999 -1.893 28
5.6259999 -3.3110001 -1.893 7
6.013 -3.5079999 -1.887 7
4.3740001 -2.698 -1.882 11
4.6609998 -2.839 -1.886 7
4.973 -2.994 -1.8890001 8
5.303 -3.1589999 -1.888 36
5.6960001 -3.3599999 -1.895 7
6.0869999 -3.5599999 -1.887 7
4.434 -2.74 -1.89 7
4.7059999 -2.872 -1.886 8
5.0359998 -3.0380001 -1.8940001 7
5.3540001 -3.1960001 -1.885 30
5.7519999 -3.401 -1.891 7
6.1659999 -3.6140001 -1.888 7
4.48 -2.773 -1.891 7
4.7610002 -2.9100001 -1.887 8
5.1030002 -3.0840001 -1.898 8
5.3850002 -3.22 -1.874 22
5.823 -3.4489999 -1.891 7
6.2420001 -3.665 -1.886 7
4.5300002 -2.8069999 -1.892 8
4.8189998 -2.9489999 -1.89 8
5.1599998 -3.122 -1.897 24
5.5240002 -3.3080001 -1.899 7
5.8990002 -3.4990001 -1.891 7
6.336 -3.7249999 -1.888 7
4.5799999 -2.8410001 -1.893 8
4.875 -2.9860001 -1.891 8
5.198 -3.148 -1.888 57
5.5939999 -3.3529999 -1.899 7
5.9780002 -3.549 -1.891 7
6.4219999 -3.78 -1.886 8
4.6199999 -2.8670001 -1.887 7
4.9310002 -3.0220001 -1.89 8
5.2519999 -3.1819999 -1.8839999 39
5.6599998 -3.3940001 -1.896 7
6.0500002 -3.5940001 -1.887 7
6.5089998 -3.8329999 -1.8839999 7
4.6869998 -2.9089999 -1.893 8
4.9980001 -3.0639999 -1.892 8
5.3049998 -3.2149999 -1.8789999 26
5.7270002 -3.4349999 -1.892 7
6.151 -3.655 -1.891 7
6.6040001 -3.8900001 -1.882 7
4.7399998 -2.941 -1.891 8
5.0749998 -3.1099999 -1.897 20
5.3759999 -3.2579999 -1.8789999 11
5.803 -3.48 -1.891 7
6.2360001 -3.7049999 -1.888 7
6.7069998 -3.951 -1.88 7
4.803 -2.977 -1.892 8
5.1149998 -3.132 -1.887 35
5.5079999 -3.336 -1.898 7
5.8940001 -3.533 -1.892 7
6.3340001 -3.7620001 -1.888 7
6.803 -4.007 -1.876 7
4.8730001 -3.017 -1.895 8
5.1820002 -3.1700001 -1.886 41
5.5819998 -3.3770001 -1.896 6
5.98 -3.5810001 -1.891 7
6.434 -3.8169999 -1.887 6
6.927 -4.0760002 -1.877 7
4.934 -3.0510001 -1.893 7
5.237 -3.1989999 -1.8789999 27
5.6700001 -3.4260001 -1.898 7
6.0700002 -3.631 -1.8890001 7
6.5359998 -3.8740001 -1.885 7
7.0570002 -4.1469998 -1.878 8
5.0229998 -3.099 -1.9 12
5.3070002 -3.2360001 -1.876 21
5.7470002 -3.467 -1.8940001 7
6.1669998 -3.6830001 -1.888 7
6.6420002 -3.9300001 -1.883 7
7.1700001 -4.2080002 -1.873 9
5.0840001 -3.1300001 -1.896 21
5.4530001 -3.3180001 -1.899 7
5.8319998 -3.51 -1.892 7
6.2659998 -3.734 -1.887 7
6.7529998 -3.9879999 -1.881 7
7.3010001 -4.277 -1.872 9
5.1409998 -3.1570001 -1.8890001 25
5.5320001 -3.358 -1.897 6
5.928 -3.5599999 -1.891 7
6.382 -3.7950001 -1.888 6
6.8769999 -4.052 -1.88 7
5.8140001 -3.398 -1.461 10
5.211 -3.191 -1.886 25
5.6160002 -3.3989999 -1.895 7
6.026 -3.609 -1.891 7
6.4910002 -3.849 -1.887 7
7.007 -4.118 -1.8789999 7
5.823 -3.3940001 -1.434 17
5.2820001 -3.223 -1.881 22
5.7049999 -3.4419999 -1.893 7
6.132 -3.6600001 -1.89 7
6.5939999 -3.898 -1.881 7
0 0 0 0
5.8470001 -3.3989999 -1.409 19
5.3779998 -3.27 -1.885 10
5.803 -3.4879999 -1.8940001 7
6.23 -3.7060001 -1.887 7
6.7210002 -3.96 -1.882 7
5.8410001 -3.4119999 -1.505 7
5.868 -3.4000001 -1.3839999 20
5.513 -3.339 -1.9 7
5.895 -3.53 -1.891 7
6.3449998 -3.76 -1.887 6
6.8369999 -4.013 -1.877 7
5.8579998 -3.4089999 -1.478 8
5.8940001 -3.4030001 -1.36 21
5.6040001 -3.3789999 -1.9 7
5.9980001 -3.5769999 -1.89 6
6.467 -3.8169999 -1.887 7
6.1020002 -3.5680001 -1.642 7
5.8260002 -3.3770001 -1.439 16
5.914 -3.401 -1.3329999 25
5.697 -3.4200001 -1.897 7
6.1009998 -3.622 -1.887 7
6.5809999 -3.8670001 -1.8839999 7
5.8260002 -3.391 -1.536 7
5.849 -3.375 -1.413 23
5.9520001 -3.408 -1.309 16
5.7989998 -3.464 -1.897 7
6.2179999 -3.6730001 -1.887 6
6.2659998 -3.664 -1.758 6
5.8639998 -3.3970001 -1.513 8
5.869 -3.3710001 -1.386 24
6.099 -3.4760001 -1.309 8
5.8930001 -3.5009999 -1.893 7
6.342 -3.727 -1.888 7
5.8060002 -3.378 -1.596 7
5.8590002 -3.3770001 -1.479 18
5.908 -3.3770001 -1.363 22
6.4510002 -3.6589999 -1.35 22
5.9959998 -3.5420001 -1.89 7
6.4190001 -3.7509999 -1.873 7
5.829 -3.3729999 -1.569 10
5.954 -3.4130001 -1.47 2
5.974 -3.3959999 -1.345 18
6.4580002 -3.6440001 -1.316 29
6.118 -3.592 -1.891 7
5.8410001 -3.3940001 -1.671 7
5.9039998 -3.3970001 -1.5549999 166
6 -3.421 -1.447 0
5.9959998 -3.3900001 -1.317 19
6.4289999 -3.608 -1.275 28
6.2280002 -3.6340001 -1.888 7
5.8759999 -3.3929999 -1.646 9
6.165 -3.5250001 -1.5880001 25
6.434 -3.6459999 -1.516 15
6.2540002 -3.5150001 -1.339 30
6.4099998 -3.5769999 -1.237 32
5.967 -3.4590001 -1.772 7
6.513 -3.7360001 -1.786 7
0 0 0 0
6.3920002 -3.599 -1.47 31
6.3889999 -3.569 -1.332 17
6.3870001 -3.5409999 -1.198 33
5.8309999 -3.3559999 -1.696 11
6.1960001 -3.53 -1.6619999 8
6.3870001 -3.6040001 -1.571 10
6.1290002 -3.4289999 -1.375 16
6.4250002 -3.566 -1.304 22
6.2909999 -3.4660001 -1.145 200
6.467 -3.6960001 -1.842 6
6.0819998 -3.441 -1.595 8
6.3309999 -3.5480001 -1.521 38
6.1570001 -3.4200001 -1.346 19
6.4380002 -3.5480001 -1.271 38
6.276 -3.434 -1.108 33
6.6919999 -3.796 -1.8660001 6
6.2490001 -3.5090001 -1.602 18
6.3850002 -3.552 -1.497 36
6.2550001 -3.45 -1.331 14
6.4060001 -3.5050001 -1.229 23
6.4699998 -3.5150001 -1.1059999 18
6.322 -3.5580001 -1.724 12
6.2160001 -3.4630001 -1.556 22
6.302 -3.4790001 -1.4400001 48
6.2789998 -3.437 -1.301 19
6.3699999 -3.46 -1.186 6
6.4369998 -3.471 -1.066 8
6.151 -3.434 -1.64 7
6.3210001 -3.493 -1.545 20
6.2540002 -3.425 -1.393 23
6.348 -3.447 -1.279 23
9.3240004 -5.0250001 -1.684 16
6.2680001 -3.3540001 -1.003 24
6.0500002 -3.348 -1.576 7
6.3200002 -3.464 -1.508 28
6.302 -3.4230001 -1.367 8
6.4039998 -3.4489999 -1.2539999 4
9.4940004 -5.0749998 -1.6619999 18
6.2979999 -3.3429999 -0.97399998 28
6.2740002 -3.4419999 -1.596 23
6.283 -3.414 -1.462 30
6.29 -3.3870001 -1.3279999 0
9.2180004 -4.9229999 -1.7539999 17
6.4450002 -3.4159999 -1.0930001 18
6.296 -3.3150001 -0.94 31
6.296 -3.4230001 -1.564 35
6.3730001 -3.4319999 -1.4450001 34
6.3759999 -3.4030001 -1.3099999 0
9.3330002 -4.941 -1.723 18
6.3899999 -3.358 -1.048 24
6.3200002 -3.2980001 -0.90899998 33
6.355 -3.4219999 -1.541 27
6.434 -3.4319999 -1.421 20
9.21 -4.8709998 -1.84 14
6.6680002 -3.4979999 -1.194 5
6.3899999 -3.3269999 -1.013 25
6.3559999 -3.2880001 -0.88 34
6.4180002 -3.424 -1.518 31
6.3130002 -3.336 -1.358 4
6.4239998 -3.3659999 -1.247 34
6.5710001 -3.415 -1.14 37
6.3979998 -3.3010001 -0.98000002 31
6.4050002 -3.283 -0.852 22
6.421 -3.391 -1.4809999 2
6.3169999 -3.3050001 -1.322 19
6.4660001 -3.3540001 -1.2180001 39
6.5139999 -3.3529999 -1.094 28
6.4819999 -3.312 -0.95700002 29
12.644 -6.4169998 -1.6160001 7
6.3920002 -3.3410001 -1.436 62
6.3930001 -3.3110001 -1.301 33
6.4990001 -3.3369999 -1.188 44
6.5110002 -3.3169999 -1.057 22
6.8920002 -3.4860001 -0.98000002 0
6.8579998 -3.447 -0.83999997 0
6.3740001 -3.2969999 -1.3940001 23
6.447 -3.3050001 -1.275 40
6.54 -3.3239999 -1.159 34
6.5739999 -3.3150001 -1.031 23
11.934 -5.9749999 -1.633 15
6.6750002 -3.3199999 -0.78200001 19
6.6149998 -3.3829999 -1.408 27
6.5219998 -3.3069999 -1.253 34
6.5939999 -3.3150001 -1.131 26
10.942 -5.4590001 -1.6569999 16
12.923 -6.4029999 -1.701 9
6.6389999 -3.2679999 -0.74299997 23
6.8590002 -3.47 -1.421 25
6.6129999 -3.316 -1.233 30
6.6890001 -3.326 -1.1109999 23
11.281 -5.5679998 -1.648 17
6.862 -3.3629999 -0.86699998 1
6.6929998 -3.26 -0.71499997 25
7.0209999 -3.5109999 -1.414 20
6.7350001 -3.339 -1.219 10
6.974 -3.4289999 -1.1210001 1
12.082 -5.8969998 -1.701 9
6.7550001 -3.2739999 -0.81800002 18
17.037001 -8.2060003 -1.734 13
7.1020002 -3.5109999 -1.391 25
6.9990001 -3.4300001 -1.228 0
11.507 -5.5939999 -1.788 11
12.966 -6.256 -1.757 11
6.8080001 -3.2620001 -0.78899997 23
17.466 -8.316 -1.688 39
7.29 -3.5599999 -1.386 6
7.0380001 -3.4070001 -1.196 1
11.86 -5.6960001 -1.779 12
13.447 -6.4109998 -1.752 8
15.677 -7.4229999 -1.738 11
18.532 -8.7209997 -1.698 10
9.8660002 -4.7589998 -1.822 13
7.151 -3.4200001 -1.177 1
12.232 -5.803 -1.77 11
13.967 -6.5780001 -1.748 8
16.499001 -7.7179999 -1.7460001 12
19.635 -9.1289997 -1.702 7
10.16 -4.8390002 -1.8200001 12
11.208 -5.2930002 -1.785 15
12.611 -5.9089999 -1.7589999 11
14.526 -6.756 -1.744 9
16.915001 -7.8140001 -1.705 38
20.636 -9.4750004 -1.688 5
10.431 -4.9039998 -1.813 11
11.544 -5.382 -1.777 12
13.049 -6.0359998 -1.753 7
15.093 -6.9310002 -1.737 10
17.806 -8.1219997 -1.7079999 13
21.738001 -9.8559999 -1.673 4
10.716 -4.9710002 -1.8049999 11
11.9 -5.4749999 -1.77 14
13.517 -6.1700001 -1.748 8
15.889 -7.2010002 -1.749 11
18.642 -8.3929996 -1.698 8
23.059999 -10.32 -1.666 4
11 -5.0339999 -1.795 16
12.281 -5.5739999 -1.7640001 8
14.053 -6.329 -1.747 8
16.329 -7.302 -1.717 37
19.777 -8.7860003 -1.706 6
24.507 -10.822 -1.655 4
11.306 -5.1030002 -1.7869999 9
12.689 -5.6789999 -1.7589999 7
14.565 -6.4689999 -1.738 9
17.120001 -7.5510001 -1.7180001 12
20.722 -9.0799999 -1.6900001 4
26.016001 -11.331 -1.636 4
11.643 -5.1799998 -1.78 8
13.092 -5.777 -1.749 7
15.197 -6.6550002 -1.74 10
17.823 -7.7509999 -1.704 11
21.886 -9.4560003 -1.682 4
27.993 -12.021 -1.633 4
12.007 -5.2639999 -1.776 6
13.561 -5.8969998 -1.745 8
15.751 -6.7979999 -1.728 34
18.67 -8.0010004 -1.697 8
23.079 -9.8280001 -1.668 4
30.207001 -12.787 -1.625 3
12.388 -5.3499999 -1.77 6
14.062 -6.0250001 -1.742 8
16.344 -6.9489999 -1.715 11
19.662001 -8.302 -1.697 5
24.441999 -10.255 -1.6569999 4
0 0 0 0
12.785 -5.4380002 -1.765 7
14.555 -6.1409998 -1.734 9
17.111 -7.1659999 -1.717 12
20.708 -8.6110001 -1.693 5
26.009001 -10.747 -1.647 3
0 0 0 0
13.169 -5.5139999 -1.755 7
15.199 -6.3130002 -1.74 37
17.781 -7.3309999 -1.7029999 8
21.673 -8.8739996 -1.675 5
27.591 -11.225 -1.627 4
38.541 -15.588 -1.5700001 1
13.606 -5.6059999 -1.75 7
15.42 -6.303 -1.694 18
18.625 -7.5560002 -1.7 9
22.811001 -9.191 -1.663 4
29.247999 -11.71 -1.599 5
0 0 0 0
14.086 -5.7090001 -1.7460001 8
16.334999 -6.5679998 -1.72 11
19.438 -7.7589998 -1.689 7
24.108 -9.5570002 -1.653 4
0 0 0 0
0 0 0 0
14.69 -5.855 -1.7539999 28
16.931 -6.6939998 -1.709 9
20.521999 -8.0550003 -1.6950001 5
25.534 -9.9540005 -1.6440001 4
34.453999 -13.347 -1.597 1
0 0 0 0
14.981 -5.869 -1.722 9
17.596001 -6.8400002 -1.7 10
21.458 -8.2799997 -1.682 5
26.969999 -10.336 -1.626 3
37.299 -14.204 -1.577 1
0 0 0 0
15.633 -6.0180001 -1.7309999 10
18.336 -7.0029998 -1.694 12
22.614 -8.5740004 -1.679 5
28.747 -10.825 -1.6160001 4
0 0 0 0
63.208 -23.514 -1.3 3
16.219999 -6.132 -1.727 10
19.134001 -7.177 -1.689 8
23.565001 -8.7749996 -1.655 4
30.785 -11.387 -1.612 5
42.063999 -15.462 -1.454 1
63.563 -23.225 -1.069 4
16.805 -6.2379999 -1.72 11
19.989 -7.362 -1.684 7
24.855 -9.0889997 -1.649 5
32.952 -11.967 -1.598 3
0 0 0 0
67.292999 -24.145 -0.88599998 14
17.459999 -6.3610001 -1.716 10
20.903999 -7.5560002 -1.679 6
26.18 -9.3940001 -1.637 5
35.183998 -12.538 -1.574 1
0 0 0 0
70.235001 -24.726 -0.671 11
18.108 -6.4699998 -1.7079999 13
21.870001 -7.7550001 -1.673 5
27.749001 -9.7659998 -1.63 4
38.651001 -13.51 -1.5880001 1
0 0 0 0
71.875 -24.816 -0.433 38
18.813 -6.5900002 -1.7029999 11
22.867001 -7.948 -1.663 5
29.243999 -10.091 -1.61 4
39.383999 -13.498 -1.477 1
57.491001 -19.576 -1.152 7
72.321999 -24.48 -0.19 35
19.542999 -6.7090001 -1.696 9
23.83 -8.1169996 -1.647 5
31.306999 -10.587 -1.614 10
43.176998 -14.501 -1.471 1
57.771999 -19.278999 -0.96200001 151
72.246002 -23.966 0.048999999 13
20.332001 -6.836 -1.6900001 7
25.107 -8.375 -1.646 6
0 0 0 0
0 0 0 0
57.825001 -18.889 -0.76800001 55
57.973 -18.826 0.228 7
21.309 -7.0120001 -1.6950001 7
26.266001 -8.5769997 -1.631 5
0 0 0 0
49.324001 -15.876 -1.348 5
49.484001 -15.825 -0.49900001 88
79.056999 -25.134001 0.55900002 9
22.108 -7.119 -1.683 6
27.49 -8.7840004 -1.615 5
0 0 0 0
50 -15.746 -1.209 16
50.076 -15.668 -0.34999999 5
66.863998 -20.792999 0.676 51
23.018999 -7.2480001 -1.675 6
16.517 -5.1599998 -0.91600001 6
0 0 0 0
0 0 0 0
66.832001 -20.445999 -0.26800001 6
78.723 -23.936001 1.026 17
16.562 -5.0960002 -1.152 75
16.466 -5.0279999 -0.86199999 47
16.622999 -5.0380001 -0.58499998 0
66.592003 -20.040001 -1.206 7
73.100998 -21.854 -0.078000002 25
78.702003 -23.382999 1.252 5
16.587 -4.9850001 -1.102 82
16.416 -4.895 -0.81 60
16.183001 -4.789 -0.52200001 75
16.332001 -4.7989998 -0.248 3
119.841 -34.983002 0.208 11
78.975998 -22.914 1.471 13
16.238001 -4.7639999 -1.03 44
16.173 -4.7080002 -0.75 82
16.209 -4.6830001 -0.47600001 74
16.302999 -4.677 -0.20299999 3
64.277 -18.320999 0.28200001 20
79.342003 -22.473 1.6849999 5
16.219999 -4.6440001 -0.98199999 74
16.184 -4.5970001 -0.70499998 104
16.257999 -4.5830002 -0.433 48
49.290001 -13.791 -0.48300001 58
103.032 -28.632999 0.72399998 14
106.309 -29.356001 2.5320001 31
16.236 -4.5310001 -0.93800002 150
16.17 -4.4759998 -0.66100001 5
16.353001 -4.4920001 -0.39199999 10
43.194 -11.778 -0.31200001 150
41.979 -11.368 0.40000001 3
107.409 -28.9 2.8210001 12
16.163 -4.3940001 -0.89099997 18
16.348 -4.408 -0.625 86
0 0 0 0
40.602001 -10.785 -0.193 65
94.146004 -24.834999 1.123 19
119.886 -31.413 3.427 31
16.632 -4.401 -0.87400001 34
37.952999 -9.9610004 -1.359 54
39.491001 -10.284 -0.75300002 13
39.009998 -10.083 -0.093000002 26
108.607 -27.875999 1.546 31
74.906998 -19.099001 2.3099999 7
32.602001 -8.3889999 -1.633 6
37.789001 -9.6450005 -1.262 53
39.883999 -10.099 -0.66799998 19
48.527 -12.197 -0.0080000004 32
0 0 0 0
75.114998 -18.620001 2.4749999 33
33.862999 -8.4720001 -1.617 4
37.926998 -9.4090004 -1.181 57
46.312 -11.397 -0.67400002 20
96.880997 -23.665001 0.19 10
75.651001 -18.339001 1.399 8
74.899002 -18.033001 2.6199999 30
34.397999 -8.3559999 -1.566 3
38.07 -9.1689997 -1.103 78
48.047001 -11.478 -0.59799999 10
49.597 -11.756 0.2 107
75.446999 -17.753 1.543 27
75.369003 -17.611 2.78 33
36.071999 -8.5010004 -1.566 1
38.289001 -8.9460001 -1.031 74
49.698002 -11.516 -0.52100003 5
50.987999 -11.722 0.303 31
70.530998 -16.094 1.576 45
70.503998 -15.977 2.7290001 36
38.337002 -8.757 -1.587 18
38.467999 -8.7080002 -0.96100003 56
51.485001 -11.56 -0.44400001 30
120.924 -26.934999 0.93599999 15
76.322998 -16.874001 1.837 12
76.544998 -16.801001 3.0929999 37
38.639 -8.5459995 -1.527 33
38.754002 -8.4949999 -0.898 56
75.242996 -16.35 -0.51499999 14
52.243 -11.26 0.49399999 2
77.461998 -16.566 1.995 10
76.981003 -16.341999 3.2349999 20
38.894001 -8.3170004 -1.4680001 49
38.832001 -8.2290001 -0.83200002 36
52.745998 -11.078 -0.273 6
92.584999 -19.288 1.024 9
91.120003 -18.832001 2.4879999 11
81.150002 -16.645 3.5320001 23
34.387001 -7.1040001 -1.2410001 27
39.585999 -8.1029997 -0.78600001 50
80.315002 -16.298 -0.29300001 14
97.638 -19.645 1.225 27
92.260002 -18.413 2.652 27
103.494 -20.495001 4.6490002 23
34.125999 -6.8010001 -1.179 68
40.395 -7.9759998 -0.74199998 60
53.932999 -10.554 -0.119 37
107.042 -20.764999 1.4910001 23
92.741997 -17.841999 2.789 9
104.038 -19.861 4.8060002 10
33.938999 -6.5190001 -1.124 60
40.271999 -7.6609998 -0.68400002 11
0 0 0 0
0 0 0 0
107.111 -19.84 3.3510001 25
0 0 0 0
33.632999 -6.217 -1.0700001 63
41.243999 -7.5469999 -0.64899999 42
55.063999 -9.9829998 0.017000001 60
89.769997 -16.122999 1.4680001 21
90.511002 -16.118 2.931 8
0 0 0 0
33.428001 -5.9349999 -1.024 67
41.226002 -7.2459998 -0.602 62
55.596001 -9.677 0.078000002 26
89.603996 -15.451 1.5599999 26
89.688004 -15.331 2.9960001 18
0 0 0 0
33.365002 -5.6820002 -0.98500001 61
40.956001 -6.9029999 -0.55500001 49
78.406998 -13.088 0.18700001 50
125.548 -20.75 2.302 35
74.827003 -12.252 2.566 5
0 0 0 0
33.147999 -5.4039998 -0.94700003 66
41.118 -6.632 -0.51999998 57
74.783997 -11.943 0.243 81
74.873001 -11.835 1.434 4
133.957 -20.972 4.6989999 24
74.221001 -11.516 3.7839999 4
33.058998 -5.1500001 -0.917 58
41.987999 -6.4699998 -0.498 64
76.918999 -11.728 0.308 10
0 0 0 0
133.41 -19.927999 4.7690001 24
133.66499 -19.781 6.8990002 24
33.000999 -4.902 -0.89099997 42
41.618999 -6.112 -0.465 63
100.256 -14.563 0.46599999 35
0 0 0 0
132.425 -18.843 4.809 35
133.345 -18.791 6.9530001 18
33.098 -4.6789999 -0.87400001 44
41.583 -5.8099999 -0.44100001 67
99.498001 -13.745 0.51300001 49
135.252 -18.48 2.8340001 19
77.223999 -10.438 2.8380001 29
132.739 -17.756001 6.9759998 23
33.066002 -4.4359999 -0.85699999 41
41.716 -5.5289998 -0.42399999 72
93.362999 -12.23 0.52100003 5
76.830002 -9.9530001 1.6390001 77
76.474998 -9.7930002 2.836 35
133.661 -16.937 7.0619998 35
32.792 -4.164 -0.838 41
41.990002 -5.2649999 -0.41299999 60
83.443001 -10.335 0.49000001 33
135.09 -16.532 2.9170001 32
135.545 -16.393999 5.059 36
133.562 -15.965 7.0840001 13
0 0 0 0
54.095001 -6.3909998 -0.51999998 18
83.758003 -9.7729998 0.50700003 16
0 0 0 0
0 0 0 0
136.412 -15.353 7.2470002 25
32.196999 -3.6259999 -0.81 9
54.216 -6.0229998 -0.51599997 11
85.584 -9.3839998 0.52399999 48
135.198 -14.63 2.9449999 13
0 0 0 0
135.548 -14.303 7.198 24
32.030998 -3.378 -0.80500001 6
49.112999 -5.1059999 -0.46799999 5
83.137001 -8.5220003 0.505 21
135.483 -13.701 2.9400001 19
135.476 -13.514 5.0570002 36
134.85899 -13.273 7.1430001 35
32.485001 -3.1930001 -0.81999999 16
49.921001 -4.8330002 -0.48199999 2
78.838997 -7.5149999 0.46599999 41
78.806999 -7.4050002 1.6950001 46
79.064003 -7.322 2.934 14
78.670998 -7.1820002 4.1469998 4
32.198002 -2.934 -0.81999999 10
50.515999 -4.5339999 -0.5 4
87.629997 -7.737 0.49399999 54
137.06 -11.912 2.9059999 14
136.21899 -11.656 5.0100002 19
79.149002 -6.6690001 4.1440001 10
31.986 -2.6889999 -0.82499999 20
35.835999 -2.9619999 -0.368 65
36.308998 -2.951 0.19 2
0 0 0 0
146.97301 -11.557 5.342 16
77.830002 -6.02 4.039 4
31.924999 -2.4590001 -0.838 20
35.666 -2.6960001 -0.38299999 46
35.983002 -2.671 0.171 46
140.86 -10.274 2.855 26
0 0 0 0
0 0 0 0
31.955 -2.2349999 -0.85699999 29
35.323002 -2.4219999 -0.40000001 64
35.598 -2.3940001 0.147 65
139.776 -9.21 2.743 20
141.713 -9.1549997 4.9780002 42
144.593 -9.165 7.3210001 27
31.514999 -1.982 -0.86699998 26
35.159 -2.164 -0.42300001 79
35.390999 -2.131 0.12 67
140.11301 -8.2480001 2.6429999 20
0 0 0 0
145.371 -8.1960001 7.2449999 28
31.493999 -1.761 -0.89099997 35
35.021 -1.911 -0.44999999 73
35.273998 -1.8789999 0.090000004 68
36.297001 -1.887 0.65399998 1
0 0 0 0
141.39999 -7.0050001 6.921 20
31.257999 -1.529 -0.91299999 34
35.02 -1.668 -0.48300001 57
35.179001 -1.632 0.057 72
36.028999 -1.626 0.61400002 7
139.742 -6.1339998 4.5409999 26
140.228 -5.9840002 6.723 20
31.252001 -1.313 -0.94499999 47
34.966999 -1.424 -0.51899999 63
35.139999 -1.386 0.018999999 66
35.973 -1.376 0.574 21
141.306 -5.2270002 4.4359999 20
88.017998 -3.1489999 4.1209998 32
31.152 -1.09 -0.97899997 61
35.187 -1.189 -0.56300002 44
35.105 -1.141 -0.022 76
35.987 -1.127 0.53100002 30
87.809998 -2.6440001 2.6500001 20
92.122002 -2.668 4.2010002 30
31.052999 -0.87099999 -1.015 64
35.062 -0.94099998 -0.60699999 52
35.153 -0.89999998 -0.068000004 77
35.970001 -0.87900001 0.484 44
98.566002 -2.2920001 2.8440001 20
87.016998 -1.925 3.852 4
30.966 -0.65600002 -1.0549999 65
35.112999 -0.70300001 -0.65600002 55
35.214001 -0.66299999 -0.117 71
36.051998 -0.63700002 0.43399999 28
97.542 -1.615 2.678 150
87.703003 -1.35 3.757 10
30.906 -0.44499999 -1.099 63
35.271999 -0.46700001 -0.71200001 65
35.374001 -0.426 -0.171 72
36.279999 -0.396 0.382 14
121.593 -1.186 3.151 83
102.381 -0.88999999 4.2290001 10
30.948999 -0.236 -1.15 69
33.573002 -0.21699999 -0.73199999 5
35.654999 -0.189 -0.23 59
44.589001 -0.185 0.39700001 54
56.306999 -0.17299999 1.367 4
122.011 -0.236 4.8379998 11
30.785 -0.025 -1.197 64
31.464001 0.0099999998 -0.741 3
36.209 0.050999999 -0.296 46
43.950001 0.113 0.31400001 60
44.616001 0.16500001 1.0039999 56
121.171 0.57999998 4.5900002 15
30.792999 0.185 -1.255 75
31.952 0.227 -0.81199998 44
43.846001 0.36000001 -0.44100001 54
43.509998 0.403 0.23 47
43.853001 0.45500001 0.90600002 61
45.319 0.52200001 1.631 37
30.740999 0.39199999 -1.313 63
30.895 0.42699999 -0.84500003 34
43.493 0.64700001 -0.52200001 58
43.171001 0.69 0.14399999 64
43.432999 0.741 0.81099999 59
44.259998 0.80199999 1.506 61
30.945 0.60000002 -1.386 57
30.656 0.62699997 -0.90200001 61
34.665001 0.74599999 -0.48800001 43
34.877998 0.78799999 0.044 43
43.105999 1.02 0.71600002 53
31.743 0.78500003 1.0140001 48
30.729 0.80400002 -1.444 59
30.577999 0.83200002 -0.96700001 71
34.319 0.96799999 -0.55800003 42
34.400002 1.006 -0.030999999 41
31.549 0.95599997 0.454 0
31.554001 0.98799998 0.93900001 79
30.697001 1.008 -1.5140001 46
30.545 1.035 -1.0369999 77
31.628 1.103 -0.588 150
31.586 1.1339999 -0.102 49
34.497002 1.274 0.417 42
31.392 1.1900001 0.86199999 77
30.58 1.207 -1.582 25
30.518 1.234 -1.109 72
33.765999 1.401 -0.70999998 61
33.875999 1.438 -0.191 56
34.179001 1.4859999 0.331 41
34.935001 1.553 0.875 1
30.082001 1.386 -1.633 20
30.533001 1.4349999 -1.187 66
32.938 1.579 -0.77399999 45
33.733002 1.65 -0.27399999 52
33.952 1.694 0.245 48
34.657001 1.7640001 0.78100002 42
28.098 1.48 -1.6 6
30.535 1.635 -1.268 67
0 0 0 0
33.644001 1.863 -0.361 40
33.813999 1.905 0.155 47
34.424 1.972 0.68699998 42
26.815001 1.584 -1.6 6
30.687 1.839 -1.358 52
30.629 1.864 -0.88300002 34
33.651001 2.0810001 -0.45300001 41
33.665001 2.1140001 0.063000001 60
34.325001 2.188 0.59100002 41
25.607 1.679 -1.602 7
30.51 2.027 -1.438 48
30.415001 2.0480001 -0.96499997 60
33.582001 2.293 -0.54799998 40
33.639 2.3269999 -0.030999999 39
34.056 2.3889999 0.491 41
24.382999 1.757 -1.598 9
30.468 2.221 -1.527 31
30.392 2.2409999 -1.054 77
33.544998 2.5039999 -0.64600003 53
33.710999 2.5450001 -0.13 40
33.911999 2.592 0.38999999 50
23.32 1.829 -1.601 14
30.120001 2.3870001 -1.602 28
30.414 2.434 -1.147 72
33.500999 2.71 -0.74599999 49
33.619999 2.7479999 -0.23 41
33.776001 2.793 0.287 54
22.32 1.892 -1.603 18
27.941999 2.391 -1.575 5
30.444 2.6289999 -1.245 54
30.554001 2.664 -0.77700001 20
33.595001 2.9590001 -0.336 40
33.799999 3.0050001 0.182 35
21.364 1.946 -1.6059999 17
26.382 2.4230001 -1.573 5
30.569 2.8310001 -1.35 61
30.450001 2.846 -0.87400001 52
33.561001 3.165 -0.44499999 54
33.756001 3.211 0.072999999 57
20.513 1.998 -1.613 16
24.933001 2.4460001 -1.572 7
30.546 3.02 -1.452 49
30.337 3.0220001 -0.97100002 66
33.859001 3.4000001 -0.56099999 41
33.754002 3.418 -0.037999999 60
19.635 2.036 -1.614 14
23.663 2.47 -1.576 12
30.403 3.1949999 -1.552 30
30.389 3.217 -1.08 61
33.834 3.6070001 -0.67799997 39
33.910999 3.645 -0.15700001 42
18.872 2.0739999 -1.62 13
22.483999 2.487 -1.58 18
0 0 0 0
30.351 3.4000001 -1.188 65
30.423 3.431 -0.71899998 4
33.874001 3.8469999 -0.27599999 52
18.117001 2.1040001 -1.624 12
21.374001 2.494 -1.581 17
26.919001 3.158 -1.571 5
30.496 3.599 -1.3049999 62
30.337999 3.605 -0.82700002 47
34.133999 4.0819998 -0.40200001 40
17.399 2.1270001 -1.628 11
20.459999 2.513 -1.5930001 15
25.302999 3.1240001 -1.574 6
30.527 3.789 -1.4220001 34
30.32 3.7839999 -0.94099998 67
34.326 4.3119998 -0.53299999 38
16.731001 2.1470001 -1.632 10
19.594 2.5250001 -1.603 14
23.806 3.082 -1.574 11
30.403999 3.957 -1.535 30
30.372 3.9719999 -1.059 64
34.879002 4.5869999 -0.67500001 35
16.093 2.1619999 -1.636 9
18.709999 2.5239999 -1.607 13
22.584 3.0599999 -1.585 18
0 0 0 0
30.381001 4.1539998 -1.181 70
30.639 4.211 -0.71399999 4
15.457 2.1700001 -1.637 10
17.899 2.5220001 -1.612 12
21.344 3.0190001 -1.586 17
26.799 3.806 -1.5700001 5
30.511999 4.3520002 -1.3099999 55
30.399 4.3569999 -0.83099997 37
14.851 2.1730001 -1.637 12
17.110001 2.5120001 -1.614 11
20.27 2.9860001 -1.592 15
24.858 3.6760001 -1.561 6
30.549999 4.5359998 -1.439 32
30.434 4.5380001 -0.95700002 58
14.314 2.1789999 -1.641 11
16.433001 2.5079999 -1.622 10
19.34 2.961 -1.603 14
23.391001 3.5940001 -1.569 12
30.329 4.677 -1.558 23
30.413 4.7090001 -1.085 58
13.809 2.1830001 -1.646 12
15.728 2.4920001 -1.623 10
18.388 2.921 -1.605 13
22.104 3.5220001 -1.579 17
28.169001 4.5050001 -1.569 5
30.514 4.8979998 -1.22 58
13.357 2.1889999 -1.654 11
15.065 2.474 -1.624 11
