# .PCD v0.7 - Point Cloud Data file format
VERSION 0.7
FIELDS x y z intensity
SIZE 4 4 4 4
TYPE F F F F
COUNT 1 1 1 1
WIDTH 1918
HEIGHT 1
VIEWPOINT 0 0 0 1 0 0 0
POINTS 1918
DATA ascii
5.3920002 0.52200001 -1.8150001 12
5.6830001 0.55299997 -1.808 10
6.0110002 0.588 -1.804 10
6.3720002 0.62699997 -1.8 10
4.7659998 0.45500001 -1.824 9
5.0019999 0.479 -1.818 10
5.277 0.50800002 -1.818 11
5.553 0.53799999 -1.8099999 10
5.8740001 0.57200003 -1.808 10
6.2010002 0.60699999 -1.798 10
4.6719999 0.44299999 -1.827 9
4.895 0.46599999 -1.818 10
5.1599998 0.49399999 -1.818 11
5.4330001 0.523 -1.813 11
5.737 0.55500001 -1.809 10
6.0549998 0.58899999 -1.8 10
4.5650001 0.43000001 -1.823 11
4.7880001 0.45300001 -1.817 10
5.0479999 0.47999999 -1.819 11
5.322 0.509 -1.817 10
5.599 0.53799999 -1.807 10
5.9060001 0.57099998 -1.799 11
4.4809999 0.419 -1.826 14
4.7059999 0.442 -1.824 11
4.9450002 0.46599999 -1.819 9
5.2080002 0.49399999 -1.817 10
5.48 0.52200001 -1.809 11
5.7880001 0.55500001 -1.806 10
4.3920002 0.40700001 -1.826 14
4.6069999 0.42899999 -1.822 13
4.8439999 0.45300001 -1.8200001 12
5.1069999 0.47999999 -1.821 10
5.369 0.50700003 -1.813 11
5.6360002 0.53500003 -1.8 11
4.3210001 0.396 -1.832 9
4.5219998 0.417 -1.825 18
4.7490001 0.44 -1.822 11
4.9879999 0.46399999 -1.817 9
5.2579999 0.49200001 -1.816 12
5.5209999 0.51899999 -1.804 11
4.2360001 0.384 -1.831 9
4.4330001 0.40400001 -1.824 19
4.6409998 0.42500001 -1.817 16
4.8909998 0.44999999 -1.819 11
5.1459999 0.47600001 -1.8150001 11
5.421 0.50400001 -1.811 11
4.1550002 0.37200001 -1.83 9
4.3709998 0.39300001 -1.834 14
4.5619998 0.412 -1.822 20
4.79 0.435 -1.818 10
5.0380001 0.46000001 -1.8150001 10
5.3060002 0.48699999 -1.811 10
4.0799999 0.36000001 -1.831 9
4.2849998 0.38 -1.8329999 10
4.4809999 0.39899999 -1.825 20
4.6950002 0.421 -1.818 11
4.9530001 0.44600001 -1.822 13
5.197 0.47099999 -1.813 10
4.0110002 0.34900001 -1.834 11
4.204 0.36700001 -1.832 10
4.401 0.38600001 -1.827 16
4.6090002 0.40700001 -1.8200001 18
4.8429999 0.43000001 -1.817 11
5.0900002 0.454 -1.812 13
3.938 0.33700001 -1.8329999 8
4.1279998 0.35499999 -1.832 9
4.3330002 0.37400001 -1.8329999 10
4.5450001 0.39500001 -1.829 17
4.7509999 0.41499999 -1.818 10
5.0029998 0.43900001 -1.818 16
3.881 0.32600001 -1.839 9
4.0510001 0.34200001 -1.83 9
4.2490001 0.36000001 -1.83 10
4.4530001 0.38 -1.826 17
4.6479998 0.39899999 -1.813 14
4.8930001 0.42199999 -1.813 11
3.819 0.31400001 -1.841 8
3.9849999 0.33000001 -1.8329999 9
4.177 0.34799999 -1.832 9
4.3839998 0.36700001 -1.831 12
4.5799999 0.38499999 -1.8200001 17
4.7969999 0.40599999 -1.812 10
3.7590001 0.303 -1.8430001 8
3.924 0.31799999 -1.837 9
4.1079998 0.33500001 -1.834 9
4.2979999 0.352 -1.8279999 9
4.5029998 0.37099999 -1.823 15
4.7199998 0.391 -1.817 10
3.691 0.29100001 -1.84 8
3.8610001 0.30599999 -1.8380001 9
4.0339999 0.32100001 -1.832 9
4.2290001 0.33899999 -1.83 9
4.4299998 0.35699999 -1.826 10
4.6329999 0.375 -1.817 14
3.635 0.27900001 -1.842 9
3.8 0.294 -1.839 9
3.964 0.308 -1.831 9
4.1570001 0.32499999 -1.83 8
4.3540001 0.34299999 -1.826 10
4.5679998 0.36199999 -1.824 10
3.576 0.26800001 -1.842 8
3.743 0.28200001 -1.841 9
3.9070001 0.296 -1.834 8
4.0869999 0.31099999 -1.83 9
4.289 0.329 -1.83 10
4.4899998 0.34599999 -1.824 10
3.5250001 0.257 -1.844 8
3.6860001 0.27000001 -1.842 9
3.849 0.28400001 -1.837 8
4.0219998 0.29800001 -1.831 10
4.211 0.31400001 -1.827 9
4.4120002 0.331 -1.823 10
3.4660001 0.245 -1.842 8
3.628 0.25799999 -1.842 9
3.796 0.271 -1.84 9
3.9519999 0.28400001 -1.8279999 9
4.1440001 0.30000001 -1.8279999 9
4.3460002 0.317 -1.827 9
3.411 0.233 -1.841 18
3.5799999 0.24600001 -1.846 9
3.737 0.259 -1.84 8
3.8900001 0.271 -1.8279999 10
4.0840001 0.28600001 -1.831 9
4.2750001 0.30199999 -1.826 10
3.3529999 0.221 -1.837 10
3.5239999 0.234 -1.845 8
3.6760001 0.24600001 -1.8380001 8
3.8570001 0.25999999 -1.842 14
4.0110002 0.27200001 -1.827 9
4.211 0.287 -1.829 9
3.323 0.211 -1.848 10
3.464 0.221 -1.841 9
3.6240001 0.233 -1.84 8
3.79 0.24600001 -1.837 15
3.947 0.25799999 -1.826 15
4.1430001 0.27200001 -1.8279999 9
3.267 0.199 -1.8430001 14
3.4170001 0.20999999 -1.842 24
3.585 0.222 -1.847 9
3.7379999 0.233 -1.839 8
3.9059999 0.245 -1.834 13
4.0770001 0.25799999 -1.827 8
3.23 0.18799999 -1.848 8
3.365 0.198 -1.84 21
3.53 0.20900001 -1.845 8
3.6830001 0.22 -1.839 8
3.855 0.23199999 -1.837 14
4.0149999 0.243 -1.826 13
3.1889999 0.177 -1.85 7
3.3269999 0.186 -1.845 10
3.4779999 0.197 -1.8430001 9
3.6370001 0.207 -1.842 8
3.793 0.21799999 -1.834 17
3.964 0.23 -1.829 13
3.141 0.16500001 -1.847 7
3.2820001 0.175 -1.845 7
3.428 0.184 -1.842 10
3.5880001 0.19499999 -1.842 8
3.747 0.205 -1.837 9
3.9200001 0.21600001 -1.834 12
3.1010001 0.154 -1.848 6
3.2409999 0.163 -1.847 7
3.388 0.17200001 -1.845 7
3.543 0.182 -1.844 8
3.6989999 0.192 -1.8380001 8
3.858 0.20200001 -1.831 8
3.0650001 0.14399999 -1.851 6
3.2019999 0.152 -1.849 7
3.3499999 0.16 -1.848 7
3.4990001 0.169 -1.845 8
3.6489999 0.178 -1.8380001 8
3.8110001 0.18799999 -1.8329999 8
3.029 0.132 -1.853 6
3.1619999 0.14 -1.849 7
3.3080001 0.148 -1.849 7
3.451 0.15700001 -1.8430001 7
3.608 0.16599999 -1.841 8
3.7639999 0.175 -1.834 8
2.9809999 0.121 -1.846 8
3.1229999 0.12899999 -1.849 6
3.263 0.13600001 -1.846 7
3.4119999 0.14399999 -1.845 7
3.5639999 0.153 -1.841 8
3.7219999 0.161 -1.837 8
1.641 0.061000001 -1.028 2
3.085 0.117 -1.849 7
3.2260001 0.125 -1.848 7
3.372 0.132 -1.846 7
3.527 0.14 -1.845 8
3.678 0.148 -1.8380001 8
1.5470001 0.052999999 -0.98199999 2
3.0480001 0.106 -1.848 6
3.1830001 0.112 -1.845 7
3.329 0.12 -1.844 7
3.48 0.127 -1.842 8
3.632 0.134 -1.837 8
1.5 0.046 -0.963 2
3.02 0.094999999 -1.853 6
3.1600001 0.101 -1.853 8
3.2920001 0.107 -1.845 7
3.4389999 0.114 -1.842 8
3.596 0.121 -1.84 8
1.4680001 0.039999999 -0.95300001 3
0 0 0 0
3.119 0.089000002 -1.85 6
3.256 0.094999999 -1.846 16
3.411 0.101 -1.848 12
3.5550001 0.108 -1.84 8
1.437 0.034000002 -0.94300002 4
1.628 0.039999999 -1.021 2
3.085 0.078000002 -1.85 6
3.2160001 0.082999997 -1.844 12
3.3610001 0.088 -1.841 13
3.5220001 0.094999999 -1.8430001 7
1.405 0.028000001 -0.93199998 4
1.557 0.032000002 -0.98699999 2
3.0550001 0.066 -1.851 6
3.1930001 0.071000002 -1.849 21
3.332 0.075999998 -1.845 25
3.484 0.081 -1.8430001 7
0 0 0 0
1.515 0.026000001 -0.97100002 3
3.023 0.054000001 -1.851 6
3.1600001 0.059 -1.85 9
3.29 0.063000001 -1.84 11
3.4389999 0.068000004 -1.8380001 10
0 0 0 0
1.4859999 0.02 -0.96200001 3
1.5880001 0.023 -0.98199999 0
3.1210001 0.046999998 -1.845 6
3.263 0.050999999 -1.844 19
3.428 0.056000002 -1.851 18
0 0 0 0
1.456 0.014 -0.95099998 4
0 0 0 0
3.102 0.035 -1.851 6
3.237 0.039000001 -1.846 8
3.3900001 0.043000001 -1.848 8
0 0 0 0
1.437 0.0089999996 -0.94800001 5
1.573 0.011 -0.991 1
3.066 0.023 -1.847 6
3.2019999 0.027000001 -1.844 7
3.3540001 0.029999999 -1.845 7
0 0 0 0
0 0 0 0
1.546 0.0049999999 -0.98299998 2
3.0420001 0.012 -1.849 6
3.1789999 0.014 -1.847 7
3.3180001 0.017000001 -1.842 7
0 0 0 0
0 0 0 0
1.5089999 0 -0.96799999 2
3.0150001 0 -1.849 6
3.1459999 0.0020000001 -1.844 6
3.289 0.0040000002 -1.842 7
0 0 0 0
0 0 0 0
1.4809999 -0.0060000001 -0.95899999 2
1.582 -0.0060000001 -0.97799999 0
3.119 -0.0089999996 -1.8430001 6
3.267 -0.0070000002 -1.845 6
0 0 0 0
0 0 0 0
1.462 -0.012 -0.954 3
0 0 0 0
3.108 -0.021 -1.851 6
3.2449999 -0.02 -1.847 6
0 0 0 0
0 0 0 0
1.439 -0.017000001 -0.94599998 4
1.602 -0.017999999 -1.006 1
3.0769999 -0.033 -1.847 7
3.217 -0.032000002 -1.845 7
0 0 0 0
0 0 0 0
1.424 -0.023 -0.94300002 4
1.568 -0.024 -0.99199998 1
3.0580001 -0.045000002 -1.849 6
3.2 -0.045000002 -1.848 15
0 0 0 0
0 0 0 0
1.406 -0.028999999 -0.93800002 4
1.5319999 -0.029999999 -0.97600001 2
3.0380001 -0.057 -1.85 6
3.187 -0.057 -1.854 13
0 0 0 0
0 0 0 0
0 0 0 0
1.515 -0.035 -0.972 2
3.016 -0.068999998 -1.848 6
3.1630001 -0.07 -1.851 9
0 0 0 0
0 0 0 0
0 0 0 0
1.495 -0.041000001 -0.96499997 2
2.993 -0.079999998 -1.846 6
3.132 -0.082000002 -1.845 7
0 0 0 0
0 0 0 0
0 0 0 0
1.479 -0.046999998 -0.95999998 2
2.9760001 -0.092 -1.846 7
3.1170001 -0.093999997 -1.847 6
0 0 0 0
0 0 0 0
0 0 0 0
1.461 -0.052000001 -0.954 2
0 0 0 0
3.1059999 -0.107 -1.851 6
0 0 0 0
0 0 0 0
0 0 0 0
1.45 -0.057999998 -0.95200002 2
0 0 0 0
3.089 -0.119 -1.85 6
0 0 0 0
0 0 0 0
0 0 0 0
1.437 -0.064000003 -0.94800001 2
1.5930001 -0.068999998 -1.0039999 1
3.0739999 -0.131 -1.849 6
0 0 0 0
0 0 0 0
0 0 0 0
0 0 0 0
1.567 -0.074000001 -0.991 1
3.063 -0.14300001 -1.851 6
0 0 0 0
0 0 0 0
0 0 0 0
0 0 0 0
1.552 -0.079999998 -0.986 1
3.05 -0.155 -1.851 6
0 0 0 0
0 0 0 0
0 0 0 0
0 0 0 0
1.539 -0.086000003 -0.98100001 2
3.0420001 -0.168 -1.852 6
0 0 0 0
0 0 0 0
0 0 0 0
0 0 0 0
1.528 -0.092 -0.97799999 2
3.027 -0.17900001 -1.85 6
0 0 0 0
0 0 0 0
0 0 0 0
0 0 0 0
1.5190001 -0.097999997 -0.97500002 2
3.0220001 -0.192 -1.852 6
0 0 0 0
0 0 0 0
0 0 0 0
0 0 0 0
1.512 -0.104 -0.97299999 2
3.0090001 -0.204 -1.848 6
0 0 0 0
0 0 0 0
0 0 0 0
0 0 0 0
1.508 -0.11 -0.97299999 2
3.01 -0.21600001 -1.853 6
0 0 0 0
0 0 0 0
0 0 0 0
0 0 0 0
1.501 -0.115 -0.97000003 2
3.0050001 -0.228 -1.853 6
0 0 0 0
0 0 0 0
0 0 0 0
0 0 0 0
1.499 -0.121 -0.97000003 2
2.9990001 -0.23999999 -1.852 6
0 0 0 0
0 0 0 0
0 0 0 0
0 0 0 0
1.499 -0.12800001 -0.97100002 2
2.9960001 -0.252 -1.852 6
0 0 0 0
0 0 0 0
0 0 0 0
0 0 0 0
1.495 -0.133 -0.96899998 2
2.9949999 -0.264 -1.853 6
0 0 0 0
0 0 0 0
0 0 0 0
0 0 0 0
1.498 -0.14 -0.972 2
2.9990001 -0.27700001 -1.8559999 6
0 0 0 0
0 0 0 0
0 0 0 0
0 0 0 0
1.495 -0.146 -0.97000003 2
2.993 -0.289 -1.852 6
0 0 0 0
0 0 0 0
0 0 0 0
0 0 0 0
1.4960001 -0.152 -0.97000003 2
2.9949999 -0.301 -1.852 6
0 0 0 0
0 0 0 0
0 0 0 0
0 0 0 0
1.505 -0.15899999 -0.97500002 2
2.9979999 -0.31299999 -1.853 6
0 0 0 0
0 0 0 0
0 0 0 0
0 0 0 0
1.5089999 -0.16500001 -0.977 2
3.006 -0.32600001 -1.855 6
0 0 0 0
0 0 0 0
0 0 0 0
0 0 0 0
1.5190001 -0.17200001 -0.98100001 2
3.017 -0.33899999 -1.858 6
0 0 0 0
0 0 0 0
0 0 0 0
0 0 0 0
1.524 -0.17900001 -0.98299998 2
3.0239999 -0.35100001 -1.859 6
0 0 0 0
0 0 0 0
0 0 0 0
0 0 0 0
1.533 -0.185 -0.986 2
3.029 -0.36300001 -1.857 6
0 0 0 0
0 0 0 0
0 0 0 0
0 0 0 0
1.557 -0.19400001 -0.99900001 1
3.04 -0.37599999 -1.859 6
0 0 0 0
0 0 0 0
0 0 0 0
0 0 0 0
1.568 -0.20100001 -1.003 1
3.05 -0.38800001 -1.86 6
0 0 0 0
0 0 0 0
0 0 0 0
0 0 0 0
1.6 -0.211 -1.02 1
3.0599999 -0.40099999 -1.859 6
0 0 0 0
0 0 0 0
0 0 0 0
0 0 0 0
0 0 0 0
3.0699999 -0.41299999 -1.858 6
0 0 0 0
0 0 0 0
0 0 0 0
1.446 -0.20299999 -0.95999998 2
0 0 0 0
3.086 -0.426 -1.86 6
0 0 0 0
0 0 0 0
0 0 0 0
1.466 -0.211 -0.96899998 2
2.9400001 -0.41999999 -1.851 7
3.0940001 -0.43799999 -1.8559999 6
0 0 0 0
0 0 0 0
0 0 0 0
1.482 -0.219 -0.97500002 2
2.967 -0.43399999 -1.859 6
3.1110001 -0.44999999 -1.8559999 6
0 0 0 0
0 0 0 0
0 0 0 0
1.5 -0.226 -0.98199999 2
2.987 -0.447 -1.8609999 6
3.1289999 -0.46399999 -1.857 6
0 0 0 0
0 0 0 0
0 0 0 0
1.517 -0.234 -0.98699999 2
3 -0.458 -1.858 6
3.1600001 -0.479 -1.865 8
0 0 0 0
0 0 0 0
0 0 0 0
1.549 -0.244 -1.001 1
3.02 -0.47099999 -1.859 6
3.177 -0.491 -1.863 9
0 0 0 0
0 0 0 0
0 0 0 0
1.573 -0.252 -1.011 1
3.04 -0.48300001 -1.86 6
3.1949999 -0.50400001 -1.8609999 12
0 0 0 0
0 0 0 0
0 0 0 0
1.706 -0.27900001 -1.089 2
3.062 -0.49599999 -1.8609999 6
3.207 -0.51599997 -1.8559999 9
0 0 0 0
0 0 0 0
1.452 -0.244 -0.96700001 2
0 0 0 0
3.0799999 -0.50800002 -1.858 6
3.24 -0.53100002 -1.8609999 7
0 0 0 0
0 0 0 0
1.477 -0.25299999 -0.97600001 2
1.539 -0.26100001 -0.96799999 0
3.1059999 -0.52100003 -1.86 7
3.2590001 -0.54299998 -1.857 7
0 0 0 0
0 0 0 0
1.5089999 -0.26199999 -0.99000001 2
2.983 -0.514 -1.862 6
3.1300001 -0.53399998 -1.859 7
3.2920001 -0.55800003 -1.8609999 8
0 0 0 0
0 0 0 0
1.543 -0.27200001 -1.0039999 2
3.0079999 -0.52600002 -1.862 6
3.1570001 -0.54699999 -1.859 7
3.319 -0.57099998 -1.86 7
0 0 0 0
0 0 0 0
1.579 -0.28299999 -1.0190001 2
3.0339999 -0.53899997 -1.862 6
3.1900001 -0.56199998 -1.863 7
3.3469999 -0.58499998 -1.86 7
0 0 0 0
0 0 0 0
1.691 -0.30700001 -1.082 3
3.0610001 -0.551 -1.863 7
3.214 -0.574 -1.86 8
3.3789999 -0.59899998 -1.86 8
0 0 0 0
0 0 0 0
0 0 0 0
3.089 -0.56300002 -1.862 6
3.2460001 -0.58700001 -1.8609999 7
3.415 -0.61400002 -1.863 11
0 0 0 0
1.49 -0.28 -0.98400003 2
2.9719999 -0.55400002 -1.8660001 6
3.119 -0.57599998 -1.863 6
3.2809999 -0.60100001 -1.864 10
3.4389999 -0.62599999 -1.857 10
0 0 0 0
1.5369999 -0.29300001 -1.005 2
3.007 -0.56699997 -1.87 6
3.155 -0.58999997 -1.865 7
3.3150001 -0.61500001 -1.864 11
3.4749999 -0.64099997 -1.858 7
0 0 0 0
1.571 -0.30199999 -1.017 4
3.0380001 -0.57999998 -1.87 7
3.187 -0.60299999 -1.8660001 11
3.346 -0.62800002 -1.862 21
3.5139999 -0.65499997 -1.859 8
0 0 0 0
1.67 -0.32499999 -1.0700001 6
3.062 -0.58999997 -1.865 6
3.2090001 -0.61299998 -1.859 10
3.3840001 -0.64200002 -1.863 11
3.5510001 -0.67000002 -1.858 8
1.4579999 -0.289 -0.972 3
0 0 0 0
3.095 -0.60299999 -1.865 7
3.2579999 -0.62900001 -1.8660001 18
3.418 -0.65499997 -1.8609999 13
3.596 -0.685 -1.86 8
1.5 -0.301 -0.99000001 3
2.98 -0.59100002 -1.868 6
3.1329999 -0.616 -1.867 7
3.2850001 -0.64099997 -1.8609999 12
3.46 -0.67000002 -1.862 8
3.641 -0.70099998 -1.8609999 8
1.531 -0.31 -0.99900001 4
3.0139999 -0.60299999 -1.869 7
3.174 -0.63 -1.87 16
3.335 -0.65600002 -1.867 9
3.497 -0.68300003 -1.86 8
3.677 -0.71399999 -1.857 8
1.568 -0.31900001 -1.011 3
3.056 -0.61699998 -1.873 7
3.1989999 -0.63999999 -1.862 18
3.372 -0.66900003 -1.865 7
3.5439999 -0.699 -1.862 8
3.7249999 -0.73000002 -1.858 8
0 0 0 0
3.086 -0.62800002 -1.868 7
3.2420001 -0.65399998 -1.865 14
3.4189999 -0.68400002 -1.868 7
3.582 -0.71200001 -1.859 8
3.7809999 -0.74699998 -1.862 11
2.973 -0.61500001 -1.8710001 6
3.125 -0.63999999 -1.869 7
3.2839999 -0.667 -1.8660001 8
3.4579999 -0.69700003 -1.8660001 8
3.6329999 -0.72799999 -1.8609999 8
3.8210001 -0.76099998 -1.858 12
3.0109999 -0.62599999 -1.872 6
3.1689999 -0.653 -1.8710001 9
3.332 -0.68099999 -1.869 8
3.5 -0.70999998 -1.864 8
3.6819999 -0.74299997 -1.8609999 8
3.8640001 -0.77499998 -1.853 9
3.0469999 -0.63800001 -1.87 6
3.204 -0.66399997 -1.867 8
3.3759999 -0.69400001 -1.868 8
3.5510001 -0.72500002 -1.8660001 7
3.7320001 -0.75700003 -1.8609999 9
3.9200001 -0.79100001 -1.854 9
3.092 -0.65100002 -1.873 6
3.2539999 -0.67900002 -1.8710001 8
3.4230001 -0.708 -1.87 8
3.596 -0.73900002 -1.864 8
3.78 -0.77200001 -1.859 11
3.974 -0.80699998 -1.853 9
3.1300001 -0.662 -1.87 7
3.2950001 -0.69099998 -1.87 8
3.4749999 -0.72299999 -1.872 8
3.6429999 -0.75199997 -1.862 8
3.823 -0.78500003 -1.853 9
4.0300002 -0.82300001 -1.852 8
3.168 -0.67299998 -1.867 6
3.342 -0.704 -1.87 8
3.5179999 -0.73500001 -1.869 8
3.694 -0.76700002 -1.862 8
3.8800001 -0.801 -1.854 9
4.0949998 -0.84100002 -1.853 8
3.2130001 -0.685 -1.867 7
3.385 -0.71600002 -1.868 8
3.5639999 -0.74800003 -1.8660001 8
3.7409999 -0.77999997 -1.858 8
3.941 -0.81699997 -1.855 9
4.164 -0.85900003 -1.8559999 9
3.2590001 -0.69700003 -1.867 7
3.438 -0.72899997 -1.869 8
3.6240001 -0.76300001 -1.87 8
3.799 -0.79500002 -1.859 8
4.0050001 -0.833 -1.8559999 9
4.2329998 -0.87699997 -1.857 9
3.309 -0.70999998 -1.869 8
3.493 -0.74299997 -1.872 9
3.6730001 -0.77600002 -1.867 9
3.862 -0.81099999 -1.86 8
4.0689998 -0.85000002 -1.8559999 9
4.2950001 -0.89300001 -1.854 9
3.3670001 -0.72399998 -1.873 7
3.539 -0.755 -1.868 9
3.727 -0.79000002 -1.865 8
3.915 -0.824 -1.857 9
4.1329999 -0.866 -1.8559999 9
4.3670001 -0.91100001 -1.855 9
3.418 -0.73699999 -1.873 7
3.595 -0.76899999 -1.869 8
3.7780001 -0.80199999 -1.8609999 8
3.984 -0.84100002 -1.859 9
4.2069998 -0.88300002 -1.858 9
4.4520001 -0.93099999 -1.859 10
3.4619999 -0.74699998 -1.868 8
3.6530001 -0.78299999 -1.869 8
3.8399999 -0.81699997 -1.862 8
4.0500002 -0.85699999 -1.86 11
4.2680001 -0.898 -1.854 9
4.5170002 -0.94599998 -1.853 12
3.523 -0.76099998 -1.8710001 8
3.7049999 -0.79500002 -1.865 9
3.895 -0.82999998 -1.858 9
4.1209998 -0.87300003 -1.8609999 8
4.342 -0.91500002 -1.854 9
4.5939999 -0.96399999 -1.852 10
3.5769999 -0.773 -1.869 8
3.766 -0.80800003 -1.865 9
3.9649999 -0.84600002 -1.86 10
4.1919999 -0.889 -1.86 8
4.4349999 -0.93599999 -1.86 10
4.6760001 -0.98299998 -1.851 11
3.641 -0.787 -1.8710001 8
3.826 -0.82200003 -1.863 9
4.0279999 -0.86000001 -1.857 18
4.2639999 -0.90499997 -1.859 9
4.5 -0.94999999 -1.853 14
4.7639999 -1.002 -1.851 10
3.6989999 -0.80000001 -1.869 9
3.888 -0.83499998 -1.8609999 9
4.1079998 -0.87699997 -1.8609999 9
4.3429999 -0.92199999 -1.86 9
4.592 -0.97000003 -1.857 11
4.8509998 -1.02 -1.848 10
3.76 -0.81199998 -1.868 8
3.9579999 -0.85000002 -1.862 10
4.1830001 -0.89200002 -1.862 9
4.4200001 -0.93800002 -1.859 9
4.658 -0.98299998 -1.848 13
4.9520001 -1.041 -1.851 10
3.8239999 -0.82499999 -1.868 8
4.0190001 -0.86199999 -1.858 20
4.2620001 -0.90799999 -1.863 10
4.4899998 -0.95200002 -1.854 14
4.7589998 -1.0039999 -1.852 10
5.0489998 -1.061 -1.85 10
3.8800001 -0.83600003 -1.862 8
4.1040001 -0.87900001 -1.864 9
4.3340001 -0.92199999 -1.86 9
4.5929999 -0.972 -1.8609999 12
4.855 -1.023 -1.853 10
5.1399999 -1.079 -1.846 10
3.9519999 -0.85000002 -1.863 9
4.1789999 -0.89300001 -1.864 9
4.4219999 -0.93900001 -1.863 10
4.6469998 -0.98199999 -1.847 14
4.954 -1.0420001 -1.854 10
5.2480001 -1.1 -1.846 14
4.0149999 -0.861 -1.859 14
4.2610002 -0.90799999 -1.865 10
4.4920001 -0.95200002 -1.857 14
4.7620001 -1.0039999 -1.8559999 10
5.053 -1.061 -1.853 10
5.348 -1.119 -1.842 10
4.0929999 -0.875 -1.86 9
4.3340001 -0.921 -1.862 9
4.5869999 -0.97000003 -1.86 12
4.8569999 -1.022 -1.855 10
5.1500001 -1.079 -1.849 10
5.474 -1.142 -1.845 10
4.177 -0.88999999 -1.863 9
4.4200001 -0.93699998 -1.862 10
4.664 -0.98299998 -1.854 14
4.9569998 -1.039 -1.855 10
5.2600002 -1.098 -1.849 15
5.5949998 -1.164 -1.844 10
4.2600002 -0.90499997 -1.864 9
4.4980001 -0.94999999 -1.858 15
4.7639999 -1 -1.855 10
5.0619998 -1.058 -1.855 10
5.3759999 -1.119 -1.849 10
5.73 -1.188 -1.846 10
4.3369999 -0.917 -1.8609999 9
4.585 -0.96399999 -1.857 11
4.8600001 -1.016 -1.854 10
5.1659999 -1.075 -1.853 9
5.5040002 -1.141 -1.852 10
5.8629999 -1.211 -1.846 9
4.4380002 -0.93400002 -1.867 9
4.6729999 -0.97799999 -1.854 10
4.967 -1.034 -1.8559999 10
5.2789998 -1.094 -1.852 11
5.6209998 -1.16 -1.848 10
6.006 -1.235 -1.846 9
4.52 -0.94599998 -1.864 11
4.7740002 -0.99400002 -1.855 9
5.085 -1.053 -1.859 10
5.3860002 -1.11 -1.848 9
5.7550001 -1.182 -1.849 9
6.1620002 -1.26 -1.848 9
4.599 -0.95700002 -1.858 10
4.875 -1.0089999 -1.855 10
5.1880002 -1.068 -1.8559999 10
5.5229998 -1.132 -1.853 10
5.901 -1.205 -1.851 10
6.3039999 -1.283 -1.845 10
4.6900001 -0.97000003 -1.8559999 9
4.9790001 -1.024 -1.855 10
5.283 -1.081 -1.848 11
5.6560001 -1.152 -1.854 10
6.0310001 -1.224 -1.847 9
6.467 -1.308 -1.845 10
4.7880001 -0.98400003 -1.855 9
5.0840001 -1.039 -1.853 10
5.4169998 -1.102 -1.853 10
5.7779999 -1.17 -1.85 9
6.1890001 -1.248 -1.85 10
6.6290002 -1.332 -1.8430001 10
4.8839998 -0.99599999 -1.852 9
5.191 -1.053 -1.85 10
5.546 -1.12 -1.853 10
5.9229999 -1.191 -1.852 10
6.3470001 -1.271 -1.849 10
6.7950001 -1.3559999 -1.839 10
5.0019999 -1.013 -1.8559999 11
5.3189998 -1.071 -1.854 10
5.6799998 -1.138 -1.854 10
6.0630002 -1.21 -1.849 10
6.5079999 -1.293 -1.848 10
6.9809999 -1.383 -1.839 10
5.1110001 -1.027 -1.855 10
5.428 -1.084 -1.849 9
5.8150001 -1.156 -1.854 10
6.2160001 -1.23 -1.849 10
6.6620002 -1.313 -1.842 10
7.1729999 -1.409 -1.837 11
5.224 -1.04 -1.854 10
5.5580001 -1.101 -1.849 10
5.947 -1.1720001 -1.85 10
6.3740001 -1.251 -1.848 10
6.8499999 -1.339 -1.844 10
7.3839998 -1.438 -1.8380001 9
5.3429999 -1.054 -1.853 10
5.691 -1.117 -1.849 9
6.0939999 -1.1900001 -1.849 10
6.5289998 -1.2690001 -1.844 11
7.0190001 -1.359 -1.8380001 10
7.5819998 -1.4630001 -1.8329999 9
5.4619999 -1.067 -1.851 10
5.8270001 -1.132 -1.848 10
6.243 -1.207 -1.847 10
6.7030001 -1.291 -1.844 10
7.23 -1.387 -1.841 9
7.7839999 -1.488 -1.827 10
5.5910001 -1.081 -1.851 10
5.9720001 -1.149 -1.849 10
6.408 -1.227 -1.848 10
6.8829999 -1.312 -1.8430001 11
7.4190001 -1.409 -1.836 9
8.0080004 -1.515 -1.822 9
5.7280002 -1.096 -1.851 9
6.1149998 -1.163 -1.846 10
6.5760002 -1.245 -1.848 10
7.0970001 -1.3380001 -1.848 9
7.618 -1.431 -1.831 9
8.2390003 -1.5420001 -1.817 10
5.8670001 -1.11 -1.851 10
6.2649999 -1.179 -1.844 10
6.737 -1.261 -1.8430001 10
7.2670002 -1.355 -1.84 9
7.835 -1.454 -1.827 9
8.5039997 -1.573 -1.816 10
6.0100002 -1.123 -1.849 10
6.4320002 -1.1950001 -1.844 10
6.9239998 -1.281 -1.842 10
7.461 -1.374 -1.834 10
8.0579996 -1.478 -1.821 10
8.7620001 -1.601 -1.809 10
6.1620002 -1.137 -1.849 10
6.5960002 -1.21 -1.841 10
7.138 -1.303 -1.847 9
7.6690001 -1.3940001 -1.829 10
8.302 -1.503 -1.817 10
9.0369997 -1.63 -1.802 9
6.3189998 -1.15 -1.847 10
6.7750001 -1.226 -1.84 10
7.3140001 -1.317 -1.839 9
7.8889999 -1.415 -1.826 10
8.5570002 -1.529 -1.813 10
9.3249998 -1.66 -1.796 9
6.4920001 -1.165 -1.849 10
6.948 -1.24 -1.837 10
7.506 -1.334 -1.8329999 10
8.1120005 -1.4349999 -1.8200001 9
8.8219995 -1.554 -1.808 10
9.6370001 -1.691 -1.79 9
6.6539998 -1.177 -1.845 10
7.1620002 -1.26 -1.841 9
7.7140002 -1.35 -1.8279999 10
8.3450003 -1.454 -1.813 9
9.1009998 -1.579 -1.802 9
9.974 -1.725 -1.785 9
6.8569999 -1.194 -1.851 9
7.3530002 -1.274 -1.836 9
7.9400001 -1.368 -1.825 10
8.6059999 -1.476 -1.8099999 10
9.401 -1.6059999 -1.796 10
10.326 -1.757 -1.777 9
7.0089998 -1.201 -1.839 10
7.552 -1.2869999 -1.831 10
8.1619997 -1.3839999 -1.819 9
8.8719997 -1.497 -1.8049999 9
9.6440001 -1.6210001 -1.777 13
10.703 -1.7920001 -1.771 10
7.2129998 -1.215 -1.841 9
7.7579999 -1.3 -1.826 10
8.4040003 -1.401 -1.814 9
9.1549997 -1.5190001 -1.8 10
10.055 -1.661 -1.785 10
11.092 -1.825 -1.762 9
7.4120002 -1.226 -1.8380001 9
7.9780002 -1.313 -1.821 10
8.6619997 -1.418 -1.809 10
9.5380001 -1.554 -1.809 35
10.394 -1.686 -1.775 9
11.514 -1.86 -1.752 9
7.6040001 -1.235 -1.831 10
8.2030001 -1.325 -1.8150001 10
8.9390001 -1.436 -1.806 10
9.7799997 -1.564 -1.789 59
10.778 -1.716 -1.77 9
11.972 -1.898 -1.744 9
7.8169999 -1.245 -1.827 10
8.4440002 -1.337 -1.809 10
9.2180004 -1.452 -1.799 10
10.052 -1.575 -1.771 51
11.16 -1.7410001 -1.7589999 9
12.452 -1.9349999 -1.733 9
8.0369997 -1.2539999 -1.822 10
8.7060003 -1.351 -1.806 10
9.5710001 -1.477 -1.803 44
10.399 -1.596 -1.7640001 22
11.601 -1.773 -1.753 9
12.977 -1.975 -1.723 9
8.2629995 -1.262 -1.816 10
8.9729996 -1.362 -1.8 9
9.8240004 -1.483 -1.785 61
10.804 -1.623 -1.761 9
12.025 -1.798 -1.739 9
13.669 -2.0350001 -1.727 16
8.5050001 -1.27 -1.811 10
9.2720003 -1.376 -1.7970001 11
10.152 -1.498 -1.778 59
11.216 -1.646 -1.756 9
12.523 -1.829 -1.73 9
14.386 -2.092 -1.726 46
8.7589998 -1.277 -1.806 9
9.5930004 -1.39 -1.796 43
10.494 -1.512 -1.7690001 75
11.646 -1.669 -1.748 9
13.051 -1.8609999 -1.721 9
14.867 -2.1099999 -1.691 75
9.033 -1.285 -1.801 9
9.8450003 -1.392 -1.778 62
10.902 -1.5319999 -1.767 82
12.098 -1.691 -1.739 9
13.649 -1.898 -1.714 10
15.398 -2.131 -1.6569999 27
9.3549995 -1.2970001 -1.804 13
10.171 -1.401 -1.772 59
11.248 -1.54 -1.752 79
12.566 -1.711 -1.727 9
14.272 -1.933 -1.705 10
16.548 -2.2290001 -1.6799999 10
9.6300001 -1.299 -1.794 47
10.542 -1.413 -1.768 69
11.612 -1.546 -1.734 62
13.1 -1.734 -1.719 10
14.948 -1.9680001 -1.693 11
17.552 -2.2980001 -1.675 11
9.9110003 -1.299 -1.781 53
10.925 -1.4220001 -1.762 73
12.003 -1.552 -1.717 26
13.694 -1.76 -1.712 10
15.649 -2 -1.677 9
18.636999 -2.369 -1.6670001 13
10.225 -1.3 -1.773 55
11.312 -1.429 -1.7539999 79
12.513 -1.5700001 -1.7130001 13
14.31 -1.783 -1.702 9
16.607 -2.0569999 -1.6799999 10
19.854 -2.4460001 -1.658 14
10.597 -1.3049999 -1.77 52
11.71 -1.432 -1.743 87
13.12 -1.5930001 -1.716 10
14.943 -1.803 -1.688 11
17.532 -2.1029999 -1.67 11
21.238001 -2.5309999 -1.649 16
10.976 -1.307 -1.765 55
12.154 -1.437 -1.734 86
13.703 -1.608 -1.71 10
15.686 -1.829 -1.679 9
18.683001 -2.164 -1.67 13
22.701 -2.6140001 -1.632 14
11.368 -1.307 -1.7589999 57
12.619 -1.4400001 -1.725 88
14.285 -1.618 -1.698 10
16.525999 -1.859 -1.6720001 10
19.796 -2.2119999 -1.656 14
24.469999 -2.7149999 -1.62 9
11.747 -1.301 -1.747 62
13.127 -1.443 -1.717 95
14.92 -1.627 -1.687 11
17.533001 -1.898 -1.673 11
21.163 -2.2750001 -1.65 16
26.663 -2.8469999 -1.6160001 7
12.175 -1.2970001 -1.737 64
13.653 -1.442 -1.706 102
15.618 -1.637 -1.676 12
18.577 -1.931 -1.6670001 13
22.558001 -2.3269999 -1.632 15
29.112 -2.9820001 -1.602 6
12.634 -1.291 -1.729 71
14.249 -1.443 -1.698 99
16.486 -1.655 -1.674 10
19.707001 -1.962 -1.6569999 14
24.201 -2.391 -1.6160001 8
32.655998 -3.201 -1.618 19
13.121 -1.2819999 -1.72 72
14.864 -1.439 -1.686 104
17.398001 -1.669 -1.67 11
20.971001 -1.995 -1.649 16
26.41 -2.4909999 -1.62 6
32.931 -3.082 -1.456 52
13.664 -1.273 -1.7130001 76
15.287 -1.411 -1.649 32
18.433001 -1.6849999 -1.6670001 13
22.348 -2.0250001 -1.635 17
28.752001 -2.582 -1.609 5
32.669998 -2.9100001 -1.271 77
14.233 -1.261 -1.705 70
16.284 -1.428 -1.6670001 8
19.532 -1.696 -1.661 14
23.790001 -2.046 -1.613 11
32.305 -2.7520001 -1.638 13
32.57 -2.75 -1.096 74
14.812 -1.243 -1.693 68
17.190001 -1.427 -1.666 11
20.702 -1.701 -1.65 15
25.750999 -2.0929999 -1.61 7
32.674999 -2.6289999 -1.484 47
32.523998 -2.592 -0.926 55
15.199 -1.2029999 -1.654 30
18.127001 -1.419 -1.66 12
22.037001 -1.705 -1.6390001 17
28.089001 -2.1500001 -1.61 5
32.589001 -2.4679999 -1.314 81
32.527 -2.437 -0.75999999 3
16.159 -1.201 -1.6720001 11
19.181999 -1.408 -1.655 13
23.427 -1.699 -1.6210001 12
31.556999 -2.2609999 -1.645 8
32.528 -2.3039999 -1.145 56
36.310001 -2.543 -0.667 59
17.028999 -1.182 -1.673 11
20.308001 -1.391 -1.647 15
25.233 -1.705 -1.6160001 8
32.452 -2.1659999 -1.529 30
32.485001 -2.1400001 -0.98199999 53
36.23 -2.3570001 -0.48500001 61
17.903 -1.153 -1.666 12
21.48 -1.365 -1.633 17
27.184 -1.7029999 -1.605 6
32.375999 -2 -1.3660001 71
32.363998 -1.972 -0.81999999 10
36.098999 -2.1689999 -0.31 75
18.888 -1.122 -1.6619999 13
22.784 -1.332 -1.618 18
29.863001 -1.719 -1.6160001 6
32.284 -1.831 -1.205 79
35.993999 -2.01 -0.73900002 75
36.092999 -1.985 -0.138 71
19.962999 -1.084 -1.6569999 14
24.240999 -1.294 -1.604 11
32.175999 -1.688 -1.587 37
32.181999 -1.661 -1.048 76
35.966999 -1.823 -0.56900001 69
36.123001 -1.8 0.029999999 72
21.07 -1.034 -1.646 16
26.089001 -1.257 -1.6 7
32.297001 -1.526 -1.439 62
32.195 -1.493 -0.89700001 37
35.959 -1.636 -0.403 59
36.247002 -1.617 0.19599999 75
22.290001 -0.97799999 -1.636 18
28.278 -1.214 -1.602 6
32.196999 -1.352 -1.285 75
32.729 -1.345 -0.76200002 2
35.985001 -1.446 -0.23899999 65
36.542999 -1.436 0.36199999 70
23.593 -0.91000003 -1.622 13
0 0 0 0
32.021999 -1.175 -1.1339999 82
35.941002 -1.2869999 -0.676 65
36.021 -1.257 -0.081 74
36.910999 -1.256 0.52600002 39
25.245001 -0.83899999 -1.6210001 9
32.148998 -1.0369999 -1.529 37
32.042999 -1.005 -0.99299997 64
35.909 -1.091 -0.51700002 73
36.182999 -1.068 0.075000003 76
0 0 0 0
27.149 -0.75300002 -1.6210001 7
32.09 -0.86000001 -1.3839999 71
33.051998 -0.85500002 -0.87900001 46
36.016998 -0.898 -0.36300001 69
36.497002 -0.87599999 0.23199999 78
98.514 -2.2739999 2.25 61
29.367001 -0.653 -1.625 6
31.950001 -0.68000001 -1.24 64
35.504002 -0.722 -0.792 53
36.209999 -0.70200002 -0.212 60
36.98 -0.68199998 0.391 48
98.488998 -1.723 2.658 144
31.768999 -0.528 -1.62 24
31.872 -0.498 -1.101 71
36.222 -0.53100002 -0.65499997 69
36.428001 -0.5 -0.061000001 77
56.324001 -0.71899998 0.82800001 74
122.462 -1.447 3.8069999 65
31.924 -0.34799999 -1.493 59
31.968 -0.31799999 -0.972 77
36.504002 -0.32800001 -0.51099998 60
36.967999 -0.296 0.086999997 58
46.68 -0.331 0.87199998 10
123.747 -0.76300001 4.3330002 9
31.940001 -0.167 -1.365 62
32.106998 -0.13500001 -0.84600002 37
36.841 -0.119 -0.368 63
45.168999 -0.104 0.28400001 54
46.115002 -0.063000001 1.041 44
121.638 -0.046999998 4.7319999 11
31.783001 0.017000001 -1.2309999 62
34.331001 0.052000001 -0.76999998 25
44.960999 0.113 -0.27500001 68
44.778 0.155 0.45300001 56
45.703999 0.205 1.2079999 75
122.363 0.671 5.2270002 30
31.701 0.204 -1.103 83
38.208 0.28299999 -0.70899999 25
44.449001 0.37099999 -0.104 64
44.541 0.41600001 0.61900002 59
45.383999 0.46799999 1.367 73
126.092 1.427 5.8470001 39
31.691999 0.389 -0.98500001 65
38.125 0.505 -0.56699997 2
44.118999 0.62699997 0.057999998 65
44.351002 0.67500001 0.77700001 60
45.244999 0.73299998 1.525 67
0 0 0 0
31.735001 0.57700002 -0.87099999 36
35.682999 0.685 -0.40099999 45
35.929001 0.72799999 0.177 12
44.229 0.93900001 0.93300003 69
32.674 0.727 1.2180001 1
0 0 0 0
0 0 0 0
35.354 0.89300001 -0.27200001 44
35.678001 0.93800002 0.301 45
32.582001 0.88800001 0.80000001 78
32.523998 0.921 1.325 30
0 0 0 0
32.646999 0.99299997 -0.66299999 1
32.553001 1.023 -0.13699999 98
32.518002 1.054 0.38499999 123
32.404999 1.0829999 0.90600002 81
45.287998 1.563 1.998 56
0 0 0 0
34.926998 1.278 -0.59100002 47
35.063 1.318 -0.029999999 44
35.483002 1.37 0.53899997 45
32.265999 1.28 1.0089999 68
45.284 1.842 2.1440001 21
0 0 0 0
34.750999 1.487 -0.47400001 56
34.903999 1.529 0.082000002 43
35.512001 1.592 0.653 50
44.064999 2.0209999 1.518 70
45.681 2.1440001 2.3069999 5
0 0 0 0
34.678001 1.702 -0.36300001 55
34.841 1.745 0.191 63
35.598999 1.818 0.76499999 53
44.108002 2.299 1.654 69
167.32401 8.9040003 8.9610004 28
0 0 0 0
34.610001 1.916 -0.25600001 49
34.855999 1.964 0.296 47
35.581001 2.0420001 0.87099999 37
44.244999 2.5880001 1.7920001 69
0 0 0 0
0 0 0 0
34.57 2.135 -0.153 71
35.000999 2.1960001 0.40099999 41
35.721001 2.279 0.97799999 15
44.353001 2.8770001 1.923 64
0 0 0 0
0 0 0 0
34.630001 2.3629999 -0.054000001 56
35.016998 2.425 0.50099999 44
35.831001 2.5190001 1.0829999 3
44.522999 3.178 2.056 52
222.991 16.166 13.861 29
0 0 0 0
34.597 2.586 0.041000001 64
35.063 2.658 0.59799999 58
43.563 3.3469999 1.4349999 67
44.861 3.4949999 2.1919999 43
127.151 10.043 8.2419996 36
0 0 0 0
34.723 2.823 0.133 43
35.297001 2.905 0.69400001 44
43.676998 3.641 1.552 60
44.944 3.793 2.3110001 4
126.896 10.854 8.5480003 44
0 0 0 0
34.793999 3.059 0.222 55
35.676998 3.1719999 0.792 46
43.807999 3.9419999 1.666 63
0 0 0 0
105.904 9.7659998 7.3979998 8
0 0 0 0
35.022999 3.3110001 0.30899999 43
35.894001 3.4319999 0.884 4
44.025002 4.2550001 1.78 69
101.593 9.9309998 5.7220001 41
102.107 10.098 7.375 24
226.562 22.674999 19.978001 53
35.196999 3.5639999 0.39300001 44
43.418999 4.4419999 1.169 67
44.341 4.5840001 1.895 68
101.487 10.604 5.9460001 35
98.532997 10.405 7.3379998 35
102.6 10.965 9.2799997 18
35.688 3.858 0.479 39
43.599998 4.757 1.271 56
44.749001 4.9310002 2.0109999 72
97.254997 10.826 5.9120002 26
97.862 11.01 7.506 24
98.515999 11.203 9.125 35
43.268002 4.9749999 0.67299998 58
43.818001 5.0819998 1.3710001 64
45.089001 5.2779999 2.122 28
94.778 11.201 5.96 38
94.931 11.33 7.4759998 21
97.938004 11.803 9.2709999 45
43.416 5.2880001 0.76200002 57
43.935001 5.395 1.461 65
45.929001 5.691 2.253 1
94.829002 11.854 6.1500001 17
94.762001 11.957 7.6490002 6
98.032997 12.49 9.4720001 29
43.662998 5.618 0.85000002 51
44.382999 5.756 1.5599999 65
94.693001 12.385 4.8210001 12
0 0 0 0
95.050003 12.648 7.8470001 9
97.917999 13.146 9.6400003 23
43.893002 5.9520001 0.93400002 61
44.890999 6.1339998 1.659 63
94.571999 13.022 4.9829998 31
95.109001 13.205 6.513 34
96.634003 13.532 8.1490002 41
98.266998 13.883 9.849 10
44.213001 6.3049998 1.015 56
45.695 6.5619998 1.765 39
95.830002 13.867 5.2080002 16
94.787003 13.828 6.6500001 26
96.487 14.187 8.2969999 38
0 0 0 0
44.811001 6.7059999 1.1 52
101.107 15.232 4.0650001 13
101.546 15.409 5.6789999 24
97.789001 14.946 7.0110002 21
97.760002 15.06 8.5570002 31
0 0 0 0
45.897999 7.1900001 1.193 37
121.942 19.233999 5.0830002 30
98.489998 15.642 5.6529999 23
97.278 15.562 7.118 9
98.258003 15.833 8.7449999 29
0 0 0 0
0 0 0 0
110.863 18.271 4.77 16
108.477 17.992001 6.3709998 37
108.414 18.106001 8.0769997 25
0 0 0 0
0 0 0 0
152.998 26.139999 4.3779998 24
110.929 19.066999 4.9099998 7
103.61 17.926001 6.2160001 38
0 0 0 0
0 0 0 0
0 0 0 0
120.501 21.461 3.589 19
102.468 18.355 4.6539998 11
102.262 18.43 6.25 22
101.897 18.486 7.8379998 39
0 0 0 0
0 0 0 0
110.224 20.429001 3.3989999 24
101.389 18.895 4.7119999 20
101.035 18.938999 6.2820001 29
101.448 19.129 7.9070001 37
0 0 0 0
0 0 0 0
131.70399 25.363001 4.1820002 13
100.436 19.438999 4.7600002 37
101.033 19.664 6.3740001 24
100.9 19.759001 7.96 34
102.257 20.146999 9.6870003 8
0 0 0 0
102.337 20.455 3.335 19
99.557999 20.000999 4.8010001 24
98.714996 19.934 6.3109999 30
101.062 20.525 8.0550003 33
0 0 0 0
0 0 0 0
138.319 28.658001 4.6040001 14
98.675003 20.547001 4.8309999 23
97.765999 20.459 6.323 40
98.560997 20.74 7.9289999 37
107.305 22.714001 10.333 21
0 0 0 0
112.373 24.111 3.8099999 9
97.573997 21.033001 4.835 10
97.385002 21.093 6.3569999 36
98.217003 21.382 7.9619999 28
107.03 23.440001 10.372 29
0 0 0 0
0 0 0 0
96.968002 21.615 4.8559999 33
97.025002 21.733 6.3839998 27
97.455002 21.941999 7.9510002 35
111.269 25.186001 10.844 13
0 0 0 0
0 0 0 0
98.771004 22.747 4.9840002 29
96.766998 22.384001 6.4060001 26
97.211998 22.6 7.9710002 28
105.932 24.764 10.37 26
0 0 0 0
125.592 29.733999 4.4039998 40
95.815002 22.775999 4.8649998 9
0 0 0 0
96.167999 23.073999 7.9169998 7
101.081 24.379 9.9259996 21
0 0 0 0
0 0 0 0
96.845001 23.747 4.9330001 13
98.400002 24.226999 6.5630002 10
95.592003 23.646 7.888 21
98.023003 24.374001 9.6490002 25
0 0 0 0
93.519997 23.544001 3.3050001 6
105.48 26.650999 5.3839998 12
94.610001 24.004 6.3200002 9
96.468002 24.580999 7.973 13
74.383003 19.047001 7.3299999 12
0 0 0 0
101.495 26.304001 3.5829999 8
95.112 24.739 4.8520002 21
94.596001 24.704 6.3169999 22
95.136002 24.948 7.862 20
94.357002 24.862 9.3000002 12
0 0 0 0
75.469002 20.127001 2.652 27
75.639999 20.246 3.8499999 10
93.623001 25.156 6.243 23
75.677002 20.416 6.2480001 48
0 0 0 0
92.986 25.323 10.648 26
76.116997 20.874001 2.658 29
76.375999 21.018 3.868 8
94.036003 25.969999 6.2490001 25
91.492996 25.371 7.533 25
0 0 0 0
93.232002 26.091 10.658 18
104.179 29.358 3.598 12
94.094002 26.601 4.7319999 19
98.714996 28.007 6.527 20
76.494003 21.791 6.276 6
92.495003 26.459999 9.0670004 16
92.480003 26.580999 10.549 27
103.476 29.955 3.526 15
93.487999 27.146 4.6599998 12
95.350998 27.782 6.263 7
91.380997 26.723 7.4580002 30
93.023003 27.322001 9.0830002 19
92.029999 27.155001 10.464 26
95.274002 28.313999 3.1919999 7
94 28.011999 4.6350002 7
94.646004 28.298 6.1680002 7
90.939003 27.285999 7.3769999 18
93.992996 28.313 9.1309996 7
91.802002 27.777 10.394 24
99.313004 30.266001 3.2590001 22
94.814003 28.976 4.6110001 17
90.322998 27.686001 5.829 21
90.374001 27.805 7.277 27
94.847 29.297001 9.158 7
91.620003 28.424 10.321 22
99.592003 31.121 3.1900001 20
0 0 0 0
0 0 0 0
90.892998 28.659 7.2509999 17
90.764999 28.733 8.7010002 17
94.289001 29.976 10.559 13
0 0 0 0
133.77299 42.939999 6.29 20
90.043999 28.988001 5.6680002 16
91.513 29.559 7.2249999 6
0 0 0 0
93.539001 30.447001 10.4 20
72.857002 23.885 2.1949999 63
72.775002 23.919001 3.352 49
0 0 0 0
92.814003 30.688999 7.244 7
90.763 30.120001 8.5450001 28
92.513 30.823999 10.206 12
72.361 24.284 2.0999999 62
72.320999 24.329 3.253 56
93.865997 31.662001 5.723 28
92.456001 31.278999 7.1230001 20
0 0 0 0
96.488998 32.886002 10.552 13
71.917999 24.694 2 61
71.841003 24.721001 3.1440001 64
0 0 0 0
91.167999 31.546 6.921 12
91.023003 31.601999 8.3809996 21
95.726997 33.362 10.366 23
71.459999 25.093 1.893 63
71.358002 25.105 3.0320001 70
97.404999 34.347 5.7049999 8
91.130997 32.227001 6.8049998 29
90.651001 32.158001 8.2379999 12
93.382004 33.25 10.004 22
71.007004 25.478001 1.783 61
70.947998 25.506001 2.918 66
93.136002 33.556999 5.3299999 13
0 0 0 0
90.602997 32.838001 8.1160002 34
92.926003 33.800999 9.8369999 19
70.549004 25.860001 1.661 63
70.483002 25.879 2.793 64
134.425 49.466999 7.4920001 27
89.621002 33.062 6.447 28
90.736 33.571999 8.0019999 18
93.094002 34.573002 9.7299995 25
70.113998 26.238001 1.541 68
70.047997 26.257999 2.6659999 65
133.274 50.066002 7.224 20
89.240997 33.610001 6.283 30
78.396004 29.608 6.7969999 30
92.497002 35.061001 9.5319996 28
69.688004 26.621 1.41 61
69.623001 26.634001 2.533 60
69.509003 26.643999 3.654 9
78.181999 30.042 5.3790002 30
77.459 29.849001 6.592 30
76.197998 29.455999 7.7340002 37
69.273003 26.993999 1.274 62
69.210999 27.006001 2.3929999 63
69.083 27.007 3.5090001 18
77.317001 30.296 5.1859999 19
76.107002 29.908001 6.3509998 30
75.921997 29.926001 7.5819998 31
68.862999 27.365 1.135 63
68.808998 27.381001 2.2490001 62
68.707001 27.386 3.3640001 41
76.535004 30.573999 4.9959998 31
77.692001 31.114 6.3449998 14
75.82 30.458 7.4380002 8
68.462997 27.73 0.98900002 65
68.411003 27.740999 2.1010001 64
68.315002 27.747999 3.211 59
76.598 31.181999 4.8559999 13
77.385002 31.582001 6.1750002 10
74.595001 30.530001 7.1830001 22
68.051003 28.087 0.83899999 63
67.981003 28.09 1.9450001 62
67.921997 28.108999 3.053 59
77.042999 31.944 4.7280002 9
73.862 30.702999 5.75 14
74.043999 30.868 6.9860001 18
67.662003 28.445 0.68599999 60
67.597 28.447001 1.788 61
67.524002 28.458 2.892 66
91.213997 38.514999 5.4050002 10
73.375 31.055 5.5570002 15
76.563004 32.490002 7.0669999 17
67.246002 28.789 0.52499998 59
67.195999 28.792999 1.624 63
67.120003 28.799 2.724 57
72.778 31.280001 4.1550002 6
73.190002 31.527 5.3870001 36
76.635002 33.103001 6.908 16
68.960999 30.049999 0.36700001 7
75.787003 33.054001 1.651 21
75.769997 33.083 2.901 24
75.905998 33.198002 4.1589999 35
73.080002 32.027 5.217 17
74.737 32.838001 6.5760002 22
68.499001 30.370001 0.19400001 29
78.5 34.827999 1.515 5
78.408997 34.823002 2.8110001 33
81.404999 36.206001 4.2680001 19
81.727997 36.423 5.6420002 15
73.999001 33.056999 6.342 21
67.837997 30.584999 0.017000001 38
113.038 50.987 1.899 150
78.786003 35.573002 2.6270001 4
0 0 0 0
73.740997 33.411999 4.9130001 4
72.496002 32.925999 6.04 21
67.484001 30.938999 -0.16599999 46
0 0 0 0
93.879997 43.094002 2.8859999 6
91.665001 42.138 4.3470001 20
75.348 34.701 4.8299999 11
72.176003 33.316002 5.8340001 8
67.609001 31.507999 -0.35600001 26
90.819 42.339001 1.03 10
0 0 0 0
91.585999 42.778999 4.0960002 10
73.445999 34.368 4.5159998 15
78.863998 36.984001 6.171 13
63.784 30.205999 -0.51999998 6
67.684998 32.056999 0.57800001 10
75.433998 35.747002 1.9069999 9
75.432999 35.787998 3.1689999 29
73.193001 34.785 4.2989998 10
73.241997 34.876999 5.5359998 6
61.733002 29.694 -0.68599999 2
67.750999 32.591999 0.38 17
0 0 0 0
0 0 0 0
73.418999 35.421001 4.1139998 17
73.057999 35.317001 5.3239999 11
61.217999 29.896999 -0.86900002 2
67.781998 33.098999 0.177 35
0 0 0 0
90.691002 44.351002 3.2920001 7
73.228996 35.861 3.8929999 25
73.129997 35.880001 5.1230001 13
0 0 0 0
67.370003 33.396 -0.035 34
0 0 0 0
0 0 0 0
73.074997 36.306 3.668 41
73.049004 36.356998 4.9039998 15
0 0 0 0
65.658997 33.02 -0.23800001 5
0 0 0 0
0 0 0 0
0 0 0 0
72.557999 36.627998 4.6539998 25
0 0 0 0
62.228001 31.747999 -0.43200001 2
67.587997 34.483002 0.68000001 5
0 0 0 0
0 0 0 0
72.363998 37.035999 4.4219999 33
0 0 0 0
60.030998 31.049 -0.61500001 3
67.450996 34.883999 0.45899999 26
74.992996 38.803001 1.788 31
74.605003 38.643002 3.0539999 18
72.209999 37.457001 4.1880002 14
40.014999 20.992001 -1.229 1
59.712002 31.306 -0.815 3
67.141998 35.196999 0.23 34
77.139 40.449001 1.586 7
0 0 0 0
69.421997 36.48 3.8050001 19
0 0 0 0
0 0 0 0
66.983002 35.577 0.001 30
0 0 0 0
0 0 0 0
69.435997 36.959999 3.5769999 23
0 0 0 0
0 0 0 0
64.252998 34.562 -0.222 3
0 0 0 0
0 0 0 0
69.225998 37.312 3.336 36
0 0 0 0
0 0 0 0
63.738998 34.716999 -0.44600001 6
67.042 36.52 0.68300003 4
0 0 0 0
68.644997 37.449001 3.0710001 27
0 0 0 0
0 0 0 0
60.250999 33.224998 -0.64600003 12
67.011002 36.949001 0.44100001 21
73.125 40.334 1.75 23
69.307999 38.264999 2.8570001 18
28.427999 15.896 -1.401 4
0 0 0 0
58.301998 32.532001 -0.84299999 3
66.983002 37.370998 0.197 32
75.125999 41.926998 1.525 19
71.299004 39.824001 2.684 12
25.806999 14.603 -1.374 1
0 0 0 0
0 0 0 0
66.903999 37.757 -0.056000002 22
77.406998 43.695 1.286 24
0 0 0 0
24.976999 14.296 -1.427 5
0 0 0 0
0 0 0 0
63.470001 36.217999 -0.289 3
0 0 0 0
0 0 0 0
23.809 13.781 -1.4579999 4
30.054001 17.367001 -1.311 1
0 0 0 0
59.238998 34.174 -0.49900001 3
66.806 38.536999 0.60600001 19
0 0 0 0
22.653 13.257 -1.4809999 5
28.207001 16.476999 -1.345 6
0 0 0 0
58.935001 34.361 -0.72799999 10
66.521004 38.777 0.34599999 34
0 0 0 0
21.452999 12.688 -1.4910001 5
26.475 15.628 -1.37 3
0 0 0 0
0 0 0 0
66.849998 39.363998 0.088 23
74.015999 43.591999 1.396 5
20.443001 12.216 -1.506 5
25.042999 14.934 -1.399 4
32.776001 19.516001 -1.249 1
0 0 0 0
66.597 39.599998 -0.18000001 15
73.987999 43.998001 1.108 9
19.4 11.709 -1.5140001 7
23.74 14.296 -1.426 4
0 0 0 0
0 0 0 0
61.511002 36.921001 -0.40799999 5
67.098 40.275002 0.74000001 4
18.615 11.343 -1.531 12
22.635 13.761 -1.455 5
0 0 0 0
0 0 0 0
58.040001 35.16 -0.62199998 6
66.598999 40.334999 0.46599999 20
17.801001 10.95 -1.543 12
21.358999 13.105 -1.464 5
27.239 16.681999 -1.378 4
0 0 0 0
57.816002 35.333 -0.86199999 6
66.813004 40.826 0.19499999 17
17.076 10.599 -1.556 14
20.351999 12.6 -1.484 5
25.406 15.696 -1.3940001 4
0 0 0 0
0 0 0 0
66.672997 41.077999 -0.075999998 19
16.416 10.278 -1.569 13
19.368 12.093 -1.498 7
24.118 15.026 -1.428 5
31.368 19.511 -1.2920001 1
0 0 0 0
60.659 37.676998 -0.322 3
15.747 9.9429998 -1.575 12
18.549 11.678 -1.516 11
22.677 14.243 -1.4400001 5
28.937 18.143999 -1.3150001 1
0 0 0 0
57.266998 35.844002 -0.54400003 6
15.192 9.6700001 -1.5880001 11
17.778999 11.282 -1.5319999 14
21.577 13.659 -1.465 5
27.273001 17.232 -1.357 4
0 0 0 0
57.094002 36.000999 -0.78100002 6
14.778 9.4799995 -1.612 25
17.000999 10.871 -1.5420001 14
20.556999 13.11 -1.487 7
25.416 16.177 -1.374 4
0 0 0 0
0 0 0 0
14.149 9.1440001 -1.608 10
16.334999 10.521 -1.554 13
19.556 12.561 -1.502 9
24.34 15.6 -1.423 5
30.885 19.764 -1.245 1
0 0 0 0
13.663 8.8929996 -1.6160001 9
15.532 10.074 -1.548 97
18.676001 12.077 -1.517 14
22.952 14.809 -1.442 5
29.236 18.830999 -1.304 1
0 0 0 0
12.986 8.5089998 -1.595 19
15.299 9.9870005 -1.594 51
17.9 11.65 -1.533 16
21.773001 14.137 -1.465 5
27.537001 17.847 -1.349 4
0 0 0 0
12.64 8.335 -1.6109999 39
14.642 9.6190004 -1.5930001 11
17.110001 11.204 -1.5420001 15
20.625 13.472 -1.479 6
25.514999 16.632999 -1.362 3
34.432999 22.419001 -1.21 1
12.455 8.2629995 -1.645 51
14.119 9.3310003 -1.6 10
16.089001 10.597 -1.523 57
19.599001 12.874 -1.492 8
24.325001 15.945 -1.405 5
0 0 0 0
12.12 8.0869999 -1.658 30
13.654 9.073 -1.61 9
15.958 10.568 -1.582 60
18.693001 12.345 -1.506 12
22.971001 15.136 -1.428 5
0 0 0 0
11.726 7.8660002 -1.658 8
13.178 8.8030005 -1.615 9
15.193 10.112 -1.576 12
17.959 11.918 -1.528 16
21.816999 14.445 -1.452 5
27.679001 18.295 -1.334 4
11.402 7.6880002 -1.665 8
12.618 8.4700003 -1.603 26
14.706 9.835 -1.591 11
16.860001 11.24 -1.5089999 15
20.781 13.82 -1.475 7
26 17.259001 -1.367 5
10.979 7.4359999 -1.654 22
12.367 8.3389997 -1.627 48
14.231 9.5579996 -1.603 10
16.416 10.99 -1.5420001 61
19.830999 13.242 -1.493 9
24.612 16.402 -1.399 5
10.81 7.3530002 -1.678 47
12.125 8.2089996 -1.65 47
13.747 9.2700005 -1.61 9
16.093 10.816 -1.582 22
18.886999 12.659 -1.505 10
23.174999 15.5 -1.419 5
10.584 7.2280002 -1.692 57
11.829 8.0389996 -1.664 21
13.318 9.0129995 -1.62 9
15.25 10.286 -1.567 12
18.025999 12.123 -1.515 13
22.146 14.86 -1.452 6
10.388 7.119 -1.707 40
11.431 7.7950001 -1.659 7
12.806 8.6960001 -1.614 9
14.778 9.9980001 -1.5829999 11
16.919001 11.412 -1.495 22
20.992001 14.126 -1.466 6
10.148 6.9770002 -1.715 16
11.094 7.5890002 -1.659 10
12.351 8.4119997 -1.6109999 31
14.346 9.7329998 -1.6 11
16.631001 11.248 -1.543 55
20.021 13.507 -1.4859999 8
9.8579998 6.7969999 -1.71 7
10.791 7.401 -1.6619999 31
12.158 8.3009996 -1.64 56
13.876 9.4370003 -1.608 10
16.268999 11.028 -1.58 27
19.048 12.878 -1.495 10
9.6110001 6.6430001 -1.71 8
10.613 7.296 -1.682 58
11.922 8.158 -1.66 38
13.447 9.1639996 -1.6160001 9
15.45 10.493 -1.567 12
18.245001 12.358 -1.51 12
9.335 6.4650002 -1.7029999 23
10.406 7.1680002 -1.6950001 56
11.63 7.9720001 -1.671 14
13.028 8.8929996 -1.622 9
14.931 10.156 -1.577 11
17.267 11.712 -1.502 16
9.2010002 6.3829999 -1.719 48
10.225 7.0539999 -1.711 26
11.277 7.7420001 -1.668 6
12.479 8.5290003 -1.608 16
14.484 9.8640003 -1.592 11
16.759001 11.38 -1.529 54
9.0629997 6.296 -1.733 51
9.941 6.8660002 -1.705 8
10.875 7.473 -1.655 19
12.199 8.3459997 -1.623 40
14.065 9.5869999 -1.605 10
16.450001 11.177 -1.569 39
8.9300003 6.21 -1.7460001 35
9.7110004 6.7129998 -1.7079999 7
10.715 7.368 -1.676 46
12.038 8.2399998 -1.652 54
13.626 9.2910004 -1.612 9
15.697 10.669 -1.562 13
8.7320004 6.0760002 -1.745 12
9.427 6.5190001 -1.698 16
10.54 7.25 -1.693 63
11.777 8.0629997 -1.665 23
13.197 8.9989996 -1.6160001 9
15.144 10.292 -1.569 12
8.5380001 5.941 -1.742 8
9.2659998 6.408 -1.707 47
10.371 7.1329999 -1.709 45
11.437 7.829 -1.664 8
12.778 8.71 -1.615 8
14.724 10.002 -1.586 11
8.3850002 5.8330002 -1.745 9
9.1339998 6.3150001 -1.721 59
10.136 6.9689999 -1.712 15
11.12 7.6069999 -1.663 10
12.345 8.4090004 -1.6109999 30
14.324 9.7229996 -1.6 10
8.2340002 5.7249999 -1.748 8
9.0039997 6.2210002 -1.732 50
9.8730001 6.7820001 -1.706 8
10.831 7.4029999 -1.663 31
12.207 8.3070002 -1.641 56
13.907 9.4280005 -1.609 10
8.1000004 5.6269999 -1.752 8
8.8950005 6.138 -1.747 30
9.6289997 6.6059999 -1.7029999 8
10.704 7.3060002 -1.6849999 60
11.977 8.1379995 -1.658 35
13.48 9.1239996 -1.6109999 9
7.9629998 5.5240002 -1.753 9
8.6899996 5.9879999 -1.74 11
9.4259996 6.4559999 -1.7029999 33
10.53 7.1739998 -1.699 56
11.696 7.9320002 -1.664 11
13.13 8.8690004 -1.62 9
7.8449998 5.4330001 -1.758 9
8.5120001 5.8540001 -1.738 9
9.3030005 6.3590002 -1.717 59
10.348 7.0349998 -1.709 23
11.392 7.7090001 -1.664 8
12.605 8.4949999 -1.603 22
7.724 5.3369999 -1.76 8
8.3669996 5.7410002 -1.74 9
9.1529999 6.2420001 -1.723 59
10.07 6.829 -1.7 8
11.032 7.4460001 -1.652 21
12.405 8.3369999 -1.624 51
7.605 5.2410002 -1.762 8
8.2480001 5.6440001 -1.7460001 9
9.0509996 6.1550002 -1.737 50
9.882 6.6820002 -1.705 7
10.866 7.3119998 -1.6670001 55
12.239 8.1999998 -1.647 45
7.5050001 5.1570001 -1.766 9
8.1160002 5.5370002 -1.747 9
8.9099998 6.04 -1.742 16
9.6079998 6.4759998 -1.692 22
10.748 7.2080002 -1.688 63
11.995 8.0080004 -1.6569999 17
7.3990002 5.0669999 -1.767 8
8.0030003 5.441 -1.751 9
8.724 5.8930001 -1.737 9
9.5270004 6.3969998 -1.712 53
10.637 7.1059999 -1.7079999 33
11.668 7.7600002 -1.653 7
7.3080001 4.9860001 -1.771 8
7.8889999 5.3429999 -1.753 9
8.592 5.7810001 -1.74 9
9.3929996 6.2820001 -1.72 59
10.347 6.8839998 -1.697 8
11.318 7.4959998 -1.643 19
7.204 4.895 -1.77 8
7.7880001 5.2519999 -1.757 9
8.4610004 5.6680002 -1.742 8
9.2700005 6.1729999 -1.728 54
10.142 6.717 -1.697 8
11.195 7.3800001 -1.6619999 43
7.125 4.8189998 -1.773 8
7.6799998 5.1560001 -1.757 9
8.3360004 5.5580001 -1.743 9
9.1920004 6.092 -1.744 22
9.8690004 6.5050001 -1.684 19
11.043 7.243 -1.675 59
7.0380001 4.737 -1.774 8
7.5890002 5.0689998 -1.761 9
8.2290001 5.4590001 -1.747 9
8.9619999 5.908 -1.728 9
9.7869997 6.4169998 -1.701 47
10.928 7.1290002 -1.693 39
6.9660001 4.665 -1.778 9
7.494 4.9790001 -1.762 9
8.1260004 5.3610001 -1.75 9
8.8439999 5.7979999 -1.733 9
9.6820002 6.3119998 -1.712 61
10.705 6.9450002 -1.692 11
6.8899999 4.5869999 -1.779 9
7.4159999 4.8990002 -1.766 9
8.026 5.2649999 -1.753 9
8.724 5.6859999 -1.7359999 8
9.5810003 6.2090001 -1.723 54
10.482 6.7579999 -1.688 8
6.822 4.5149999 -1.781 9
7.335 4.816 -1.767 8
7.9250002 5.1659999 -1.753 9
8.6079998 5.5749998 -1.738 10
9.5270004 6.1339998 -1.7410001 28
10.234 6.5549998 -1.678 14
6.7519999 4.4400001 -1.7819999 8
7.25 4.7290001 -1.767 9
7.8379998 5.0749998 -1.756 9
8.5050001 5.4710002 -1.74 11
9.2969999 5.9460001 -1.725 9
10.125 6.441 -1.689 44
6.6900001 4.369 -1.7819999 8
7.1859999 4.6550002 -1.771 8
7.7620001 4.9910002 -1.76 9
8.4049997 5.369 -1.743 9
9.1610003 5.8169999 -1.725 9
10.034 6.3379998 -1.701 56
6.631 4.3000002 -1.784 8
7.1110001 4.573 -1.77 9
7.6739998 4.8990002 -1.7589999 9
8.316 5.2729998 -1.7460001 9
9.0570002 5.7080002 -1.729 9
9.9169998 6.217 -1.7079999 54
6.5689998 4.2270002 -1.783 8
7.0469999 4.4980001 -1.772 9
7.6040001 4.8169999 -1.763 9
8.2209997 5.1729999 -1.747 9
8.9440002 5.5929999 -1.7309999 9
9.8999996 6.1570001 -1.73 29
6.5240002 4.1659999 -1.786 8
6.987 4.4239998 -1.773 8
7.526 4.7290001 -1.762 9
8.1470003 5.085 -1.751 9
8.8509998 5.4899998 -1.734 10
9.6709995 5.9650002 -1.714 9
