# .PCD v0.7 - Point Cloud Data file format
VERSION 0.7
FIELDS x y z intensity
SIZE 4 4 4 4
TYPE F F F F
COUNT 1 1 1 1
WIDTH 1843
HEIGHT 1
VIEWPOINT 0 0 0 1 0 0 0
POINTS 1843
DATA ascii
39.321999 8.0030003 0.95999998 28
115.577 23.466999 4.652 8
100.935 20.452 5.6630001 20
100.781 20.381001 7.257 37
102.384 20.677999 9.0050001 19
38.379002 7.5799999 0.20900001 41
38.922001 7.6659999 0.82599998 56
0 0 0 0
101.82 19.954 5.381 23
101.588 19.865 6.9809999 29
0 0 0 0
38.304001 7.3130002 0.092 50
38.740002 7.3740001 0.70300001 46
105.839 20.086 3.5899999 25
103.015 19.5 5.1209998 26
0 0 0 0
104.131 19.635 8.4790001 36
38.307999 7.0640001 -0.018999999 42
38.464001 7.0689998 0.58399999 46
39.347 7.21 1.2180001 4
103.904 18.98 4.855 19
103.577 18.872999 6.4759998 28
104.003 18.913 8.151 39
38.449001 6.8379998 -0.127 53
38.438999 6.8109999 0.47600001 43
39.289001 6.9390001 1.104 24
104.431 18.386999 4.579 21
104.002 18.264 6.2030001 38
104.202 18.257999 7.8629999 35
38.419998 6.5830002 -0.23 50
38.445999 6.5599999 0.37099999 45
39.259998 6.6750002 0.99599999 48
123.624 20.947001 5.0780001 11
105.043 17.743 5.9679999 29
105.798 17.825001 7.6810002 30
38.68 6.3720002 -0.333 53
38.532001 6.3189998 0.27000001 48
39.146999 6.3930001 0.889 55
0 0 0 0
111.09 18.011999 6.0110002 9
107.032 17.299 7.4749999 6
38.602001 6.1009998 -0.42899999 49
38.669998 6.0819998 0.17299999 41
39.194 6.1389999 0.79000002 56
0 0 0 0
111.288 17.292999 5.7319999 9
101.843 15.774 6.8470001 10
38.866001 5.882 -0.52600002 47
38.834999 5.8470001 0.079999998 40
39.495998 5.9200001 0.699 52
129.756 19.360001 4.3280001 12
104.54 15.532 5.125 24
100.668 14.902 6.5159998 31
34.464001 4.9860001 -0.546 3
39.129002 5.6290002 -0.0089999996 46
39.796001 5.697 0.61199999 13
48.713001 6.9359999 1.51 33
118.884 16.85 5.546 10
98.129997 13.853 6.1170001 24
34.596001 4.7719998 -0.62400001 27
39.752998 5.4499998 -0.097000003 38
47.254002 6.4429998 0.62099999 53
47.66 6.4629998 1.3710001 59
119.086 16.073 5.2880001 10
98.362 13.213 5.9070001 28
34.451 4.5209999 -0.69199997 39
47.092999 6.1409998 -0.214 50
46.861 6.072 0.51700002 63
47.125999 6.073 1.256 62
48.518002 6.2189999 2.0510001 41
97.681 12.447 5.6550002 33
34.382 4.2789998 -0.759 53
46.900002 5.796 -0.30599999 71
46.664001 5.73 0.42199999 55
46.772999 5.7059999 1.152 77
47.694 5.783 1.918 76
97.598999 11.765 5.4499998 41
34.387001 4.0469999 -0.824 62
40.667 4.75 -0.34200001 2
46.449001 5.388 0.33199999 60
46.543999 5.3590002 1.058 57
47.174 5.3959999 1.808 57
98.488998 11.194 5.3109999 34
34.387001 3.8139999 -0.884 56
38.325001 4.2160001 -0.38999999 39
38.637001 4.2179999 0.208 46
46.339001 5.02 0.97100002 65
46.916 5.0440001 1.7130001 71
48.615002 5.1890001 2.533 2
34.330002 3.5739999 -0.94 73
38.116001 3.9330001 -0.45100001 47
38.161999 3.902 0.141 46
38.895 3.9430001 0.74900001 7
46.810001 4.7059999 1.63 70
48.073002 4.7950001 2.4230001 20
34.326 3.3369999 -0.99400002 60
37.811001 3.6400001 -0.50700003 51
37.957001 3.619 0.079999998 50
38.507999 3.6389999 0.68099999 43
46.525002 4.355 1.5470001 72
47.859001 4.4400001 2.336 37
34.452999 3.1110001 -1.0470001 50
37.618999 3.3610001 -0.55900002 51
37.705002 3.3329999 0.025 49
38.153 3.339 0.61900002 52
46.408001 4.0209999 1.475 75
47.530998 4.0749998 2.2509999 57
34.444 2.8729999 -1.0930001 46
34.610001 2.8529999 -0.56 7
37.610001 3.0639999 -0.024 50
37.948002 3.056 0.565 51
39.022999 3.109 1.188 1
47.298 3.7260001 2.1760001 69
34.425999 2.6340001 -1.135 52
34.522999 2.6059999 -0.602 13
37.693001 2.8099999 -0.07 51
37.816002 2.783 0.51700002 51
38.823002 2.8199999 1.1339999 31
47.172001 3.3859999 2.1129999 71
34.455002 2.4000001 -1.174 58
34.372002 2.359 -0.63700002 28
37.622002 2.5469999 -0.112 45
37.749001 2.5179999 0.47400001 50
38.703999 2.5450001 1.0880001 40
47.133999 3.0569999 2.059 61
34.466999 2.164 -1.209 48
34.358002 2.1229999 -0.671 34
37.542 2.28 -0.149 50
37.779999 2.2550001 0.43700001 50
38.521999 2.263 1.045 49
47.146999 2.724 2.013 61
34.493999 1.926 -1.2410001 41
34.536999 1.892 -0.70499998 42
37.589001 2.0179999 -0.183 50
37.805 1.993 0.40400001 51
38.493 1.99 1.011 42
47.214001 2.3940001 1.975 73
34.685001 1.694 -1.275 42
34.492001 1.649 -0.73100001 42
37.589001 1.758 -0.211 50
37.862 1.729 0.37599999 47
38.624001 1.724 0.98500001 38
47.300999 2.066 1.943 57
34.555 1.448 -1.294 37
34.464001 1.4069999 -0.75300002 60
37.681999 1.498 -0.237 50
37.949001 1.4680001 0.352 42
38.715 1.457 0.96200001 30
47.433998 1.733 1.918 53
34.609001 1.207 -1.316 42
34.515999 1.1670001 -0.77399999 53
37.866001 1.239 -0.259 50
38.132 1.207 0.333 51
35.362999 1.082 0.861 71
35.373001 1.045 1.413 36
34.653 0.97100002 -1.3329999 38
34.519001 0.92799997 -0.78899997 62
38.169998 0.98299998 -0.27700001 52
38.48 0.94800001 0.31999999 41
35.570999 0.83700001 0.85100001 62
35.550999 0.80000001 1.406 52
34.678001 0.72899997 -1.345 38
34.542 0.68699998 -0.801 68
38.419998 0.71899998 -0.29100001 52
38.807999 0.68099999 0.31200001 32
47.249001 0.778 1.118 54
48.477001 0.74599999 1.904 66
34.737 0.48699999 -1.3559999 38
34.563999 0.44600001 -0.80900002 69
47.411999 0.55800003 -0.368 55
47.140999 0.50199997 0.37 70
47.617001 0.44999999 1.119 60
49.223999 0.41100001 1.926 20
34.780998 0.245 -1.3609999 37
34.648998 0.206 -0.81400001 71
47.862 0.229 -0.375 46
47.518002 0.17299999 0.37 57
48.056999 0.121 1.127 54
125.26 0.169 4.9000001 16
34.775002 0.0049999999 -1.3609999 38
34.706001 -0.037999999 -0.815 70
40.146999 -0.089000002 -0.31299999 57
48.084 -0.163 0.377 50
49.07 -0.22499999 1.154 36
0 0 0 0
34.880001 -0.23800001 -1.362 33
34.830002 -0.27900001 -0.81300002 53
39.521 -0.36199999 -0.303 54
39.931999 -0.41299999 0.31999999 56
59.692001 -0.69 1.415 16
125.351 -1.609 4.9419999 26
34.966 -0.48199999 -1.357 32
34.860001 -0.52200001 -0.80599999 64
39.168999 -0.634 -0.28999999 54
39.595001 -0.68699998 0.32800001 68
59.870998 -1.113 1.438 2
101.439 -2.0120001 4.033 113
35.022999 -0.72600001 -1.348 36
34.945 -0.76700002 -0.79500002 43
39.008999 -0.90200001 -0.27399999 73
39.361 -0.95700002 0.34200001 63
101.35 -2.5910001 2.4779999 66
91.674004 -2.46 3.6860001 6
35.076 -0.96899998 -1.335 53
35.014999 -1.0089999 -0.78100002 42
38.916 -1.169 -0.25400001 56
39.278 -1.2309999 0.36199999 75
91.796997 -2.9949999 2.2939999 8
91.489998 -3.1029999 3.7309999 6
35.205002 -1.217 -1.3200001 39
35.076 -1.256 -0.76200002 50
38.889 -1.441 -0.23100001 74
39.278999 -1.5039999 0.38600001 55
143.60699 -5.6849999 3.684 38
0 0 0 0
35.146 -1.4579999 -1.295 51
35.157001 -1.503 -0.73900002 44
38.936001 -1.714 -0.20299999 69
39.299 -1.781 0.41600001 71
143.09 -6.6729999 3.783 57
144.382 -6.9200001 6.105 27
35.264 -1.7079999 -1.272 66
35.236 -1.751 -0.71200001 44
38.992001 -1.9859999 -0.171 54
39.41 -2.059 0.45100001 55
143.278 -7.684 3.9159999 50
0 0 0 0
35.390999 -1.9579999 -1.245 62
35.273998 -1.9960001 -0.68099999 25
39.083 -2.2620001 -0.134 75
39.603001 -2.345 0.49200001 56
143.657 -8.7019997 4.072 27
145.44299 -9.0109997 6.4390001 21
35.424 -2.204 -1.211 44
35.641998 -2.2650001 -0.65200001 13
39.286999 -2.5469999 -0.093000002 53
39.938999 -2.6429999 0.54000002 34
144.261 -9.7449999 4.2519999 48
145.522 -10.035 6.612 16
35.5 -2.4560001 -1.174 62
35.584 -2.5090001 -0.61000001 5
39.571999 -2.8429999 -0.046999998 56
131.495 -9.6210003 1.939 10
145.476 -10.847 4.4710002 15
152.289 -11.573 7.1170001 17
35.564999 -2.707 -1.133 73
39.373001 -3.05 -0.625 58
39.924999 -3.1459999 0.003 57
0 0 0 0
0 0 0 0
81.934998 -6.8060002 3.9460001 11
35.637001 -2.9590001 -1.087 74
40.111 -3.3829999 -0.58200002 45
91.824997 -7.8660002 0.13699999 20
0 0 0 0
139.274 -12.32 4.678 56
82.959 -7.461 4.1209998 11
35.736 -3.2090001 -1.039 71
54.061001 -4.9289999 -0.70599997 7
82.740997 -7.658 0.248 68
82.696999 -7.7680001 1.577 48
139.011 -13.261 4.8909998 41
138.81 -13.451 7.1230001 20
35.907001 -3.4719999 -0.98900002 69
53.344002 -5.2270002 -0.61199999 9
87.067001 -8.6529999 0.40200001 54
174.74699 -17.611 3.6240001 18
139.175 -14.226 5.1329999 36
139.02699 -14.431 7.3769999 26
35.957001 -3.721 -0.93099999 68
45.708 -4.7919998 -0.447 10
87.031998 -9.243 0.55199999 45
138.911 -14.955 3.128 11
139.688 -15.249 5.4089999 26
140.065 -15.502 7.6950002 54
36.124001 -3.9820001 -0.87199998 59
45.991001 -5.131 -0.36700001 1
89.549004 -10.119 0.73299998 42
126.767 -14.512 3.0940001 12
140.23599 -16.275 5.7020001 20
140.21201 -16.488001 7.9819999 26
36.289001 -4.2470002 -0.80800003 51
45.889 -5.4320002 -0.27900001 59
87.377998 -10.47 0.88599998 18
138.94901 -16.858 3.6700001 52
79.938004 -9.8219995 3.415 35
138.08 -17.183001 8.1520004 64
36.652 -4.5359998 -0.74400002 50
45.633999 -5.7140002 -0.184 62
80.515999 -10.196 0.98299998 47
80.717003 -10.344 2.303 78
80.716003 -10.467 3.6210001 38
0 0 0 0
37.001999 -4.8299999 -0.67400002 50
45.569 -6.0120001 -0.086999997 68
97.384003 -12.993 1.403 29
139.593 -18.844999 4.296 26
136.239 -18.605 6.427 60
138.599 -19.163 8.8219995 34
37.488998 -5.1490002 -0.59899998 12
45.719002 -6.3429999 0.015 70
0 0 0 0
135.834 -19.26 4.5019999 35
136.263 -19.535999 6.7579999 38
138.966 -20.158001 9.1870003 20
37.827 -5.4489999 -0.51800001 2
45.993 -6.6919999 0.124 16
147.07899 -21.617001 2.8110001 13
136.063 -20.212999 4.8429999 25
137.02499 -20.580999 7.1430001 43
78.514999 -11.928 5.395 22
45.099998 -6.796 -0.509 51
108.852 -16.568001 0.56 16
94.403999 -14.514 2.043 18
78.385002 -12.176 2.993 4
137.105 -21.527 7.5100002 14
78.100998 -12.396 5.5760002 42
44.880001 -7.0640001 -0.39300001 52
78.766998 -12.518 0.60900003 12
94.143997 -15.108 2.286 19
0 0 0 0
78.596001 -12.874 4.5219998 23
78.304001 -12.965 5.8140001 12
44.959 -7.3769999 -0.27500001 50
80.283997 -13.293 0.83700001 11
93.421997 -15.612 2.523 19
0 0 0 0
0 0 0 0
73.558998 -12.676 5.677 40
45.164001 -7.7090001 -0.153 14
82.292999 -14.168 1.084 5
93.110001 -16.177999 2.7780001 37
0 0 0 0
0 0 0 0
73.639999 -13.182 5.9070001 5
0 0 0 0
93.683998 -16.750999 1.506 12
93.508003 -16.870001 3.0680001 18
0 0 0 0
81.199997 -14.932 5.3959999 7
72.067001 -13.384 6.007 45
58.084999 -10.675 0.13600001 30
111.398 -20.645 2.1240001 9
110.361 -20.632999 3.957 9
107.534 -20.295 5.6680002 15
78.393997 -14.937 5.4590001 14
72.277 -13.906 6.2610002 36
57.469002 -10.939 0.31 5
110.893 -21.282 2.46 25
0 0 0 0
85.32 -16.664 4.7750001 10
72.306999 -14.259 5.276 13
72.554001 -14.445 6.5310001 39
56.866001 -11.195 0.486 14
96.872002 -19.225 2.461 22
84.967003 -17.004999 3.596 7
85.570999 -17.274 5.0739999 13
72.107002 -14.691 5.507 34
70.387001 -14.479 6.5840001 52
56.269001 -11.443 0.66500002 5
84.588997 -17.336 2.427 7
80.874001 -16.709 3.6919999 30
74.579002 -15.542 4.678 4
71.710999 -15.081 5.7290001 4
70.521004 -14.969 6.848 37
0 0 0 0
80.658997 -17.046 2.589 26
80.412003 -17.132 3.9530001 13
96.389 -20.712999 6.3909998 26
73.753998 -15.992 6.1589999 4
70.415001 -15.408 7.098 29
0 0 0 0
80.216003 -17.469999 2.858 37
95.655998 -21 5.0469999 24
73.834 -16.346001 5.1669998 11
71.268997 -15.922 6.2220001 33
70.318001 -15.855 7.3639998 16
74.355003 -16.546 1.647 44
79.333 -17.789 3.1170001 40
79.957001 -18.068001 4.5149999 16
73.586998 -16.768 5.428 22
71.332001 -16.393 6.5009999 5
71.308998 -16.539 7.7480001 17
79.261002 -18.135 2.0439999 34
79.008003 -18.207001 3.392 38
86.453003 -20.087 5.2080002 14
72.952003 -17.087 5.6599998 11
71.735001 -16.947001 6.8210001 24
70.536003 -16.813 7.9460001 34
79.214996 -18.621 2.3380001 38
79.294998 -18.773001 3.7060001 23
95.884003 -22.879999 6.1479998 35
73.038002 -17.568001 5.9559999 4
71.374001 -17.319 7.0749998 34
70.444 -17.247 8.2299995 13
79.061996 -19.082001 2.6389999 28
78.455002 -19.069 3.9749999 28
123.426 -30.229 8.4049997 32
73.977997 -18.261999 6.3330002 11
71.546997 -17.812 7.3899999 31
70.890999 -17.811001 8.5830002 36
79.583 -19.701 2.9679999 17
124.298 -30.989 6.7989998 31
0 0 0 0
74.074997 -18.757 6.6550002 4
70.791 -18.073999 7.6149998 24
71.258003 -18.355 8.941 15
79.630997 -20.205999 3.2920001 8
123.17 -31.469 7.2410002 16
0 0 0 0
69.311996 -17.983999 6.5229998 34
70.431999 -18.424999 7.8829999 25
71.889999 -18.973 9.3409996 29
123.325 -32.040001 5.6059999 21
126.021 -32.970001 7.9419999 22
0 0 0 0
69.402 -18.438 6.8340001 43
68.842003 -18.441999 8.0150003 30
70.901001 -19.160999 9.5389996 33
123.076 -32.726002 6.1170001 21
125.37 -33.568001 8.4420004 33
0 0 0 0
69.612 -18.922001 7.1680002 30
68.292999 -18.721001 8.2650003 48
70.710999 -19.554001 9.8459997 12
124.997 -33.993999 6.7540002 22
126.826 -34.724998 9.0950003 36
0 0 0 0
68.106003 -18.934 7.329 45
67.878998 -19.028 8.5340004 15
69.652 -19.697001 10.034 22
124.844 -34.702999 7.2979999 57
0 0 0 0
70.258003 -19.805 6.6160002 12
67.559998 -19.193001 7.585 57
68.028999 -19.486 8.8800001 14
69.903999 -20.202 10.414 17
125.465 -35.618 7.895 17
72.362 -20.683001 5.848 7
70.815002 -20.389 7 11
68.417 -19.851 8.0089998 35
70.289001 -20.563 9.5200005 35
0 0 0 0
0 0 0 0
69.157997 -20.177999 5.9130001 9
69.164001 -20.323999 7.165 25
67.179001 -19.893999 8.1890001 31
69.879997 -20.865 9.8100004 33
0 0 0 0
69.765999 -20.621 5.0359998 28
68.849998 -20.488001 6.2140002 32
67.039001 -20.094 7.2719998 26
67.029999 -20.25 8.5050001 56
69.470001 -21.160999 10.107 34
18.636 -5.7249999 3.0599999 19
70.382004 -21.211 5.4159999 5
69.365997 -21.047001 6.598 23
66.870003 -20.436001 7.586 54
67.069 -20.653999 8.8470001 37
18.579 -5.7680001 2.7980001 0
18.591 -5.822 3.151 78
71.278 -21.889 5.829 11
68.988998 -21.329 6.901 29
66.973999 -20.856001 7.9330001 47
69.249001 -21.73 9.4890003 37
18.622999 -5.8920002 2.902 1
18.608 -5.9390001 3.2550001 2
89.999001 -28.146 7.8049998 9
69.101997 -21.76 7.2600002 19
67.823997 -21.51 8.3800001 37
70.300003 -22.468 10.003 34
0 0 0 0
18.465 -6.0019999 3.3299999 3
88.334999 -28.118 8.0970001 33
69.438004 -22.252001 7.645 19
68.424004 -22.086 8.809 35
0 0 0 0
0 0 0 0
18.405001 -6.0879998 3.421 1
88.130997 -28.537001 8.5249996 28
68.584 -22.358 7.9050002 23
68.737999 -22.572001 9.2080002 52
0 0 0 0
0 0 0 0
0 0 0 0
87.575996 -28.834999 8.9169998 29
68.598 -22.739 8.2629995 32
68.914001 -23.01 9.6000004 23
0 0 0 0
18.358 -6.2280002 3.2609999 1
0 0 0 0
86.901001 -29.08 9.302 28
71.260002 -24.007 8.9630003 12
0 0 0 0
0 0 0 0
18.216999 -6.283 3.339 3
0 0 0 0
65.536003 -22.282 7.3610001 10
0 0 0 0
65.894997 -22.719999 9.8970003 3
0 0 0 0
0 0 0 0
13.029 -4.6069999 2.7219999 0
65.227997 -22.518999 7.677 33
65.320999 -22.704 8.9219999 3
0 0 0 0
0 0 0 0
0 0 0 0
13.039 -4.6820002 2.802 36
65.780998 -23.055 8.099 5
65.791 -23.216 9.3540001 48
0 0 0 0
18.055 -6.4699998 3.2679999 2
13.015 -4.704 2.615 1
12.602 -4.5960002 2.786 40
65.109001 -23.159 8.3809996 40
65.531998 -23.469999 9.691 6
0 0 0 0
17.969 -6.5359998 3.359 1
12.676 -4.6500001 2.6229999 38
12.576 -4.6560001 2.858 1
65.239998 -23.538 8.7609997 27
66.053001 -23.996 10.143 26
0 0 0 0
12.756 -4.7059999 2.46 5
12.628 -4.6989999 2.6889999 30
0 0 0 0
65.046997 -23.790001 9.0979996 29
0 0 0 0
17.941999 -6.6570001 3.2090001 0
12.679 -4.7420001 2.5209999 49
0 0 0 0
0 0 0 0
65.615997 -24.323 9.5509996 26
0 0 0 0
12.739 -4.7909999 2.3540001 12
12.648 -4.7950001 2.5910001 0
0 0 0 0
0 0 0 0
66.310997 -24.905001 10.037 28
0 0 0 0
12.702 -4.8410001 2.424 44
0 0 0 0
0 0 0 0
14.954 -5.8520002 3.7780001 3
65.642998 -24.966 10.318 20
12.792 -4.9000001 2.263 14
12.66 -4.8870001 2.493 0
0 0 0 0
0 0 0 0
14.89 -5.9039998 3.859 5
0 0 0 0
12.732 -4.9380002 2.3280001 42
0 0 0 0
0 0 0 0
15.678 -6.2340002 3.8329999 6
15.188 -6.099 4.0359998 19
12.894 -5.0250001 2.178 11
12.861 -5.0479999 2.4300001 26
0 0 0 0
0 0 0 0
15.42 -6.2080002 3.8710001 19
15.012 -6.1030002 4.0900002 30
12.758 -5.0300002 2.233 40
12.89 -5.119 2.5139999 1
0 0 0 0
15.737 -6.3530002 3.7190001 8
14.444 -5.8850002 3.72 21
14.706 -6.0510001 4.1059999 37
12.727 -5.0739999 2.3039999 27
0 0 0 0
0 0 0 0
0 0 0 0
14.356 -5.9180002 3.793 0
9.7279997 -4.0500002 2.7820001 19
12.743 -5.1370001 2.385 0
0 0 0 0
15.618 -6.395 3.5639999 2
14.717 -6.0780001 3.6689999 42
14.098 -5.8769999 3.819 38
9.7130003 -4.0900002 2.845 40
0 0 0 0
0 0 0 0
15.624 -6.4660001 3.6659999 18
14.015 -5.8509998 3.586 40
9.8319998 -4.1440001 2.7290001 2
9.5880003 -4.0819998 2.8740001 35
0 0 0 0
0 0 0 0
13.944 -5.8309999 3.3610001 34
15.476 -6.5289998 4.0609999 7
9.7650003 -4.1589999 2.7750001 1
9.7229996 -4.184 2.9820001 2
0 0 0 0
13.873 -5.8109999 3.1400001 0
15.455 -6.527 3.825 33
12.508 -5.3309999 3.3659999 10
9.6960001 -4.1729999 2.822 14
9.1899996 -3.9960001 2.882 13
0 0 0 0
13.796 -5.835 3.21 26
15.574 -6.6430001 3.9549999 40
12.497 -5.3779998 3.4449999 39
9.2209997 -4.0079999 2.747 1
8.6000004 -3.777 2.7579999 26
0 0 0 0
15.44 -6.5910001 3.691 40
12.511 -5.3870001 3.2590001 13
12.743 -5.5370002 3.598 29
9.2460003 -4.0580001 2.8180001 31
8.1059999 -3.596 2.6570001 31
13.68 -5.8470001 3.0699999 19
15.468 -6.6630001 3.7980001 39
12.487 -5.4250002 3.335 34
15.283 -6.7030001 4.4190001 31
9.1780005 -4.066 2.8610001 35
7.9260001 -3.55 2.654 31
0 0 0 0
12.498 -5.4310002 3.1489999 5
12.698 -5.566 3.4749999 33
9.2530003 -4.0939999 2.7379999 0
8.0139999 -3.582 2.5539999 32
8.2390003 -3.724 2.8180001 12
15.386 -6.6880002 3.6459999 38
12.467 -5.4640002 3.221 37
15.437 -6.8249998 4.3270001 40
9.2030001 -4.1079998 2.786 23
7.9899998 -3.6029999 2.602 36
8.0360003 -3.665 2.806 27
15.393 -6.7449999 3.7460001 40
12.635 -5.5819998 3.3469999 33
15.478 -6.8990002 4.441 32
9.2049999 -4.1430001 2.848 47
7.8699999 -3.579 2.6170001 39
8.1059999 -3.7279999 2.8889999 35
12.491 -5.5159998 3.119 33
12.631 -5.6240001 3.428 2
9.2650003 -4.1630001 2.72 8
8.1219997 -3.6849999 2.569 43
7.8800001 -3.6140001 2.677 36
8.2080002 -3.8069999 2.9849999 32
12.554 -5.585 3.2160001 38
15.49 -6.9489999 4.3049998 43
9.2309999 -4.1789999 2.7720001 39
7.9899998 -3.6530001 2.582 45
7.9310002 -3.6659999 2.75 37
8.1389999 -3.806 3.0190001 22
12.583 -5.638 3.303 15
9.2390003 -4.1750002 2.628 1
9.1669998 -4.1810002 2.8139999 57
7.9910002 -3.681 2.6370001 36
8.052 -3.75 2.849 34
7.9219999 -3.733 2.9960001 4
15.277 -6.8899999 4.1069999 34
9.2580004 -4.2119999 2.6930001 19
8.0609999 -3.7019999 2.5280001 42
8.0389996 -3.7290001 2.7079999 27
8.2110004 -3.852 2.9630001 29
7.704 -3.6570001 2.97 1
15.443 -7.0100002 4.2509999 33
9.2180004 -4.2220001 2.7420001 41
8.2159996 -3.799 2.631 57
7.8850002 -3.6830001 2.71 36
8.0749998 -3.8139999 2.97 29
7.4460001 -3.5599999 2.924 18
15.499 -7.079 4.3639998 39
9.1829996 -4.2309999 2.7909999 39
8.7309999 -4.0619998 2.8529999 49
7.9419999 -3.733 2.783 36
7.6750002 -3.6489999 2.8770001 31
7.2220001 -3.4760001 2.888 31
9.217 -4.2340002 2.6530001 9
0 0 0 0
8.2539997 -3.8640001 2.7520001 41
8.0480003 -3.8069999 2.875 33
7.698 -3.6830001 2.938 24
7.1820002 -3.4790001 2.9230001 33
9.177 -4.2389998 2.6989999 38
8.1140003 -3.7820001 2.5699999 44
7.8579998 -3.6989999 2.6719999 36
7.9089999 -3.763 2.878 32
7.5879998 -3.652 2.9489999 35
7.0869999 -3.4549999 2.9360001 30
9.1210003 -4.2350001 2.74 38
8.4180002 -3.944 2.721 39
7.822 -3.7019999 2.711 33
7.6030002 -3.6370001 2.819 36
7.2849998 -3.527 2.8829999 37
7.0510001 -3.457 2.971 31
9.0860004 -4.2389998 2.7869999 41
0 0 0 0
8.0050001 -3.8080001 2.8269999 26
7.645 -3.677 2.8859999 34
7.1880002 -3.4990001 2.8940001 32
7.079 -3.49 3.0339999 29
9.0550003 -4.244 2.8329999 34
8.2670002 -3.911 2.7780001 35
7.855 -3.7539999 2.826 24
7.6609998 -3.7030001 2.944 34
7.132 -3.4890001 2.9200001 30
7.1500001 -3.5439999 3.115 27
9.0450001 -4.257 2.8859999 48
7.8730001 -3.7409999 2.6949999 40
0 0 0 0
7.487 -3.635 2.9260001 37
7.052 -3.4660001 2.9360001 33
7.2389998 -3.6059999 3.2049999 22
8.0579996 -3.8080001 2.6210001 47
7.8260002 -3.734 2.7279999 27
7.5809999 -3.655 2.825 36
7.29 -3.5550001 2.898 38
7.086 -3.4979999 2.9990001 32
0 0 0 0
7.8660002 -3.73 2.6059999 35
7.7820001 -3.7260001 2.7609999 22
7.605 -3.681 2.8829999 31
7.1529999 -3.5020001 2.8900001 35
7.1869998 -3.563 3.0899999 24
7.3099999 -3.674 3.339 38
7.737 -3.6800001 2.6110001 38
0 0 0 0
0 0 0 0
7.119 -3.4979999 2.9219999 35
7.1939998 -3.5799999 3.141 31
6.9109998 -3.487 3.2049999 36
7.737 -3.6919999 2.6570001 34
0 0 0 0
7.5830002 -3.694 2.9690001 37
7.0310001 -3.4660001 2.931 35
7.3239999 -3.6570001 3.2460001 32
6.8920002 -3.49 3.2420001 35
7.8099999 -3.7360001 2.7279999 28
7.5739999 -3.6600001 2.826 30
7.2909999 -3.562 2.9000001 42
7.112 -3.517 3.0109999 33
0 0 0 0
6.9229999 -3.517 3.303 36
7.7859998 -3.733 2.7650001 23
7.6139998 -3.688 2.8870001 30
7.1630001 -3.5079999 2.8929999 38
7.2199998 -3.579 3.1010001 24
7.3540001 -3.694 3.355 40
6.7579999 -3.4430001 3.27 30
8.3649998 -4.0180001 3.0190001 33
7.6750002 -3.7249999 2.9549999 28
7.1329999 -3.5009999 2.9230001 37
7.1869998 -3.5710001 3.131 28
6.9990001 -3.5239999 3.237 46
6.678 -3.4119999 3.2750001 33
0 0 0 0
7.5560002 -3.6730001 2.9519999 33
7.0549998 -3.4690001 2.934 37
7.2459998 -3.608 3.201 24
6.8990002 -3.4809999 3.234 37
6.592 -3.3759999 3.2750001 37
7.5869999 -3.655 2.823 35
7.2800002 -3.5439999 2.8859999 41
7.0209999 -3.457 2.96 35
7.9899998 -3.984 3.5769999 30
6.7690001 -3.4219999 3.2149999 32
6.4289999 -3.2980001 3.2349999 29
7.6300001 -3.678 2.881 34
7.1880002 -3.5020001 2.8900001 38
7.0749998 -3.4879999 3.023 34
7.4949999 -3.7420001 3.4000001 37
6.5910001 -3.336 3.1689999 28
6.4910002 -3.335 3.3069999 34
7.6609998 -3.6949999 2.934 36
7.1719999 -3.497 2.9230001 34
7.1279998 -3.517 3.086 37
7.1399999 -3.5680001 3.28 37
6.5819998 -3.335 3.2049999 27
6.7820001 -3.4890001 3.4960001 40
7.5599999 -3.6470001 2.9360001 41
7.112 -3.4679999 2.937 37
7.138 -3.523 3.1300001 28
6.8629999 -3.431 3.1919999 32
6.6129999 -3.3529999 3.2579999 29
6.6570001 -3.427 3.4719999 32
7.3889999 -3.5639999 2.908 41
7.1149998 -3.47 2.9760001 42
7.2540002 -3.5799999 3.22 14
6.8629999 -3.4319999 3.2290001 36
6.6020002 -3.348 3.29 34
6.546 -3.3710001 3.4519999 35
7.276 -3.5079999 2.9000001 38
7.223 -3.5209999 3.0580001 37
0 0 0 0
6.802 -3.4000001 3.237 34
6.5630002 -3.3280001 3.3069999 25
6.447 -3.3210001 3.4360001 28
7.1999998 -3.4679999 2.905 37
7.1719999 -3.493 3.073 39
7.1300001 -3.5150001 3.2390001 43
6.8119998 -3.4030001 3.2780001 32
6.566 -3.3280001 3.3440001 28
6.3899999 -3.29 3.441 26
7.1739998 -3.451 2.9300001 32
7.2210002 -3.513 3.1289999 40
6.895 -3.395 3.1670001 38
6.632 -3.3099999 3.2249999 31
6.6999998 -3.3929999 3.447 33
6.3610001 -3.273 3.4590001 23
7.1750002 -3.4460001 2.9630001 33
7.2989998 -3.5450001 3.197 44
6.8779998 -3.3829999 3.1919999 33
6.506 -3.243 3.1960001 36
6.756 -3.418 3.5090001 35
6.3239999 -3.2509999 3.4719999 23
7.3270001 -3.5120001 3.059 36
7.4239998 -3.599 3.286 34
7.145 -3.507 3.349 32
6.5180001 -3.243 3.233 32
6.4520001 -3.2579999 3.3829999 29
6.3850002 -3.277 3.5380001 25
7.4780002 -3.575 3.155 30
7.4580002 -3.6070001 3.335 30
7.0960002 -3.4749999 3.359 49
6.5609999 -3.2579999 3.2850001 30
6.5430002 -3.2969999 3.4619999 29
0 0 0 0
7.4219999 -3.539 3.1630001 32
0 0 0 0
6.6490002 -3.2479999 3.1760001 40
6.5570002 -3.2479999 3.312 29
6.5159998 -3.276 3.477 27
6.415 -3.2780001 3.615 33
7.296 -3.4679999 3.1389999 35
0 0 0 0
6.6139998 -3.221 3.187 35
6.5359998 -3.2279999 3.329 33
6.5110002 -3.2639999 3.503 37
6.6999998 -3.415 3.8050001 39
7.3340001 -3.473 3.184 35
8.099 -3.881 3.7219999 48
6.612 -3.2090001 3.2130001 33
6.4990001 -3.1989999 3.3369999 32
6.7329998 -3.3640001 3.6500001 47
6.7779999 -3.444 3.8789999 33
7.2600002 -3.425 3.1800001 33
0 0 0 0
6.598 -3.1900001 3.2320001 29
6.5219998 -3.198 3.3740001 31
6.4530001 -3.2130001 3.5239999 29
6.7329998 -3.4089999 3.8800001 38
7.1900001 -3.3770001 3.175 37
7.539 -3.5829999 3.5209999 48
6.7259998 -3.2379999 3.319 35
6.5279999 -3.187 3.401 30
6.599 -3.2720001 3.6289999 37
0 0 0 0
7.1950002 -3.3640001 3.2019999 30
7.2529998 -3.431 3.4130001 40
6.8850002 -3.3 3.4219999 36
6.4840002 -3.152 3.402 28
6.4239998 -3.171 3.556 33
0 0 0 0
7.177 -3.3380001 3.2179999 31
7.2969999 -3.4349999 3.457 40
6.9180002 -3.299 3.461 27
6.46 -3.125 3.4100001 28
6.355 -3.122 3.539 32
6.3639998 -3.1800001 3.737 26
7.1300001 -3.2980001 3.2190001 37
7.342 -3.437 3.5020001 42
6.8720002 -3.2590001 3.4590001 39
6.4780002 -3.1170001 3.441 31
6.2690001 -3.0639999 3.5109999 29
6.2810001 -3.122 3.7079999 35
7.1009998 -3.2650001 3.227 35
7.0760002 -3.293 3.3959999 42
6.777 -3.1949999 3.4319999 37
6.5339999 -3.1259999 3.49 28
6.3439999 -3.0829999 3.572 33
6.322 -3.1240001 3.7509999 40
7.0489998 -3.221 3.2219999 32
7.2210002 -3.339 3.4849999 35
6.7150002 -3.1470001 3.4189999 37
6.5019999 -3.0910001 3.49 33
6.7659998 -3.267 3.8280001 29
6.4429998 -3.165 3.8410001 31
7.0500002 -3.2 3.2409999 36
7.197 -3.3069999 3.4920001 39
6.7319999 -3.1340001 3.4449999 38
6.4559999 -3.049 3.4820001 30
6.5430002 -3.1389999 3.7179999 32
6.2709999 -3.0599999 3.7539999 34
7.1350002 -3.2149999 3.2969999 31
7.4239998 -3.3859999 3.619 37
6.697 -3.095 3.4419999 35
6.4419999 -3.0209999 3.4890001 30
6.763 -3.2219999 3.859 37
6.2859998 -3.046 3.777 26
7.125 -3.187 3.309 33
7.487 -3.3889999 3.6670001 43
6.9790001 -3.201 3.6029999 29
6.4260001 -2.9909999 3.494 29
7.0539999 -3.335 4.04 38
6.5019999 -3.1270001 3.9200001 27
6.9879999 -3.1010001 3.2590001 31
7.5089998 -3.3729999 3.6930001 38
6.8790002 -3.131 3.5639999 34
6.414 -2.9619999 3.5 28
6.4559999 -3.0280001 3.7090001 38
6.4400001 -3.073 3.895 25
7.0300002 -3.0929999 3.2920001 36
7.1869998 -3.201 3.5469999 47
7.132 -3.2190001 3.7079999 33
6.381 -2.9219999 3.493 27
6.5380001 -3.0420001 3.7679999 29
6.4590001 -3.056 3.9159999 27
6.9650002 -3.0380001 3.2739999 34
7.086 -3.128 3.5090001 44
7.6490002 -3.4219999 3.9890001 33
6.3499999 -2.882 3.4860001 31
6.3189998 -2.9130001 3.6500001 33
6.4349999 -3.0179999 3.911 26
7.277 -3.1440001 3.431 36
7.0279999 -3.0739999 3.4909999 33
7.171 -3.1789999 3.75 42
6.3660002 -2.8629999 3.503 25
0 0 0 0
6.5320001 -3.036 3.977 26
7.3779998 -3.1570001 3.4879999 36
7.178 -3.1099999 3.5739999 33
7.5549998 -3.3169999 3.9590001 36
6.3649998 -2.835 3.5090001 29
6.8299999 -3.0899999 3.96 24
6.5110002 -2.9960001 3.97 27
7.6040001 -3.221 3.6040001 41
7.1609998 -3.0710001 3.573 38
7.1240001 -3.096 3.74 33
6.382 -2.813 3.5239999 31
0 0 0 0
6.5100002 -2.9649999 3.974 28
7.3470001 -3.0799999 3.4890001 72
7.2069998 -3.0580001 3.602 34
7.2659998 -3.1240001 3.8199999 41
6.4120002 -2.7969999 3.5450001 32
7.0580001 -3.1270001 4.1020002 22
6.494 -2.927 3.967 30
7.3530002 -3.049 3.497 62
7.3210001 -3.072 3.664 39
7.4359999 -3.1619999 3.914 41
6.4720001 -2.7920001 3.5810001 31
6.4130001 -2.8099999 3.7290001 27
6.4510002 -2.875 3.9419999 29
7.8099999 -3.201 3.7179999 50
0 0 0 0
7.5380001 -3.1689999 3.97 37
6.5939999 -2.812 3.6500001 30
6.4070001 -2.776 3.727 29
6.4219999 -2.829 3.924 26
8.0220003 -3.2490001 3.822 39
7.9330001 -3.253 3.9760001 30
7.0770001 -2.9400001 3.7279999 51
6.7639999 -2.8510001 3.744 28
6.4070001 -2.7420001 3.7260001 27
6.3720002 -2.7739999 3.892 27
8.0480003 -3.22 3.836 32
8.0139999 -3.2460001 4.0170002 38
7.0999999 -2.9130001 3.74 47
6.927 -2.8829999 3.8340001 33
6.4829998 -2.74 3.7679999 25
6.4980001 -2.7939999 3.9660001 32
8.1160002 -3.2060001 3.868 43
7.9299998 -3.171 3.974 39
7.5539999 -3.0610001 3.9779999 49
6.776 -2.7839999 3.747 35
0 0 0 0
0 0 0 0
8.0059996 -3.122 3.8150001 36
8.1669998 -3.223 4.0900002 37
7.9759998 -3.1889999 4.1960001 48
6.8439999 -2.776 3.7809999 32
6.9809999 -2.875 4.0489998 30
6.7540002 -2.8280001 4.1110001 1
8.4029999 -3.233 4.0009999 38
8.0889997 -3.1500001 4.0469999 27
7.0170002 -2.7679999 3.687 33
6.948 -2.78 3.8329999 41
6.9229999 -2.813 4.0089998 33
7.1040001 -2.934 4.3169999 9
8.2399998 -3.1270001 3.9189999 34
8.2910004 -3.184 4.1430001 39
7.079 -2.753 3.7149999 45
7.2950001 -2.878 4.0180001 37
6.836 -2.7390001 3.951 34
6.9289999 -2.822 4.2010002 34
8.8219995 -3.3 4.1890001 43
8.3190002 -3.148 4.1500001 40
7.0840001 -2.7160001 3.71 40
7.0819998 -2.753 3.892 32
6.9130001 -2.7290001 3.9860001 27
6.8010001 -2.7290001 4.1139998 37
0 0 0 0
8.8369999 -3.2950001 4.4000001 45
8.0080004 -3.0250001 4.1849999 40
7.0320001 -2.6930001 3.855 32
7.0619998 -2.7460001 4.0609999 23
6.9219999 -2.7360001 4.1750002 36
9.2419996 -3.3529999 4.3709998 34
9.066 -3.329 4.5029998 42
8.198 -3.049 4.2729998 43
7.0159998 -2.6459999 3.8369999 34
7.1700001 -2.744 4.1110001 3
7.105 -2.7639999 4.2709999 29
9.3970003 -3.3559999 4.4330001 37
9.0279999 -3.263 4.4720001 42
0 0 0 0
7.0650001 -2.622 3.8510001 39
7.1739998 -2.7019999 4.0999999 35
7.066 -2.7049999 4.2329998 31
9.2480001 -3.25 4.3499999 47
9.0410004 -3.214 4.4640002 40
8.9779997 -3.233 4.651 32
7.1360002 -2.605 3.8759999 0
9.125 -3.382 5.1960001 31
7.0960002 -2.6719999 4.2350001 29
0 0 0 0
9.1219997 -3.1900001 4.4889998 32
9.1160002 -3.2279999 4.7059999 28
9.1029997 -3.2679999 4.9260001 32
9.0539999 -3.2980001 5.1350002 33
7.1479998 -2.6459999 4.2480001 35
9.6730003 -3.286 4.5180001 37
9.4899998 -3.2609999 4.652 36
9.2919998 -3.234 4.777 29
9.0550003 -3.1949999 4.8800001 38
9.198 -3.293 5.1950002 35
7.2090001 -2.622 4.2649999 1
9.7860003 -3.267 4.553 33
9.5649996 -3.23 4.6690001 31
9.3400002 -3.1930001 4.7810001 31
9.0950003 -3.152 4.8800001 28
9.3789997 -3.2980001 5.2729998 29
9.0109997 -3.2190001 5.3060002 14
9.4060001 -3.0829999 4.3569999 31
9.7399998 -3.23 4.7340002 34
9.4359999 -3.1689999 4.8080001 33
9.125 -3.1059999 4.8730001 32
9.3439999 -3.2260001 5.2270002 30
9.8830004 -3.4660001 5.79 31
9.4510002 -3.0420001 4.3569999 31
9.7849998 -3.1860001 4.7329998 35
9.5780001 -3.1570001 4.8569999 31
9.2869997 -3.102 4.9349999 36
9.6479998 -3.27 5.3699999 25
10.209 -3.513 5.9499998 26
9.651 -3.0480001 4.428 28
9.9300003 -3.1719999 4.7789998 28
9.3900003 -3.0369999 4.7360001 34
9.8800001 -3.2379999 5.2210002 37
9.809 -3.2609999 5.4289999 27
10.763 -3.6329999 6.237 33
9.6520004 -2.99 4.4039998 30
0 0 0 0
9.5279999 -3.0209999 4.7800002 39
9.4720001 -3.0439999 4.9780002 33
9.5679998 -3.119 5.2649999 34
10.974 -3.631 6.3210001 32
9.8360004 -2.987 4.4629998 31
9.8500004 -3.0239999 4.6869998 48
9.5749998 -2.9760001 4.7750001 37
9.5869999 -3.0190001 5.0079999 33
9.5869999 -3.062 5.244 27
10.754 -3.487 6.1560001 33
9.8570004 -2.9319999 4.4450002 35
10.093 -3.0369999 4.7729998 36
0 0 0 0
0 0 0 0
9.5469999 -2.987 5.1880002 32
10.613 -3.3710001 6.0359998 26
9.9750004 -2.9059999 4.4699998 26
9.6870003 -2.8540001 4.552 43
9.9879999 -2.9779999 4.9180002 34
9.7229996 -2.937 5.0139999 34
10.364 -3.174 5.5939999 27
10.347 -3.217 5.8439999 35
10.136 -2.891 4.5120001 36
10 -2.8840001 4.6669998 29
9.6239996 -2.8080001 4.7069998 32
10.101 -2.9860001 5.1729999 28
10.265 -3.076 5.5019999 28
10.366 -3.1530001 5.8130002 28
9.9259996 -2.7690001 4.3870001 32
9.8970003 -2.7920001 4.586 38
9.6610003 -2.7579999 4.691 36
0 0 0 0
10.347 -3.033 5.5050001 40
10.5 -3.1240001 5.8439999 43
9.9250002 -2.707 4.3540001 42
10.213 -2.8169999 4.698 34
10.459 -2.9189999 5.04 28
10.127 -2.862 5.1100001 32
10.213 -2.9260001 5.3930001 35
11.087 -3.223 6.1240001 33
10.1 -2.6930001 4.3969998 50
9.9879999 -2.6919999 4.5580001 37
10.338 -2.819 4.9429998 40
0 0 0 0
10.236 -2.865 5.362 29
10.431 -2.9630001 5.7150002 42
10.529 -2.7420001 4.5469999 50
0 0 0 0
10.338 -2.7539999 4.9029999 38
10.42 -2.8110001 5.1739998 32
10.197 -2.7880001 5.2989998 26
10.299 -2.858 5.5970001 25
0 0 0 0
10.126 -2.6029999 4.546 38
10.02 -2.6059999 4.7129998 39
10.415 -2.743 5.1290002 37
10.324 -2.756 5.3200002 33
10.333 -2.7980001 5.5669999 36
10.457 -2.595 4.4380002 30
10.086 -2.53 4.4889998 34
0 0 0 0
10.317 -2.651 5.0370002 36
10.03 -2.612 5.1230001 35
10.388 -2.744 5.5489998 29
10.792 -2.612 4.539 43
10.05 -2.4579999 4.4320002 35
0 0 0 0
10.097 -2.53 4.8850002 29
10.509 -2.6689999 5.3189998 34
10.071 -2.5940001 5.3309999 31
10.652 -2.5139999 4.4380002 39
10.394 -2.4790001 4.5409999 31
10.321 -2.49 4.7249999 42
9.9680004 -2.4349999 4.7779999 33
10.392 -2.572 5.2119999 28
9.8649998 -2.4760001 5.1739998 40
10.22 -2.3499999 4.217 41
0 0 0 0
10.839 -2.5480001 4.914 30
9.8739996 -2.349 4.6869998 36
10.221 -2.464 5.0770001 37
10.232 -2.5009999 5.3140001 40
10.267 -2.2980001 4.1939998 33
10.306 -2.3310001 4.415 55
10.536 -2.411 4.7290001 31
10.008 -2.319 4.704 34
10.053 -2.3599999 4.9439998 41
10.07 -2.3970001 5.1789999 38
10.382 -2.2620001 4.1960001 46
10.488 -2.309 4.447 35
9.9490004 -2.2160001 4.421 31
9.927 -2.2379999 4.619 46
9.9829998 -2.28 4.8610001 34
10.346 -2.3959999 5.2670002 32
10.397 -2.2030001 4.158 40
10.207 -2.1860001 4.2810001 43
10.185 -2.2060001 4.4780002 44
0 0 0 0
10.367 -2.302 4.994 31
10.022 -2.257 5.0489998 30
10.467 -2.155 4.1389999 40
10.246 -2.1329999 4.2509999 39
10.125 -2.131 4.4039998 45
0 0 0 0
10.432 -2.2520001 4.9720001 35
10.026 -2.194 4.9970002 36
0 0 0 0
10.456 -2.1140001 4.289 49
10.122 -2.0699999 4.3530002 43
10.131 -2.0969999 4.5630002 29
10.218 -2.1429999 4.8169999 36
10.099 -2.1459999 4.9790001 37
0 0 0 0
10.311 -2.0239999 4.1810002 53
10.755 -2.135 4.572 34
10.077 -2.0250001 4.487 42
10.188 -2.073 4.7480001 40
10.189 -2.102 4.9660001 37
10.571 -1.992 4.033 36
10.494 -1.998 4.2030001 40
10.507 -2.0239999 4.414 36
10.293 -2.007 4.5300002 35
10.248 -2.023 4.7210002 27
10.171 -2.0350001 4.901 34
10.558 -1.929 3.977 37
0 0 0 0
11.291 -2.109 4.6849999 30
10.388 -1.964 4.5170002 37
10.335 -1.979 4.7049999 32
10.504 -2.0380001 5.0019999 39
10.613 -1.8789999 3.947 43
11.13 -1.9910001 4.3470001 35
10.787 -1.952 4.4200001 39
10.425 -1.909 4.4770002 37
10.85 -2.0120001 4.8790002 36
10.448 -1.964 4.915 23
10.626 -1.821 3.898 43
10.637 -1.842 4.0999999 36
10.507 -1.84 4.2490001 40
10.593 -1.878 4.4910002 38
10.48 -1.882 4.6529999 37
10.911 -1.985 5.0689998 31
11.047 -1.832 3.997 46
10.707 -1.794 4.0710001 37
10.506 -1.781 4.1939998 51
10.45 -1.7920001 4.3740001 38
10.651 -1.85 4.6690001 41
10.891 -1.9170001 4.9959998 35
11.235 -1.801 4.007 41
10.691 -1.732 4.0089998 44
10.628 -1.7410001 4.1849999 37
10.519 -1.745 4.3439999 46
10.766 -1.808 4.658 40
10.71 -1.823 4.849 34
11.369 -1.76 3.997 40
10.997 -1.721 4.0650001 46
10.955 -1.734 4.2529998 47
10.58 -1.6950001 4.309 43
10.713 -1.738 4.572 33
10.96 -1.802 4.8969998 32
11.407 -1.705 3.95 46
11.883 -1.795 4.3280001 38
11.125 -1.7 4.2579999 37
10.606 -1.64 4.2589998 50
10.64 -1.666 4.4790001 35
10.964 -1.74 4.8319998 25
12.595 -1.8150001 4.2930002 46
11.756 -1.7130001 4.2179999 44
11.202 -1.651 4.224 29
10.898 -1.626 4.3140001 39
10.611 -1.603 4.4029999 32
10.851 -1.6619999 4.717 28
13.018 -1.809 4.368 35
11.638 -1.6339999 4.112 47
11.517 -1.636 4.277 43
11.594 -1.6670001 4.5209999 46
11.064 -1.6109999 4.5250001 37
11.375 -1.679 4.8740001 15
13.356 -1.786 4.408 47
0 0 0 0
11.555 -1.581 4.2259998 55
11.507 -1.594 4.421 43
11.506 -1.614 4.6370001 30
11.492 -1.6339999 4.8530002 11
13.534 -1.743 4.3930001 36
13.301 -1.7309999 4.5500002 56
11.722 -1.544 4.2199998 47
11.471 -1.529 4.3400002 37
11.496 -1.552 4.5640001 34
0 0 0 0
13.731 -1.699 4.3800001 40
13.455 -1.684 4.526 59
12.658 -1.603 4.4829998 37
11.533 -1.478 4.2940001 39
11.558 -1.5 4.5170002 36
11.518 -1.515 4.7199998 9
14.048 -1.668 4.401 31
13.778 -1.655 4.5549998 38
13.54 -1.645 4.7150002 40
13.077 -1.609 4.789 34
12.444 -1.551 4.7859998 31
0 0 0 0
14.042 -1.599 4.3189998 12
13.815 -1.592 4.487 48
13.794 -1.608 4.7210002 44
13.485 -1.592 4.8559999 36
13.29 -1.59 5.0279999 35
13.404 -1.625 5.3210001 3
13.893 -1.517 4.1939998 22
13.954 -1.541 4.4499998 56
13.791 -1.541 4.6370001 54
13.434 -1.521 4.756 54
13.347 -1.53 4.967 15
0 0 0 0
0 0 0 0
14.086 -1.489 4.408 48
13.926 -1.4910001 4.599 34
13.65 -1.479 4.7480001 41
13.473 -1.48 4.9289999 28
0 0 0 0
0 0 0 0
14.195 -1.436 4.3579998 3
13.984 -1.431 4.533 20
13.79 -1.4299999 4.7119999 20
13.568 -1.426 4.8779998 12
0 0 0 0
0 0 0 0
0 0 0 0
14.062 -1.375 4.4720001 0
0 0 0 0
13.828 -1.388 4.882 15
0 0 0 0
0 0 0 0
0 0 0 0
0 0 0 0
0 0 0 0
0 0 0 0
0 0 0 0
0 0 0 0
0 0 0 0
0 0 0 0
0 0 0 0
0 0 0 0
0 0 0 0
0 0 0 0
0 0 0 0
0 0 0 0
0 0 0 0
0 0 0 0
0 0 0 0
0 0 0 0
0 0 0 0
0 0 0 0
0 0 0 0
0 0 0 0
0 0 0 0
0 0 0 0
0 0 0 0
0 0 0 0
0 0 0 0
0 0 0 0
0 0 0 0
0 0 0 0
0 0 0 0
0 0 0 0
0 0 0 0
0 0 0 0
0 0 0 0
0 0 0 0
0 0 0 0
0 0 0 0
0 0 0 0
0 0 0 0
0 0 0 0
0 0 0 0
0 0 0 0
0 0 0 0
0 0 0 0
0 0 0 0
0 0 0 0
0 0 0 0
0 0 0 0
0 0 0 0
0 0 0 0
0 0 0 0
0 0 0 0
0 0 0 0
0 0 0 0
0 0 0 0
0 0 0 0
0 0 0 0
0 0 0 0
0 0 0 0
0 0 0 0
0 0 0 0
0 0 0 0
0 0 0 0
0 0 0 0
0 0 0 0
0 0 0 0
0 0 0 0
0 0 0 0
0 0 0 0
0 0 0 0
0 0 0 0
0 0 0 0
0 0 0 0
0 0 0 0
0 0 0 0
0 0 0 0
0 0 0 0
0 0 0 0
0 0 0 0
0 0 0 0
0 0 0 0
0 0 0 0
0 0 0 0
0 0 0 0
0 0 0 0
0 0 0 0
0 0 0 0
0 0 0 0
0 0 0 0
0 0 0 0
0 0 0 0
0 0 0 0
0 0 0 0
0 0 0 0
0 0 0 0
0 0 0 0
0 0 0 0
0 0 0 0
0 0 0 0
0 0 0 0
0 0 0 0
0 0 0 0
0 0 0 0
0 0 0 0
0 0 0 0
0 0 0 0
0 0 0 0
0 0 0 0
0 0 0 0
0 0 0 0
0 0 0 0
0 0 0 0
0 0 0 0
0 0 0 0
0 0 0 0
0 0 0 0
0 0 0 0
0 0 0 0
0 0 0 0
0 0 0 0
0 0 0 0
0 0 0 0
0 0 0 0
0 0 0 0
0 0 0 0
0 0 0 0
0 0 0 0
0 0 0 0
0 0 0 0
0 0 0 0
0 0 0 0
0 0 0 0
0 0 0 0
0 0 0 0
0 0 0 0
0 0 0 0
0 0 0 0
0 0 0 0
0 0 0 0
0 0 0 0
0 0 0 0
0 0 0 0
0 0 0 0
0 0 0 0
0 0 0 0
0 0 0 0
0 0 0 0
0 0 0 0
93.588997 -1.161 10.863 36
0 0 0 0
0 0 0 0
0 0 0 0
0 0 0 0
0 0 0 0
93.775002 -0.99699998 10.239 27
94.331001 -1.045 11.688 12
0 0 0 0
0 0 0 0
0 0 0 0
0 0 0 0
94.999001 -0.85100001 9.7119999 33
94.026001 -0.884 11.006 31
0 0 0 0
0 0 0 0
0 0 0 0
0 0 0 0
97.916 -0.727 9.3360004 12
95.637001 -0.75 10.528 12
0 0 0 0
0 0 0 0
0 0 0 0
0 0 0 0
87.695999 -0.52499998 7.7529998 5
95.330002 -0.60900003 9.8299999 21
94.822998 -0.64399999 11.182 21
0 0 0 0
0 0 0 0
0 0 0 0
87.913002 -0.41100001 7.165 35
97.874001 -0.495 9.4130001 36
94.717003 -0.51599997 10.509 30
0 0 0 0
0 0 0 0
0 0 0 0
89.867996 -0.31099999 6.7030001 34
96.089996 -0.36899999 8.5780001 20
94.750999 -0.39899999 9.8509998 25
94.650002 -0.433 11.243 9
0 0 0 0
0 0 0 0
91.168999 -0.21600001 6.1680002 37
89.702003 -0.245 7.3800001 52
96.816002 -0.29899999 9.3839998 24
94.069 -0.32300001 10.509 22
0 0 0 0
0 0 0 0
91.598999 -0.12899999 5.5609999 38
89.905998 -0.15700001 6.7740002 42
96.267998 -0.2 8.6619997 26
94.244003 -0.227 9.875 19
0 0 0 0
0 0 0 0
92.332001 -0.050000001 4.9679999 25
91.138 -0.079000004 6.2360001 31
90.110001 -0.108 7.4889998 35
96.625999 -0.146 9.4530001 20
93.989998 -0.17 10.577 33
0 0 0 0
124.87 0.025 5.849 30
91.203003 -0.0099999998 5.6040001 46
89.982002 -0.037999999 6.849 38
95.872002 -0.068000004 8.7049999 33
94.234001 -0.094999999 9.9469995 22
0 0 0 0
125.306 0.105 5.0019999 20
92.323997 0.048999999 5.0320001 22
91.197998 0.022 6.2979999 17
90.211998 -0.0020000001 7.553 29
96.747002 -0.028999999 9.5240002 26
94.016998 -0.052999999 10.644 49
49.123001 0.066 1.6160001 31
125.026 0.134 5.9349999 32
91.186996 0.072999999 5.6539998 47
89.982002 0.048 6.8959999 30
95.727997 0.027000001 8.7379999 45
94.441002 0.003 10.017 24
48.172001 0.085000001 1.2460001 45
125.22 0.18700001 5.052 11
92.289001 0.115 5.0669999 17
91.583 0.090999998 6.3670001 37
90.190002 0.068000004 7.592 26
97.182999 0.050999999 9.6129999 16
47.756001 0.097999997 0.89999998 54
49.035999 0.088 1.633 45
125.2 0.19599999 5.9910002 28
91.144997 0.122 5.691 40
89.917999 0.1 6.934 30
95.643997 0.085000001 8.7790003 51
47.556 0.106 0.56199998 50
48.126999 0.096000001 1.266 58
0 0 0 0
92.096001 0.14399999 5.1079998 22
91.866997 0.124 6.4330001 17
90.127998 0.103 7.6339998 19
47.558998 0.108 0.229 51
47.743 0.097999997 0.92400002 57
49.161999 0.090999998 1.666 35
125.178 0.208 6.0689998 29
91.166 0.134 5.75 36
89.950996 0.116 6.987 30
47.782001 0.106 -0.102 44
47.576 0.096000001 0.58600003 55
48.199001 0.088 1.295 61
0 0 0 0
92.087997 0.13600001 5.1560001 36
91.879997 0.121 6.4840002 22
41.227001 0.085000001 -0.37599999 4
47.560001 0.089000002 0.25099999 52
47.803001 0.081 0.94999999 56
49.154999 0.075000003 1.689 26
125.19 0.17200001 6.118 34
91.146004 0.111 5.7849998 37
0 0 0 0
47.909 0.077 -0.081 53
47.605999 0.068000004 0.60900003 56
48.323002 0.061999999 1.3200001 57
125.172 0.14300001 5.2379999 16
92.240997 0.093000002 5.2010002 25
34.646 0.046999998 -0.80299997 64
41.188999 0.050000001 -0.35699999 5
47.625999 0.050999999 0.27700001 58
47.856998 0.044 0.97299999 70
49.346001 0.039000001 1.717 16
125.005 0.086000003 6.1760001 28
34.731998 0.028999999 -1.048 60
0 0 0 0
47.955002 0.028000001 -0.057 52
47.678001 0.022 0.634 55
48.516998 0.017000001 1.349 61
125.199 0.029999999 5.2909999 25
34.806999 0.0070000002 -1.295 34
34.659 0.003 -0.787 62
41.000999 0 -0.33399999 4
47.717999 -0.0049999999 0.30199999 52
48.006001 -0.0099999998 0.99900001 61
49.513 -0.014 1.75 5
31.576 -0.016000001 -1.393 3
34.752998 -0.021 -1.028 43
35.130001 -0.025 -0.52899998 1
40.388 -0.033 -0.025 1
47.789001 -0.041999999 0.66399997 57
48.799999 -0.046999998 1.3839999 55
27.806 -0.037999999 -1.419 5
34.751999 -0.050999999 -1.2690001 42
34.688999 -0.054000001 -0.764 69
40.326 -0.064999998 -0.303 48
47.832001 -0.079999998 0.33399999 66
48.176998 -0.083999999 1.033 49
25.139 -0.059 -1.4579999 8
31.518 -0.075999998 -1.369 6
34.720001 -0.086000003 -1.0039999 63
35.182999 -0.089000002 -0.50700003 2
40.231998 -0.104 0.0040000002 35
47.948002 -0.126 0.69700003 56
22.974001 -0.079000004 -1.4910001 14
27.764999 -0.097000003 -1.399 5
34.783001 -0.123 -1.2460001 51
34.724998 -0.124 -0.741 58
39.932999 -0.14399999 -0.27200001 56
48.004002 -0.175 0.366 51
21.045 -0.097000003 -1.511 16
25.198999 -0.118 -1.443 8
34.424 -0.162 -1.471 7
34.710999 -0.16500001 -0.98000002 61
37.455002 -0.178 -0.51499999 9
39.955002 -0.19 0.028000001 56
19.386999 -0.115 -1.527 14
22.985001 -0.13699999 -1.475 12
28.513 -0.171 -1.415 5
34.891998 -0.20999999 -1.226 43
34.919998 -0.20999999 -0.72100002 44
39.696999 -0.23899999 -0.24600001 55
17.854 -0.132 -1.53 45
21.142 -0.156 -1.502 16
25.635 -0.189 -1.448 8
32.897999 -0.243 -1.38 7
34.764999 -0.25600001 -0.95499998 67
37.401001 -0.27500001 -0.48699999 2
17.086 -0.153 -1.582 73
19.455999 -0.17399999 -1.517 13
23.392 -0.208 -1.482 16
28.82 -0.25600001 -1.406 4
34.93 -0.30899999 -1.197 43
34.828999 -0.30700001 -0.69 42
16.058001 -0.17 -1.596 78
17.872999 -0.189 -1.515 43
21.459 -0.22499999 -1.5039999 16
25.875999 -0.271 -1.437 7
34.653 -0.36199999 -1.425 17
34.883999 -0.36199999 -0.92900002 66
15.199 -0.18799999 -1.615 76
17.098 -0.20999999 -1.566 65
19.783001 -0.242 -1.522 14
23.714001 -0.289 -1.479 11
29.381001 -0.35600001 -1.404 5
34.873001 -0.421 -1.1619999 68
14.436 -0.205 -1.633 83
16.082001 -0.228 -1.582 56
18.106001 -0.255 -1.515 25
21.679001 -0.30399999 -1.498 16
26.207001 -0.36500001 -1.4299999 7
34.744999 -0.48100001 -1.392 19
13.748 -0.223 -1.648 76
15.24 -0.24600001 -1.603 67
17.152 -0.27500001 -1.552 54
20.033001 -0.31999999 -1.52 14
23.966 -0.38 -1.469 11
29.952999 -0.472 -1.402 4
13.139 -0.241 -1.665 72
14.511 -0.26499999 -1.624 67
16.184 -0.29300001 -1.573 48
18.288 -0.329 -1.5089999 14
22.052999 -0.39500001 -1.499 17
26.622 -0.47400001 -1.426 6
12.602 -0.259 -1.683 66
13.842 -0.28299999 -1.643 74
15.437 -0.31299999 -1.604 61
17.363001 -0.34999999 -1.55 59
20.329 -0.40799999 -1.518 15
24.309999 -0.484 -1.462 11
12.097 -0.27700001 -1.697 13
13.217 -0.301 -1.658 72
14.658 -0.331 -1.622 63
16.382 -0.368 -1.572 51
18.68 -0.417 -1.52 13
22.34 -0.495 -1.492 16
11.579 -0.29300001 -1.7029999 9
12.669 -0.31900001 -1.674 70
14.01 -0.34999999 -1.643 78
15.552 -0.38600001 -1.595 71
17.632 -0.435 -1.551 69
20.540001 -0.50400001 -1.5089999 15
11.132 -0.31099999 -1.712 9
12.221 -0.33899999 -1.697 19
13.357 -0.368 -1.6569999 76
0 0 0 0
16.677 -0.45300001 -1.577 63
19.073999 -0.51499999 -1.526 13
10.728 -0.32800001 -1.722 8
11.639 -0.35299999 -1.693 9
12.818 -0.38600001 -1.674 76
14.137 -0.42300001 -1.638 77
15.732 -0.46799999 -1.591 77
17.642 -0.52100003 -1.527 56
10.333 -0.345 -1.728 9
11.214 -0.37200001 -1.707 9
12.416 -0.40900001 -1.705 32
13.505 -0.442 -1.654 75
14.978 -0.48699999 -1.614 78
16.719 -0.53899997 -1.557 63
9.9770002 -0.36199999 -1.7359999 9
10.798 -0.389 -1.716 8
11.791 -0.42199999 -1.696 9
12.978 -0.461 -1.674 69
14.308 -0.505 -1.636 89
15.795 -0.55400002 -1.574 60
9.6569996 -0.37900001 -1.744 9
10.428 -0.40700001 -1.726 9
11.341 -0.43900001 -1.707 9
12.546 -0.48300001 -1.701 54
13.664 -0.52200001 -1.65 93
15.036 -0.57099998 -1.595 50
9.3430004 -0.396 -1.749 9
10.063 -0.42300001 -1.7309999 9
10.933 -0.45699999 -1.716 9
11.938 -0.495 -1.6950001 9
13.113 -0.54100001 -1.668 77
14.324 -0.58600003 -1.6109999 22
9.0609999 -0.41299999 -1.756 9
9.7379999 -0.44100001 -1.739 9
10.55 -0.47400001 -1.724 9
11.461 -0.51099998 -1.7 9
12.628 -0.56 -1.686 72
13.808 -0.60799998 -1.64 10
8.7869997 -0.43000001 -1.76 10
9.434 -0.458 -1.745 9
10.206 -0.49200001 -1.733 10
11.081 -0.52999997 -1.715 10
12.153 -0.57800001 -1.7 16
13.279 -0.62800002 -1.661 10
8.5319996 -0.447 -1.765 9
9.1450005 -0.47600001 -1.752 9
9.8730001 -0.50999999 -1.7410001 9
10.685 -0.54799998 -1.722 10
11.62 -0.59200001 -1.699 9
12.752 -0.64499998 -1.676 9
8.302 -0.46399999 -1.772 10
8.8769999 -0.493 -1.757 9
9.5679998 -0.52700001 -1.748 10
10.341 -0.56599998 -1.732 10
11.223 -0.61000001 -1.711 9
12.258 -0.662 -1.687 9
8.0839996 -0.48100001 -1.777 10
8.6190004 -0.509 -1.761 9
9.2790003 -0.54400003 -1.753 10
10.009 -0.583 -1.739 10
10.847 -0.62800002 -1.721 9
11.802 -0.67900002 -1.697 9
7.8920002 -0.5 -1.785 14
8.3830004 -0.52700001 -1.766 9
9.0059996 -0.56199998 -1.7589999 9
9.7010002 -0.60100001 -1.7460001 10
10.5 -0.64600003 -1.7309999 9
11.387 -0.69599998 -1.707 9
7.6700001 -0.51499999 -1.784 10
8.1549997 -0.54299998 -1.7690001 19
8.7419996 -0.57800001 -1.761 10
9.4099998 -0.61799997 -1.751 10
10.157 -0.662 -1.7359999 10
11.028 -0.71399999 -1.72 9
7.4710002 -0.53100002 -1.785 19
7.954 -0.56099999 -1.775 9
8.5100002 -0.59600002 -1.767 10
9.1289997 -0.63499999 -1.755 9
9.8549995 -0.68099999 -1.745 10
10.647 -0.73000002 -1.725 10
7.3189998 -0.55000001 -1.795 16
7.7540002 -0.57800001 -1.779 10
8.2930002 -0.61400002 -1.773 10
8.8809996 -0.653 -1.762 10
9.5679998 -0.69800001 -1.752 10
10.317 -0.74800003 -1.733 9
7.1550002 -0.56699997 -1.8 9
7.5819998 -0.597 -1.7869999 10
8.1000004 -0.63300002 -1.7819999 20
8.6350002 -0.67000002 -1.766 10
9.2659998 -0.71399999 -1.753 10
10.01 -0.76700002 -1.742 10
6.9460001 -0.58099997 -1.791 18
7.414 -0.61500001 -1.793 10
7.9039998 -0.65100002 -1.7869999 15
8.4119997 -0.68800002 -1.771 10
9.0220003 -0.73299998 -1.761 10
9.7130003 -0.78399998 -1.749 10
6.8109999 -0.59899998 -1.799 12
7.2399998 -0.63200003 -1.796 9
7.6750002 -0.66500002 -1.783 13
8.1949997 -0.70499998 -1.775 11
8.7740002 -0.75 -1.765 10
9.4390001 -0.80199999 -1.7539999 10
6.6820002 -0.61799997 -1.806 11
7.0890002 -0.64999998 -1.802 9
7.5040002 -0.68300003 -1.788 21
7.9990001 -0.72299999 -1.78 11
8.5500002 -0.76800001 -1.77 10
9.1689997 -0.81900001 -1.758 10
6.5370002 -0.63499999 -1.808 10
6.9089999 -0.66500002 -1.798 18
7.3439999 -0.70200002 -1.794 22
7.803 -0.74000001 -1.783 10
8.3199997 -0.78399998 -1.771 11
8.9250002 -0.83600003 -1.762 10
6.4050002 -0.65100002 -1.8099999 10
6.7680001 -0.68300003 -1.802 25
7.1849999 -0.72000003 -1.798 10
7.6350002 -0.75999999 -1.789 10
8.1230001 -0.80299997 -1.776 26
8.6969995 -0.85399997 -1.767 11
6.2729998 -0.66799998 -1.811 11
6.6220002 -0.69999999 -1.803 12
7.0040002 -0.73500001 -1.794 13
7.46 -0.77700001 -1.791 11
7.9689999 -0.82499999 -1.788 19
8.4729996 -0.87099999 -1.77 11
6.1659999 -0.68699998 -1.817 13
6.487 -0.71700001 -1.8049999 10
6.881 -0.75400001 -1.802 12
7.3299999 -0.79799998 -1.803 18
7.7719998 -0.84100002 -1.788 10
8.2740002 -0.889 -1.775 10
6.0440001 -0.70300001 -1.817 10
6.3439999 -0.73199999 -1.802 22
6.7309999 -0.77100003 -1.802 11
7.1609998 -0.815 -1.802 10
7.573 -0.85600001 -1.785 13
8.1110001 -0.91100001 -1.784 15
5.9159999 -0.71799999 -1.814 10
6.23 -0.75 -1.806 13
6.599 -0.78899997 -1.8049999 11
6.9679999 -0.82700002 -1.793 21
7.4169998 -0.87400001 -1.79 12
7.9289999 -0.92900002 -1.789 16
5.7950001 -0.73299998 -1.811 14
6.1269999 -0.76899999 -1.812 10
6.4790001 -0.80800003 -1.809 11
6.848 -0.847 -1.8 24
7.263 -0.89300001 -1.793 11
7.744 -0.94599998 -1.789 10
5.7020001 -0.75199997 -1.8150001 17
6.0240002 -0.78799999 -1.816 10
6.3610001 -0.82499999 -1.812 11
6.7220001 -0.866 -1.804 16
7.119 -0.91100001 -1.796 11
7.5289998 -0.95700002 -1.78 18
5.6059999 -0.76899999 -1.817 13
5.921 -0.80500001 -1.818 10
6.2480001 -0.84299999 -1.814 25
6.5960002 -0.884 -1.807 12
6.9860001 -0.93000001 -1.801 11
7.4099998 -0.98100001 -1.791 23
5.5250001 -0.78799999 -1.823 11
5.8169999 -0.82300001 -1.819 10
