# .PCD v0.7 - Point Cloud Data file format
VERSION 0.7
FIELDS x y z intensity
SIZE 4 4 4 4
TYPE F F F F
COUNT 1 1 1 1
WIDTH 1885
HEIGHT 1
VIEWPOINT 0 0 0 1 0 0 0
POINTS 1885
DATA ascii
0 0 0 0
83.212997 -34.431999 6.2059999 16
67.038002 -27.881001 -0.61000001 17
73.259003 -30.298 0.59299999 28
122.945 -50.587002 3.112 47
106.168 -43.485001 4.5100002 9
0 0 0 0
84.061996 -34.153999 6.4590001 6
0 0 0 0
73.709999 -29.927999 0.77600002 23
0 0 0 0
106.144 -42.68 4.75 13
96.573997 -38.667999 5.9759998 8
86.152 -34.365002 6.8070002 11
0 0 0 0
76.440002 -30.452999 0.98500001 19
88.955002 -35.257 2.6630001 20
0 0 0 0
88.538002 -34.782001 5.6690001 6
64.969002 -25.426001 5.2680001 18
76.634003 -30.122 -0.14 14
65.160004 -25.468 0.98699999 40
65.178001 -25.343 2.0940001 12
65.125 -25.205 3.197 36
64.902 -25.009001 4.2859998 3
65.07 -24.978001 5.4039998 27
74.878998 -28.857 0.029999999 36
70.732002 -27.108 1.222 13
89.238998 -34.021999 3.0510001 26
109.906 -41.708 5.6139998 10
122.506 -46.289001 8.3310003 43
81.980003 -30.857 6.9629998 15
71.924004 -27.171 0.183 7
70.824997 -26.607 1.37 16
85.678001 -32.014999 3.0969999 14
86.332001 -32.105 4.5749998 6
123.212 -45.620998 8.6070004 13
82.165001 -30.302999 7.1259999 30
71.165001 -26.334999 0.32600001 21
71.403 -26.275999 1.521 10
85.723999 -31.377001 3.2609999 14
85.452003 -31.125999 4.684 19
84.940002 -30.808001 6.0799999 8
82.900002 -29.945999 7.3299999 22
71.110001 -25.77 0.46000001 7
71.433998 -25.739 1.655 4
86.541 -31.021 3.447 6
119.887 -42.765999 6.7789998 29
0 0 0 0
82.906998 -29.322001 7.46 14
71.119003 -25.228001 0.588 22
70.759003 -24.955999 1.761 4
119.575 -41.952999 4.9619999 30
87.348 -30.5 5.0760002 21
85.997002 -29.893999 6.4310002 6
84.165001 -29.139 7.698 27
71.255997 -24.733 0.713 25
71.299004 -24.604 1.893 4
120.278 -41.290001 5.1830001 31
124.704 -42.597 7.441 17
0 0 0 0
85.535004 -28.966999 7.941 23
0 0 0 0
120.623 -40.705002 3.3870001 32
124.099 -41.657001 5.5289998 33
123.584 -41.277 7.5469999 22
86.157997 -28.643999 6.6859999 22
85.642998 -28.360001 8.0640001 30
109.47 -36.324001 1.436 31
108.772 -35.884998 3.21 35
122.024 -40.036999 5.6059999 21
123.612 -40.348 7.7090001 22
86.515999 -28.113001 6.8189998 20
67.047997 -21.695 6.3920002 6
108.648 -35.219002 1.575 48
108.928 -35.105 3.358 45
122.97 -39.410999 5.8039999 30
123.698 -39.442001 7.8660002 17
86.860001 -27.566 6.9499998 18
67.470001 -21.320999 6.5040002 13
81.461998 -25.790001 1.286 13
109.653 -34.501999 3.513 28
123.9 -38.766998 5.9899998 22
123.863 -38.555 8.0120001 52
0 0 0 0
67.738998 -20.896999 6.599 34
81.420998 -25.15 1.382 41
69.208 -21.247999 2.2980001 21
68.940002 -21.049999 3.4070001 12
68.669998 -20.855 4.5089998 8
68.269997 -20.632999 5.5960002 11
67.731003 -20.382999 6.658 11
80.762001 -24.326 1.459 15
100.011 -29.944 3.421 11
123.534 -36.776001 6.2249999 33
0 0 0 0
0 0 0 0
69.267998 -20.319 6.8639998 18
80.795998 -23.724001 1.535 7
110.583 -32.269001 3.881 33
0 0 0 0
123.666 -35.689999 8.3319998 12
0 0 0 0
66.838997 -19.108999 6.6690001 6
81.334 -23.27 1.6160001 18
111.251 -31.629999 3.9949999 32
123.696 -34.967999 6.428 35
123.363 -34.682999 8.3979998 21
0 0 0 0
67.830002 -18.888 6.8080001 32
81.419998 -22.683001 1.679 26
122.982 -34.044998 4.5019999 33
123.352 -33.944 6.4920001 38
123.89 -33.908001 8.507 12
0 0 0 0
67.959 -18.413 6.8540001 40
96.561996 -26.164 2.0539999 24
123.635 -33.284 4.5999999 21
121.525 -32.523998 6.46 27
124.628 -33.166 8.6190004 22
0 0 0 0
67.815002 -17.861 6.8649998 21
96.542999 -25.423 2.1059999 10
122.678 -32.101002 4.6220002 32
121.798 -31.674999 6.527 32
126.177 -32.624001 8.7740002 22
0 0 0 0
70.819 -18.125 7.191 32
95.177002 -24.349001 2.119 22
77.884003 -19.796 2.9649999 6
76.856003 -19.417 4.1440001 14
123.888 -31.115 8.6499996 21
71.160004 -17.771 6.0999999 4
69.837997 -17.351999 7.1030002 36
93.725998 -23.271999 2.1159999 21
77.220001 -19.048 2.96 37
95.040001 -23.294001 5.1459999 22
94.178001 -22.948999 6.5910001 19
71.587997 -17.347 6.1469998 30
69.950996 -16.858999 7.119 36
77.809998 -18.736 1.772 17
77.569 -18.549 2.9860001 37
84.947998 -20.186001 4.6079998 13
94.028999 -22.208 6.5869999 16
71.171997 -16.716 6.112 10
68.737999 -16.058001 6.9949999 48
77.816002 -18.162001 1.78 12
77.753998 -18.02 2.9979999 41
78.102997 -17.981001 4.2389998 34
72.246002 -16.528999 5.059 23
70.033997 -15.932 6.0100002 25
68.878998 -15.586 7.0009999 22
72.860001 -16.461 1.666 50
72.848 -16.341 2.8039999 44
94.112 -20.968 5.0970001 26
72.346001 -16.014999 5.0549998 5
72.337997 -15.917 6.1939998 7
69.306 -15.167 7.0279999 47
82.495003 -18.023001 1.8789999 28
79.023003 -17.139 3.0309999 37
81.605003 -17.580999 4.4050002 12
73.277 -15.68 5.1009998 5
70.292999 -14.949 5.9970002 13
69.200996 -14.634 6.994 31
82.878998 -17.497 1.867 5
78.696999 -16.495001 2.9949999 11
81.973999 -17.059999 4.3979998 7
72.843002 -15.058 5.046 7
70.753998 -14.533 6.0100002 40
70.911003 -14.478 7.1370001 7
94.149002 -19.184999 2.0910001 16
107.063 -21.646 4.0339999 15
83.719002 -16.804001 4.4559999 36
76.956001 -15.344 5.2950001 8
71.194 -14.102 6.0110002 26
71.356003 -14.047 7.1430001 25
100.11 -19.658001 2.178 10
0 0 0 0
106.087 -20.521 5.5929999 15
0 0 0 0
70.567001 -13.463 5.914 37
71.110001 -13.48 7.0710001 42
109.596 -20.718 2.322 9
109.018 -20.444 3.9909999 16
106.048 -19.735001 5.5229998 8
79.903 -14.765 5.4000001 12
71.907997 -13.195 5.9780002 7
70.864998 -12.915 6.994 42
92.112999 -16.740999 1.8890001 22
0 0 0 0
0 0 0 0
0 0 0 0
72.077003 -12.705 5.9320002 12
71.432999 -12.505 6.9899998 46
91.851997 -16.025999 1.8150001 23
92.148003 -15.946 3.2349999 28
0 0 0 0
78.75 -13.416 5.1919999 4
72.905998 -12.326 5.9330001 12
72.307999 -12.138 7.006 44
92.906998 -15.538 1.752 14
92.640999 -15.359 3.1659999 35
76.939003 -12.653 3.8110001 12
76.732002 -12.517 4.9819999 23
73.574997 -11.91 5.914 19
72.303001 -11.615 6.9289999 13
77.164001 -12.346 1.377 60
77.133003 -12.235 2.556 21
76.591003 -12.044 3.7119999 21
77.291 -12.053 4.9330001 17
72.286003 -11.186 5.7280002 24
72.335999 -11.107 6.849 7
0 0 0 0
134.903 -20.427999 4.3150001 13
135.114 -20.284 6.3889999 53
136.313 -20.287001 8.5360003 19
72.573997 -10.711 5.6599998 34
0 0 0 0
0 0 0 0
134.472 -19.400999 4.132 18
135.088 -19.309 6.2129998 40
136.27699 -19.311001 8.3540001 25
72.903 -10.241 5.5879998 33
75.056999 -10.456 6.908 15
95.753998 -13.274 1.359 12
137.556 -18.879999 4.0430002 19
79.567001 -10.819 3.5510001 11
135.726 -18.283001 8.1309996 36
137.213 -18.323 10.323 25
74.947998 -9.9209995 6.789 14
95.808998 -12.607 1.221 26
79.204002 -10.318 2.211 55
78.918999 -10.177 3.404 62
136.326 -17.41 7.9590001 25
0 0 0 0
78.445999 -9.8319998 6.9819999 10
85.904999 -10.705 0.963 9
137.375 -16.93 3.618 34
138.058 -16.834999 5.7329998 46
138.657 -16.736 7.869 20
142.935 -17.080999 10.294 15
81.677002 -9.6700001 7.132 19
86.101997 -10.126 0.82099998 13
125.538 -14.598 3.096 16
138.23399 -15.904 5.507 19
138.69901 -15.787 7.6339998 39
143.554 -16.163 10.086 21
78.546997 -8.7539997 6.7179999 32
87.938004 -9.7299995 0.68199998 50
137.354 -15.024 3.141 14
138.86 -15.013 5.2789998 20
137.674 -14.717 7.3239999 32
0 0 0 0
80.505997 -8.4189997 6.7340002 4
85.445 -8.8660002 0.50099999 49
0 0 0 0
137.759 -13.945 4.9710002 38
137.47501 -13.756 7.046 37
82.223999 -8.1309996 5.4629998 7
79.714996 -7.7930002 6.5110002 24
81.211998 -7.875 0.31600001 67
81.200996 -7.7709999 1.54 59
81.225998 -7.6760001 2.7690001 22
81.304001 -7.5830002 4 20
0 0 0 0
83.022003 -7.5539999 6.6079998 30
90.158997 -8.1309996 0.161 54
175.67101 -15.622 2.96 18
0 0 0 0
80.584999 -6.9720001 3.793 14
0 0 0 0
79.482002 -6.697 6.152 16
38.549 -3.2160001 -0.016000001 39
124.384 -10.225 1.819 11
143.73199 -11.642 4.2690001 27
149.91499 -11.974 6.7199998 17
80.132004 -6.3119998 4.8060002 25
79.644997 -6.1849999 5.9850001 37
38.111 -2.928 -0.102 55
38.696999 -2.925 0.477 2
143.43401 -10.674 3.9300001 21
144.242 -10.567 6.1290002 27
147.46899 -10.643 8.4989996 22
79.753998 -5.664 5.803 22
37.903999 -2.6600001 -0.19400001 51
38.216999 -2.6359999 0.37799999 53
142.80901 -9.6890001 3.5650001 51
143.558 -9.5810003 5.7509999 26
147.14101 -9.6549997 8.118 29
78.635002 -5.0739999 5.5289998 48
37.633999 -2.3959999 -0.28600001 65
37.881001 -2.3659999 0.28 61
142.77499 -8.7539997 3.204 15
144.366 -8.6879997 5.415 21
147.86501 -8.7410002 7.7810001 22
79.484001 -4.6149998 5.3860002 19
37.507999 -2.142 -0.384 62
37.674 -2.1070001 0.178 73
38.5 -2.109 0.76099998 2
141.58501 -7.5999999 4.934 20
143.84 -7.5679998 7.1849999 15
79.378998 -4.0910001 5.164 11
37.444 -1.896 -0.486 70
37.541 -1.858 0.075999998 63
38.244999 -1.85 0.65200001 40
142.048 -6.7129998 4.5609999 52
142.965 -6.6069999 6.7490001 27
107.635 -4.8540001 6.7030001 8
37.361 -1.65 -0.59200001 68
37.451 -1.6109999 -0.030999999 68
38.041 -1.594 0.53899997 61
142.409 -5.8189998 4.165 27
90.429001 -3.6010001 4.0089998 24
89.280998 -3.46 5.3049998 15
33.819 -1.28 -0.634 4
37.421001 -1.374 -0.14 60
37.901001 -1.35 0.426 70
90.211998 -3.1170001 2.372 41
89.874001 -3.0090001 3.717 15
94.396004 -3.0610001 5.3280001 35
33.592999 -1.058 -0.73299998 19
37.384998 -1.136 -0.255 64
37.757999 -1.108 0.31 74
99.862999 -2.825 2.322 68
90.266998 -2.4579999 3.4579999 10
88.721001 -2.316 4.7329998 14
33.528 -0.84399998 -0.83899999 45
37.463001 -0.90200001 -0.375 76
37.778 -0.87 0.189 75
58.243999 -1.2819999 1.169 19
99.935997 -2.0910001 3.5079999 150
124.245 -2.4760001 6.237 15
33.375 -0.63200003 -0.94400001 68
37.637001 -0.67400002 -0.49900001 60
37.801998 -0.63599998 0.064999998 72
57.703999 -0.91100001 0.96799999 65
123.972 -1.834 3.95 93
123.932 -1.701 5.8130002 11
33.362999 -0.426 -1.057 75
0 0 0 0
37.966999 -0.405 -0.061000001 71
47.390999 -0.456 0.63499999 59
142.867 -1.228 4.0650001 33
123.178 -0.93800002 5.3629999 11
33.358002 -0.22 -1.174 62
33.683998 -0.18799999 -0.67900002 27
38.324001 -0.176 -0.19499999 52
46.563 -0.167 0.463 51
47.403999 -0.12 1.184 58
123.535 -0.189 4.948 15
33.327 -0.017999999 -1.2920001 49
33.205002 0.015 -0.78799999 51
46.544998 0.067000002 -0.40400001 55
46.066002 0.113 0.29300001 59
46.377998 0.15800001 0.995 60
47.902 0.211 1.749 22
33.268002 0.18099999 -1.413 36
33.105 0.213 -0.90700001 81
39.659 0.29499999 -0.491 8
45.798 0.38499999 0.124 60
45.914001 0.43099999 0.81599998 54
46.610001 0.48300001 1.531 55
32.848 0.375 -1.521 15
33.159 0.412 -1.036 66
36.278 0.484 -0.58499998 8
37.473 0.537 -0.039999999 21
45.536999 0.69700003 0.63700002 56
45.976002 0.74800003 1.336 52
29.346001 0.50800002 -1.473 5
33.127998 0.60399997 -1.163 65
33.297001 0.63800001 -0.66500002 16
36.813 0.74199998 -0.18099999 48
37.140999 0.78299999 0.37799999 48
34.116001 0.75099999 0.86199999 49
27.393 0.63200003 -1.484 6
33.151001 0.796 -1.295 57
33.02 0.82200003 -0.79000002 58
36.655998 0.94800001 -0.32300001 48
36.764 0.98500001 0.23 46
33.966999 0.94099998 0.72600001 61
25.74 0.741 -1.499 8
33.028 0.98100001 -1.424 32
32.967999 1.011 -0.92299998 70
36.487 1.153 -0.47 43
36.488998 1.1849999 0.081 44
36.914001 1.234 0.639 48
24.176001 0.83399999 -1.51 17
0 0 0 0
32.984001 1.197 -1.0599999 71
33.387001 1.2410001 -0.56699997 1
36.347 1.3839999 -0.067000002 47
36.587002 1.427 0.484 46
22.832001 0.91500002 -1.524 19
28.384001 1.1619999 -1.462 5
33.004002 1.382 -1.201 66
33.153 1.4170001 -0.70300001 39
36.193001 1.5779999 -0.219 46
36.311001 1.617 0.329 40
21.583 0.98500001 -1.536 17
26.287001 1.223 -1.47 6
33.064999 1.566 -1.347 38
32.957001 1.589 -0.84100002 57
35.999001 1.77 -0.375 58
36.160999 1.811 0.17 61
20.504999 1.05 -1.552 15
24.639999 1.2819999 -1.489 11
32.698002 1.729 -1.478 21
33.062 1.776 -0.99199998 40
36.001999 1.966 -0.53299999 59
36.056 2.0020001 0.011 51
19.444 1.102 -1.562 13
23.184 1.332 -1.507 19
29.254999 1.705 -1.455 5
33.005001 1.95 -1.138 59
32.860001 1.969 -0.63300002 5
35.999001 2.1889999 -0.148 53
18.455999 1.1440001 -1.568 12
21.843 1.37 -1.52 17
27.075001 1.72 -1.471 5
32.965 2.1210001 -1.2869999 42
32.830002 2.141 -0.78299999 63
35.995998 2.3759999 -0.31 36
17.483999 1.176 -1.569 11
20.610001 1.402 -1.533 15
25.212 1.735 -1.489 9
32.868 2.2869999 -1.438 37
32.862 2.3139999 -0.93599999 66
35.999001 2.5650001 -0.47799999 52
16.683001 1.209 -1.579 10
19.504 1.429 -1.546 14
23.511999 1.7410001 -1.503 19
30.278 2.2650001 -1.47 5
32.868999 2.4849999 -1.094 59
32.939999 2.5179999 -0.59399998 2
15.969 1.2410001 -1.592 9
18.474001 1.449 -1.557 13
22.066 1.748 -1.52 18
27.274 2.1800001 -1.4579999 5
33.007999 2.665 -1.26 45
32.903999 2.6819999 -0.75199997 39
15.283 1.265 -1.601 8
17.476 1.459 -1.5599999 11
20.811001 1.752 -1.536 16
25.222 2.141 -1.472 9
32.911999 2.8199999 -1.416 34
32.807999 2.836 -0.90899998 66
14.666 1.2869999 -1.612 11
16.4 1.45 -1.548 47
19.587 1.745 -1.544 14
23.488001 2.1110001 -1.49 15
30.146999 2.7309999 -1.447 3
32.986 3.0139999 -1.0779999 52
14.193 1.316 -1.635 33
15.913 1.4859999 -1.585 70
18.518999 1.7410001 -1.557 13
22.082001 2.0910001 -1.513 17
27.465 2.6229999 -1.459 4
32.966999 3.1730001 -1.2460001 53
13.615 1.329 -1.641 65
15.216 1.495 -1.596 70
17.455999 1.726 -1.559 11
20.731001 2.063 -1.529 16
25.308001 2.5369999 -1.475 8
32.923 3.3239999 -1.411 27
13.052 1.336 -1.645 74
14.566 1.5 -1.6059999 66
16.368 1.696 -1.549 36
19.492001 2.0320001 -1.541 14
23.367001 2.4530001 -1.485 18
30.087 3.1800001 -1.447 5
12.572 1.347 -1.654 67
13.951 1.502 -1.615 72
15.841 1.715 -1.585 72
18.365 2 -1.551 12
21.966999 2.4070001 -1.512 17
27.184999 2.997 -1.45 4
12.155 1.358 -1.6670001 67
13.419 1.507 -1.628 79
15.121 1.706 -1.595 66
17.344999 1.9680001 -1.559 11
20.582001 2.349 -1.529 16
25.091999 2.8800001 -1.473 8
11.747 1.367 -1.678 62
12.933 1.511 -1.642 74
14.433 1.694 -1.604 80
16.43 1.939 -1.568 10
19.289 2.2880001 -1.538 14
23.188999 2.7650001 -1.488 15
11.347 1.3710001 -1.687 60
12.444 1.51 -1.652 68
13.844 1.687 -1.617 70
15.629 1.913 -1.5779999 9
18.167999 2.2349999 -1.55 12
21.632999 2.675 -1.508 17
10.98 1.375 -1.697 59
11.992 1.507 -1.661 67
13.266 1.674 -1.626 70
14.919 1.891 -1.592 10
17.061001 2.1730001 -1.553 11
20.191 2.5840001 -1.521 15
10.731 1.392 -1.724 30
11.569 1.505 -1.6720001 59
12.768 1.6670001 -1.641 78
14.27 1.87 -1.6059999 11
16.236 2.1370001 -1.571 9
18.931999 2.503 -1.534 13
10.277 1.377 -1.714 11
11.183 1.503 -1.683 63
12.278 1.655 -1.651 74
13.657 1.848 -1.618 11
15.396 2.0910001 -1.58 8
17.780001 2.425 -1.545 12
9.9610004 1.376 -1.723 11
10.84 1.502 -1.698 47
11.843 1.646 -1.664 73
13.13 1.831 -1.6339999 11
14.682 2.0550001 -1.5930001 10
16.544001 2.3239999 -1.534 32
9.6420002 1.372 -1.728 11
10.472 1.494 -1.706 12
11.458 1.6390001 -1.6799999 66
12.604 1.809 -1.645 11
14.003 2.016 -1.604 12
15.989 2.3099999 -1.577 47
9.3369999 1.367 -1.733 11
10.108 1.483 -1.71 11
11.075 1.628 -1.692 69
12.097 1.784 -1.652 11
13.483 1.994 -1.625 11
15.252 2.263 -1.595 29
9.0679998 1.364 -1.7410001 11
9.7969999 1.476 -1.719 11
10.774 1.627 -1.714 42
11.685 1.7690001 -1.669 12
12.893 1.957 -1.633 10
14.451 2.2 -1.599 12
8.7980003 1.357 -1.747 11
9.4860001 1.466 -1.726 11
10.3 1.595 -1.704 11
11.262 1.748 -1.679 12
12.401 1.929 -1.648 11
13.766 2.148 -1.608 11
8.5310001 1.349 -1.751 11
9.1899996 1.455 -1.732 12
9.9639997 1.58 -1.712 11
10.877 1.729 -1.691 12
11.93 1.9 -1.66 10
13.223 2.112 -1.626 11
8.2869997 1.341 -1.756 11
8.9139996 1.444 -1.739 11
9.665 1.568 -1.724 11
10.499 1.706 -1.699 12
11.498 1.873 -1.673 11
12.672 2.069 -1.637 11
8.0559998 1.3329999 -1.761 11
8.6569996 1.434 -1.7460001 11
9.3500004 1.551 -1.729 11
10.144 1.6849999 -1.707 11
11.067 1.842 -1.6799999 12
12.17 2.03 -1.65 11
7.829 1.324 -1.765 10
8.3909998 1.42 -1.749 11
9.0690002 1.536 -1.737 11
9.8149996 1.665 -1.716 11
10.686 1.8150001 -1.691 11
11.716 1.994 -1.6619999 11
7.6139998 1.314 -1.7690001 10
8.1450005 1.406 -1.753 10
8.7869997 1.518 -1.742 11
9.5100002 1.645 -1.725 11
10.315 1.7869999 -1.7 11
11.284 1.9579999 -1.675 10
7.4190001 1.306 -1.776 10
7.9180002 1.3940001 -1.7589999 11
8.5229998 1.501 -1.748 11
9.2060003 1.623 -1.732 11
9.9750004 1.76 -1.71 11
10.87 1.9220001 -1.684 10
7.2360001 1.298 -1.784 10
7.704 1.382 -1.765 10
8.2639999 1.483 -1.751 11
8.9219999 1.602 -1.739 11
9.6630001 1.7359999 -1.72 10
10.489 1.887 -1.693 10
6.9980001 1.278 -1.775 10
7.4910002 1.368 -1.7690001 10
8.0310001 1.466 -1.757 10
8.6529999 1.581 -1.745 11
9.3509998 1.709 -1.728 11
10.131 1.854 -1.7029999 11
6.8189998 1.267 -1.779 11
7.3099999 1.357 -1.778 10
7.8060002 1.449 -1.762 10
8.3800001 1.556 -1.748 11
9.0509996 1.682 -1.734 11
9.8129997 1.825 -1.715 10
6.6469998 1.256 -1.783 16
7.0650001 1.334 -1.7690001 10
7.5890002 1.432 -1.767 10
8.1420002 1.536 -1.7539999 11
8.7790003 1.6569999 -1.7410001 11
9.4860001 1.7920001 -1.722 10
6.493 1.2460001 -1.79 11
6.8759999 1.318 -1.772 10
7.3930001 1.4170001 -1.774 10
7.9050002 1.5140001 -1.7589999 10
8.5159998 1.632 -1.748 11
9.1809998 1.76 -1.728 11
6.322 1.232 -1.789 11
6.6810002 1.3 -1.77 19
7.1739998 1.395 -1.772 10
7.6880002 1.494 -1.7640001 10
8.2519999 1.603 -1.75 11
8.8979998 1.73 -1.7359999 11
6.158 1.217 -1.789 10
6.527 1.288 -1.777 25
6.9699998 1.374 -1.773 11
7.4850001 1.475 -1.771 10
8.0170002 1.579 -1.757 10
8.6269999 1.7 -1.743 11
6.0120001 1.205 -1.7920001 10
6.3769999 1.276 -1.784 16
6.7849998 1.3559999 -1.775 11
7.2750001 1.4529999 -1.774 10
7.7940001 1.556 -1.7640001 11
8.3540001 1.668 -1.7460001 11
5.8600001 1.1900001 -1.7920001 9
6.197 1.256 -1.78 10
6.6110001 1.3380001 -1.778 12
7.0580001 1.427 -1.772 11
7.5630002 1.528 -1.765 11
8.1190004 1.64 -1.753 11
5.7319999 1.179 -1.7970001 10
6.0479999 1.2410001 -1.783 18
6.4499998 1.322 -1.783 15
6.8759999 1.4069999 -1.776 11
7.349 1.503 -1.767 10
7.895 1.614 -1.76 11
5.5970001 1.165 -1.798 9
5.9380002 1.233 -1.795 17
6.2859998 1.303 -1.784 10
6.6939998 1.386 -1.777 12
7.1430001 1.477 -1.7690001 11
7.6690001 1.585 -1.7640001 10
5.4520001 1.148 -1.794 10
5.7839999 1.215 -1.793 10
6.1199999 1.283 -1.7819999 14
6.526 1.3660001 -1.781 13
6.9580002 1.454 -1.773 11
7.4299998 1.552 -1.761 11
5.3249998 1.133 -1.794 13
5.6469998 1.199 -1.794 10
5.987 1.268 -1.789 26
6.3499999 1.3430001 -1.78 11
6.7529998 1.426 -1.77 13
7.2309999 1.525 -1.766 11
5.2340002 1.126 -1.8049999 15
5.5240002 1.184 -1.7970001 11
5.849 1.251 -1.7920001 23
6.2010002 1.324 -1.784 11
6.6079998 1.408 -1.779 23
7.0359998 1.498 -1.768 11
5.118 1.112 -1.806 10
5.3990002 1.169 -1.799 10
5.7259998 1.2359999 -1.798 11
6.0450001 1.302 -1.784 16
6.4429998 1.386 -1.783 14
6.8460002 1.471 -1.77 10
5.0029998 1.097 -1.8049999 9
5.277 1.153 -1.8 9
5.5929999 1.219 -1.799 10
5.8889999 1.28 -1.7819999 22
6.2659998 1.359 -1.779 11
6.6539998 1.441 -1.768 20
4.8839998 1.08 -1.801 13
5.1690001 1.1390001 -1.803 10
5.4510002 1.198 -1.794 11
5.7930002 1.2690001 -1.796 20
6.125 1.339 -1.784 12
6.5079999 1.42 -1.775 24
4.7950001 1.069 -1.807 18
5.0640001 1.125 -1.806 10
5.342 1.183 -1.799 9
5.6440001 1.2460001 -1.7920001 11
5.98 1.317 -1.785 13
6.3660002 1.4 -1.783 16
4.7090001 1.059 -1.813 14
4.9460001 1.107 -1.803 11
5.237 1.168 -1.8049999 13
5.5190001 1.227 -1.794 11
5.8439999 1.296 -1.788 13
6.1900001 1.37 -1.779 11
4.6100001 1.044 -1.813 10
4.8369999 1.091 -1.803 18
5.1170001 1.15 -1.804 10
5.4060001 1.211 -1.799 14
5.7010002 1.273 -1.788 12
6.039 1.346 -1.78 12
4.5159998 1.03 -1.814 9
4.743 1.077 -1.806 18
5.0190001 1.135 -1.808 10
5.2950001 1.193 -1.802 11
5.585 1.255 -1.7920001 11
5.9109998 1.325 -1.785 11
4.4299998 1.017 -1.8150001 9
4.6570001 1.064 -1.8099999 17
4.895 1.114 -1.802 14
5.1750002 1.173 -1.801 11
5.441 1.229 -1.7869999 17
5.7639999 1.299 -1.7819999 11
4.3470001 1.0039999 -1.817 9
4.5830002 1.053 -1.818 13
4.8000002 1.098 -1.8049999 21
5.0689998 1.156 -1.803 11
5.3410001 1.2130001 -1.794 17
5.6279998 1.275 -1.7819999 11
4.2659998 0.991 -1.819 10
4.4850001 1.036 -1.816 10
4.7020001 1.081 -1.8049999 20
4.9650002 1.137 -1.804 10
5.1989999 1.187 -1.785 10
5.507 1.253 -1.784 11
4.1789999 0.97600001 -1.817 11
4.4000001 1.022 -1.817 11
4.6220002 1.068 -1.811 18
4.8520002 1.1160001 -1.8 13
5.1339998 1.177 -1.802 10
5.3990002 1.233 -1.788 18
4.0939999 0.96100003 -1.8150001 9
4.3109999 1.006 -1.8150001 10
4.5430002 1.054 -1.816 11
4.7540002 1.098 -1.801 19
5.0289998 1.1569999 -1.803 10
5.3179998 1.219 -1.801 15
4.0149999 0.94599998 -1.814 11
4.23 0.991 -1.816 10
4.4510002 1.0369999 -1.814 10
4.6739998 1.084 -1.807 18
4.9359999 1.14 -1.806 10
5.198 1.1950001 -1.798 10
3.9660001 0.93900001 -1.825 11
4.152 0.97600001 -1.817 10
4.368 1.021 -1.8150001 10
4.5960002 1.069 -1.812 16
4.8169999 1.1160001 -1.8 13
5.0960002 1.175 -1.801 10
3.891 0.92400002 -1.823 9
4.0710001 0.96100003 -1.8150001 10
4.2870002 1.006 -1.816 10
4.494 1.049 -1.807 10
4.7309999 1.098 -1.803 19
4.987 1.153 -1.799 10
3.8269999 0.912 -1.826 8
3.9990001 0.94599998 -1.8150001 12
4.2059999 0.98900002 -1.8150001 10
4.4190001 1.034 -1.811 9
4.6469998 1.081 -1.806 17
4.8920002 1.133 -1.801 10
3.7679999 0.89999998 -1.83 8
3.941 0.935 -1.821 10
4.138 0.97500002 -1.819 10
4.342 1.017 -1.813 10
4.5710001 1.0650001 -1.8099999 14
4.7839999 1.11 -1.796 14
3.7019999 0.88700002 -1.829 8
3.872 0.921 -1.821 9
4.066 0.95999998 -1.819 10
4.263 1 -1.813 10
4.487 1.0470001 -1.811 10
4.7080002 1.0930001 -1.802 17
3.642 0.87400001 -1.83 8
3.809 0.90700001 -1.823 9
3.9920001 0.94400001 -1.818 13
4.1869998 0.98400003 -1.812 10
4.4120002 1.031 -1.814 10
4.6269999 1.075 -1.804 16
3.5869999 0.86199999 -1.8329999 8
3.7579999 0.89600003 -1.829 9
3.921 0.92799997 -1.816 10
4.1279998 0.97100002 -1.818 10
4.3299999 1.012 -1.812 10
4.559 1.0599999 -1.811 12
3.527 0.84899998 -1.832 8
3.6919999 0.88099998 -1.827 9
3.8629999 0.91500002 -1.8200001 9
4.0500002 0.95200002 -1.8150001 10
4.256 0.995 -1.813 10
4.474 1.04 -1.809 10
3.471 0.83600003 -1.832 8
3.638 0.86799997 -1.829 8
3.8010001 0.89999998 -1.8200001 9
3.983 0.93699998 -1.8150001 14
4.1810002 0.977 -1.812 12
4.402 1.022 -1.811 10
3.4170001 0.82300001 -1.832 8
3.5769999 0.85399997 -1.8279999 9
3.756 0.889 -1.8279999 9
3.924 0.92199999 -1.818 9
4.1240001 0.963 -1.817 10
4.3239999 1.003 -1.811 10
3.3659999 0.81099999 -1.8329999 8
3.527 0.84200001 -1.831 9
3.698 0.875 -1.829 8
3.859 0.90600002 -1.817 9
4.046 0.94300002 -1.812 11
4.2509999 0.98500001 -1.8099999 10
3.312 0.79699999 -1.832 8
3.474 0.82800001 -1.831 9
3.6370001 0.86000001 -1.827 8
3.8080001 0.89300001 -1.821 9
3.9890001 0.92799997 -1.816 15
4.1859999 0.96799999 -1.812 11
3.2690001 0.78600001 -1.835 8
3.4289999 0.81699997 -1.835 9
3.5799999 0.84500003 -1.827 9
3.75 0.87699997 -1.822 9
3.9319999 0.91299999 -1.818 10
4.1170001 0.94999999 -1.811 10
3.2190001 0.773 -1.834 8
3.3729999 0.80199999 -1.832 9
3.5320001 0.83200002 -1.829 8
3.6949999 0.86199999 -1.822 8
3.8729999 0.89700001 -1.818 9
4.0609999 0.93400002 -1.814 13
3.178 0.76200002 -1.837 7
3.3269999 0.78899997 -1.834 9
3.4849999 0.81900001 -1.831 8
3.6489999 0.85000002 -1.826 8
3.813 0.88 -1.817 9
3.9990001 0.91600001 -1.814 13
3.1359999 0.75 -1.8380001 7
3.2809999 0.77600002 -1.834 8
3.437 0.80500001 -1.831 9
3.598 0.83499998 -1.827 8
3.76 0.86500001 -1.818 9
3.9530001 0.903 -1.8200001 10
3.0899999 0.73699999 -1.836 7
3.2379999 0.764 -1.835 8
3.392 0.792 -1.8329999 9
3.552 0.82099998 -1.829 8
3.7160001 0.852 -1.823 9
3.885 0.88300002 -1.8150001 9
3.0510001 0.72600001 -1.8380001 7
3.1949999 0.75099999 -1.835 8
3.3499999 0.77899998 -1.835 8
3.503 0.80699998 -1.829 8
3.665 0.83600003 -1.823 8
3.8380001 0.86900002 -1.818 9
3.0179999 0.71499997 -1.842 6
3.155 0.73900002 -1.836 7
3.3010001 0.76499999 -1.832 8
3.4619999 0.79400003 -1.832 8
3.6170001 0.82200003 -1.824 8
3.7869999 0.85299999 -1.818 8
2.977 0.70300001 -1.84 6
3.118 0.727 -1.8380001 7
3.263 0.75199997 -1.834 8
3.414 0.77899998 -1.83 8
3.575 0.80800003 -1.826 8
3.7409999 0.83700001 -1.821 8
0 0 0 0
3.079 0.71499997 -1.8380001 7
3.224 0.73900002 -1.835 8
3.375 0.76599997 -1.832 8
3.529 0.79299998 -1.826 8
3.698 0.82300001 -1.823 8
1.603 0.375 -1.016 2
3.0480001 0.704 -1.842 7
3.1849999 0.72600001 -1.836 8
3.3340001 0.75199997 -1.832 8
3.487 0.778 -1.827 8
3.6559999 0.80800003 -1.825 8
1.529 0.35600001 -0.98100001 2
3.0079999 0.69099998 -1.84 7
3.1489999 0.71399999 -1.836 7
3.2969999 0.73900002 -1.834 8
3.451 0.76499999 -1.83 8
3.6140001 0.79299998 -1.826 8
1.48 0.34200001 -0.95999998 3
2.977 0.67900002 -1.842 7
3.1110001 0.70099998 -1.835 8
3.2579999 0.72500002 -1.8329999 7
3.418 0.75199997 -1.834 8
3.5699999 0.778 -1.826 8
0 0 0 0
2.904 0.65799999 -1.817 6
3.082 0.68900001 -1.839 7
3.224 0.71200001 -1.835 7
3.3740001 0.73699999 -1.831 8
3.5320001 0.76300001 -1.827 8
0 0 0 0
1.628 0.366 -1.03 2
3.0469999 0.676 -1.8380001 7
3.184 0.69800001 -1.832 8
3.339 0.72299999 -1.832 8
3.487 0.74699998 -1.824 8
0 0 0 0
1.54 0.34400001 -0.98400003 2
3.0150001 0.66399997 -1.8380001 7
3.154 0.685 -1.834 7
3.303 0.70899999 -1.832 8
3.4560001 0.73400003 -1.8279999 8
0 0 0 0
1.503 0.333 -0.97000003 3
2.987 0.65200001 -1.84 6
3.122 0.67199999 -1.834 7
3.2690001 0.69499999 -1.832 8
3.4219999 0.72000003 -1.8279999 7
0 0 0 0
1.471 0.32300001 -0.95899999 4
2.9579999 0.63999999 -1.839 6
3.0940001 0.66000003 -1.835 7
3.2349999 0.68099999 -1.83 7
3.388 0.70499998 -1.8279999 7
0 0 0 0
0 0 0 0
0 0 0 0
3.0680001 0.648 -1.837 7
3.2049999 0.66799998 -1.831 7
3.3570001 0.69099998 -1.829 8
0 0 0 0
0 0 0 0
1.574 0.33399999 -0.99699998 1
3.0409999 0.63599998 -1.8380001 6
3.178 0.65499997 -1.832 7
3.3299999 0.67799997 -1.831 8
0 0 0 0
0 0 0 0
1.538 0.322 -0.98299998 2
3.013 0.62199998 -1.837 6
3.1530001 0.64200002 -1.834 8
3.299 0.66299999 -1.831 8
0 0 0 0
0 0 0 0
1.505 0.31200001 -0.97100002 2
2.99 0.61000001 -1.839 6
3.128 0.62900001 -1.835 7
3.2739999 0.64999998 -1.8329999 7
0 0 0 0
0 0 0 0
1.482 0.303 -0.963 3
2.97 0.59899998 -1.841 6
3.105 0.61699998 -1.837 7
3.247 0.63599998 -1.832 8
0 0 0 0
0 0 0 0
0 0 0 0
0 0 0 0
3.089 0.60500002 -1.841 6
3.227 0.62400001 -1.835 7
0 0 0 0
0 0 0 0
0 0 0 0
1.7589999 0.345 -1.107 2
3.0599999 0.59100002 -1.8380001 7
3.198 0.60900003 -1.832 7
0 0 0 0
0 0 0 0
0 0 0 0
1.5650001 0.303 -0.99199998 1
3.036 0.57800001 -1.835 7
3.177 0.59600002 -1.8329999 7
0 0 0 0
0 0 0 0
0 0 0 0
1.535 0.292 -0.97899997 2
3.016 0.56599998 -1.835 6
3.155 0.583 -1.832 7
0 0 0 0
0 0 0 0
0 0 0 0
1.511 0.28299999 -0.97000003 2
2.9949999 0.55299997 -1.834 6
3.138 0.56999999 -1.834 7
0 0 0 0
0 0 0 0
0 0 0 0
1.5 0.27700001 -0.96899998 2
2.9809999 0.54100001 -1.836 6
3.125 0.55800003 -1.837 7
0 0 0 0
0 0 0 0
0 0 0 0
1.48 0.26800001 -0.96100003 2
0 0 0 0
3.0999999 0.54299998 -1.832 7
0 0 0 0
0 0 0 0
0 0 0 0
1.4630001 0.25999999 -0.95499998 2
0 0 0 0
3.0899999 0.53100002 -1.836 7
0 0 0 0
0 0 0 0
0 0 0 0
1.448 0.25299999 -0.94999999 2
0 0 0 0
3.079 0.51899999 -1.8380001 6
0 0 0 0
0 0 0 0
0 0 0 0
0 0 0 0
1.6339999 0.27500001 -1.027 1
3.0610001 0.50599998 -1.835 6
0 0 0 0
0 0 0 0
0 0 0 0
1.424 0.23899999 -0.94199997 2
1.575 0.259 -0.99400002 1
3.0539999 0.49399999 -1.8380001 6
0 0 0 0
0 0 0 0
0 0 0 0
0 0 0 0
1.557 0.25099999 -0.986 1
3.04 0.48100001 -1.837 6
0 0 0 0
0 0 0 0
0 0 0 0
0 0 0 0
1.54 0.242 -0.97799999 2
3.033 0.46799999 -1.8380001 6
0 0 0 0
0 0 0 0
0 0 0 0
0 0 0 0
1.528 0.235 -0.97399998 2
3.0280001 0.456 -1.84 6
0 0 0 0
0 0 0 0
0 0 0 0
0 0 0 0
1.521 0.228 -0.972 2
3.013 0.44299999 -1.836 6
0 0 0 0
0 0 0 0
0 0 0 0
0 0 0 0
1.5039999 0.22 -0.963 2
3.0120001 0.43099999 -1.839 6
0 0 0 0
0 0 0 0
0 0 0 0
0 0 0 0
1.506 0.214 -0.96600002 2
3.013 0.41999999 -1.8430001 6
0 0 0 0
0 0 0 0
0 0 0 0
0 0 0 0
1.503 0.208 -0.96499997 2
3.0009999 0.40599999 -1.8380001 6
0 0 0 0
0 0 0 0
0 0 0 0
0 0 0 0
1.502 0.20200001 -0.96499997 2
3 0.39399999 -1.839 6
0 0 0 0
0 0 0 0
0 0 0 0
0 0 0 0
1.498 0.19499999 -0.963 2
2.9979999 0.382 -1.839 6
0 0 0 0
0 0 0 0
0 0 0 0
0 0 0 0
1.497 0.189 -0.96200001 2
2.9979999 0.37 -1.839 6
0 0 0 0
0 0 0 0
0 0 0 0
0 0 0 0
1.5039999 0.184 -0.96700001 2
3.0039999 0.35800001 -1.8430001 6
0 0 0 0
0 0 0 0
0 0 0 0
0 0 0 0
1.505 0.178 -0.96700001 2
3.0039999 0.34599999 -1.841 6
0 0 0 0
0 0 0 0
0 0 0 0
0 0 0 0
1.506 0.171 -0.96700001 2
3.0039999 0.33399999 -1.84 6
0 0 0 0
0 0 0 0
0 0 0 0
0 0 0 0
1.507 0.16500001 -0.96600002 2
3.007 0.32100001 -1.839 6
0 0 0 0
0 0 0 0
0 0 0 0
0 0 0 0
1.513 0.16 -0.96799999 2
3.0139999 0.30899999 -1.84 6
0 0 0 0
0 0 0 0
0 0 0 0
0 0 0 0
1.5190001 0.154 -0.97000003 2
3.0139999 0.296 -1.836 6
0 0 0 0
0 0 0 0
0 0 0 0
0 0 0 0
1.526 0.148 -0.972 2
3.036 0.28600001 -1.845 6
0 0 0 0
0 0 0 0
0 0 0 0
0 0 0 0
1.543 0.14300001 -0.98100001 2
3.039 0.273 -1.842 6
0 0 0 0
0 0 0 0
0 0 0 0
1.413 0.12899999 -0.93900001 3
1.55 0.13699999 -0.98199999 2
3.052 0.26100001 -1.844 6
0 0 0 0
0 0 0 0
0 0 0 0
1.424 0.124 -0.94300002 2
1.569 0.132 -0.99000001 1
3.0599999 0.249 -1.842 6
0 0 0 0
0 0 0 0
0 0 0 0
1.429 0.118 -0.94199997 2
1.594 0.127 -1.002 1
3.0699999 0.236 -1.841 5
0 0 0 0
0 0 0 0
0 0 0 0
1.4450001 0.113 -0.949 2
1.773 0.134 -1.11 2
3.089 0.22499999 -1.844 6
0 0 0 0
0 0 0 0
0 0 0 0
1.455 0.108 -0.95099998 2
0 0 0 0
3.1059999 0.213 -1.846 6
0 0 0 0
0 0 0 0
0 0 0 0
1.476 0.103 -0.95999998 2
2.9690001 0.199 -1.841 7
3.1159999 0.2 -1.842 6
0 0 0 0
0 0 0 0
0 0 0 0
1.493 0.097000003 -0.96499997 2
2.9909999 0.18700001 -1.845 5
3.1300001 0.18700001 -1.841 6
0 0 0 0
0 0 0 0
0 0 0 0
1.508 0.092 -0.97000003 2
3.0079999 0.175 -1.844 6
3.152 0.175 -1.8430001 6
0 0 0 0
0 0 0 0
0 0 0 0
1.523 0.086000003 -0.97299999 2
3.026 0.163 -1.844 6
3.1689999 0.163 -1.842 7
1.215 0.075000003 -0.89200002 9
0 0 0 0
1.403 0.077 -0.935 4
1.55 0.081 -0.98500001 2
3.0439999 0.15099999 -1.844 6
3.1849999 0.15000001 -1.839 6
0 0 0 0
0 0 0 0
1.423 0.071999997 -0.94199997 4
1.576 0.075999998 -0.995 1
3.062 0.139 -1.842 6
3.2079999 0.138 -1.84 6
0 0 0 0
0 0 0 0
1.443 0.067000002 -0.949 3
0 0 0 0
3.0899999 0.12800001 -1.846 6
3.23 0.125 -1.839 6
0 0 0 0
0 0 0 0
1.4630001 0.061999999 -0.95499998 2
2.937 0.117 -1.827 5
3.112 0.116 -1.846 6
3.2650001 0.113 -1.846 7
0 0 0 0
0 0 0 0
1.487 0.057 -0.963 2
2.9960001 0.106 -1.849 5
3.135 0.104 -1.845 6
3.286 0.101 -1.8430001 7
0 0 0 0
0 0 0 0
1.52 0.052000001 -0.977 2
3.02 0.094999999 -1.849 6
3.154 0.090999998 -1.841 6
3.3110001 0.088 -1.842 7
0 0 0 0
0 0 0 0
1.55 0.046 -0.98799998 2
3.046 0.082999997 -1.85 6
3.1830001 0.079000004 -1.842 7
3.3380001 0.075000003 -1.841 6
0 0 0 0
1.426 0.039999999 -0.94499999 5
1.582 0.041000001 -0.99900001 1
3.0680001 0.071000002 -1.847 6
3.2130001 0.067000002 -1.8430001 6
3.368 0.063000001 -1.842 7
0 0 0 0
1.45 0.035 -0.95300001 5
0 0 0 0
3.1010001 0.059999999 -1.85 6
3.2479999 0.055 -1.846 7
3.4000001 0.048999999 -1.842 7
0 0 0 0
1.477 0.029999999 -0.96100003 4
0 0 0 0
3.1300001 0.048 -1.85 6
3.27 0.041999999 -1.842 7
3.438 0.037 -1.845 7
0 0 0 0
1.506 0.024 -0.97100002 3
3.0139999 0.041999999 -1.852 6
3.155 0.035999998 -1.847 6
3.3099999 0.029999999 -1.846 7
3.4660001 0.024 -1.841 7
0 0 0 0
1.543 0.018999999 -0.98500001 2
3.046 0.029999999 -1.853 6
3.1819999 0.024 -1.844 6
3.3369999 0.017000001 -1.8430001 7
3.51 0.011 -1.846 8
1.416 0.015 -0.93900001 5
1.584 0.013 -1.001 2
3.079 0.017999999 -1.854 6
3.221 0.012 -1.848 7
3.3740001 0.0049999999 -1.844 7
3.5439999 -0.001 -1.844 8
1.444 0.0099999998 -0.94800001 4
0 0 0 0
3.1129999 0.0070000002 -1.855 6
3.26 0 -1.85 6
3.4159999 -0.0070000002 -1.846 7
3.5799999 -0.014 -1.842 7
1.483 0.0040000002 -0.963 4
3.0009999 0.0020000001 -1.857 5
3.141 -0.0040000002 -1.851 6
3.3010001 -0.011 -1.853 7
3.454 -0.018999999 -1.846 7
3.618 -0.028000001 -1.841 7
1.516 0 -0.97299999 2
3.027 -0.0080000004 -1.852 6
3.168 -0.016000001 -1.847 7
3.329 -0.024 -1.848 7
3.4879999 -0.032000002 -1.8430001 7
3.6570001 -0.041000001 -1.84 8
1.563 -0.0060000001 -0.99299997 2
3.063 -0.018999999 -1.853 6
3.217 -0.028000001 -1.853 7
3.368 -0.035999998 -1.848 7
3.536 -0.045000002 -1.847 8
3.7049999 -0.054000001 -1.841 8
1.776 -0.014 -1.115 2
3.096 -0.030999999 -1.851 7
3.2449999 -0.039000001 -1.848 7
3.4070001 -0.048 -1.847 8
3.5710001 -0.057999998 -1.842 7
3.7479999 -0.068000004 -1.84 7
1.631 -0.017999999 -1.012 0
3.1370001 -0.041999999 -1.854 7
3.283 -0.050999999 -1.847 7
3.4489999 -0.061000001 -1.847 7
3.615 -0.071000002 -1.842 8
3.803 -0.082000002 -1.8430001 8
3.033 -0.045000002 -1.859 6
3.175 -0.054000001 -1.853 7
3.332 -0.063000001 -1.851 7
3.4949999 -0.072999999 -1.848 8
3.661 -0.083999999 -1.842 8
3.8380001 -0.094999999 -1.836 8
3.0650001 -0.056000002 -1.855 6
3.2149999 -0.066 -1.853 7
3.3789999 -0.075999998 -1.853 7
3.5350001 -0.086000003 -1.846 8
3.7060001 -0.097000003 -1.841 8
3.8900001 -0.109 -1.837 8
3.108 -0.067000002 -1.857 6
3.257 -0.077 -1.853 7
3.4159999 -0.088 -1.85 8
3.5799999 -0.098999999 -1.845 8
3.763 -0.11 -1.844 8
3.9389999 -0.123 -1.835 8
3.142 -0.078000002 -1.853 6
3.3 -0.089000002 -1.853 7
3.4619999 -0.1 -1.85 8
3.6340001 -0.111 -1.848 8
3.803 -0.123 -1.8380001 8
3.994 -0.13600001 -1.834 8
3.187 -0.090000004 -1.855 7
3.3429999 -0.101 -1.852 7
3.5039999 -0.112 -1.848 8
3.6800001 -0.124 -1.845 7
3.855 -0.13699999 -1.837 8
4.0500002 -0.15000001 -1.8329999 8
3.2260001 -0.101 -1.853 7
3.3889999 -0.112 -1.853 7
3.563 -0.124 -1.853 8
3.733 -0.13699999 -1.846 7
3.904 -0.15000001 -1.834 8
4.1090002 -0.164 -1.8329999 9
3.27 -0.112 -1.852 7
3.431 -0.124 -1.85 8
3.6010001 -0.13600001 -1.847 8
3.7850001 -0.15000001 -1.845 8
3.964 -0.163 -1.835 9
4.171 -0.17900001 -1.8329999 13
3.3180001 -0.123 -1.853 7
3.483 -0.13600001 -1.852 9
3.654 -0.149 -1.847 8
3.8310001 -0.162 -1.84 8
4.0240002 -0.177 -1.835 13
4.2309999 -0.193 -1.831 13
3.3640001 -0.134 -1.852 7
3.53 -0.147 -1.849 8
3.7079999 -0.161 -1.847 8
3.888 -0.175 -1.839 8
4.0799999 -0.19 -1.832 14
4.3169999 -0.208 -1.839 9
3.411 -0.146 -1.851 7
3.586 -0.15899999 -1.851 8
3.7690001 -0.17399999 -1.849 8
3.9690001 -0.189 -1.85 12
4.1479998 -0.204 -1.834 15
4.381 -0.222 -1.836 9
3.464 -0.15700001 -1.852 7
3.642 -0.17200001 -1.851 8
3.8299999 -0.18700001 -1.85 8
4.0050001 -0.20100001 -1.837 13
4.2210002 -0.21799999 -1.836 15
4.4499998 -0.237 -1.834 10
3.5190001 -0.169 -1.852 8
3.6960001 -0.183 -1.85 9
3.8759999 -0.198 -1.8430001 8
4.0650001 -0.214 -1.835 16
4.296 -0.233 -1.8380001 9
4.526 -0.252 -1.834 9
3.5739999 -0.18099999 -1.852 8
3.7590001 -0.19599999 -1.852 9
3.9489999 -0.212 -1.848 10
4.145 -0.228 -1.84 11
4.3699999 -0.24699999 -1.8380001 10
4.5999999 -0.266 -1.832 9
3.6300001 -0.192 -1.852 8
3.812 -0.208 -1.848 8
3.993 -0.223 -1.8380001 14
4.2119999 -0.242 -1.8380001 9
4.4419999 -0.26100001 -1.836 10
4.6869998 -0.28200001 -1.8329999 10
3.6889999 -0.204 -1.852 8
3.8710001 -0.22 -1.846 8
4.0669999 -0.237 -1.841 9
4.2909999 -0.25600001 -1.841 9
4.5139999 -0.27500001 -1.834 9
4.77 -0.29699999 -1.832 15
3.7520001 -0.21600001 -1.853 8
3.938 -0.23199999 -1.846 9
4.1430001 -0.25 -1.8430001 9
4.3600001 -0.26899999 -1.8380001 10
4.6020002 -0.28999999 -1.835 11
4.8429999 -0.31200001 -1.825 14
3.8099999 -0.228 -1.85 8
3.994 -0.244 -1.841 8
4.2140002 -0.26300001 -1.842 9
4.4489999 -0.28299999 -1.841 9
4.6880002 -0.30500001 -1.835 16
4.941 -0.32699999 -1.827 10
3.878 -0.23899999 -1.852 8
4.0640001 -0.25600001 -1.841 9
4.2989998 -0.27700001 -1.846 10
4.5240002 -0.29699999 -1.839 9
4.77 -0.31900001 -1.832 17
5.046 -0.34400001 -1.829 11
3.9400001 -0.25099999 -1.849 8
4.1370001 -0.26899999 -1.841 9
4.3759999 -0.28999999 -1.845 10
4.6059999 -0.31099999 -1.837 16
4.8439999 -0.333 -1.825 16
5.1409998 -0.36000001 -1.826 10
4.007 -0.26300001 -1.847 8
4.2119999 -0.28099999 -1.841 9
4.4530001 -0.303 -1.8430001 10
4.6900001 -0.32499999 -1.835 17
4.9549999 -0.34900001 -1.83 11
5.2420001 -0.375 -1.824 10
4.073 -0.27399999 -1.844 9
4.2950001 -0.294 -1.8430001 10
4.54 -0.31600001 -1.844 9
4.7779999 -0.338 -1.834 18
5.0599999 -0.36399999 -1.832 11
5.3169999 -0.389 -1.812 10
4.1459999 -0.28600001 -1.8430001 9
4.381 -0.30700001 -1.844 10
4.6069999 -0.32800001 -1.835 16
4.869 -0.352 -1.831 11
5.1630001 -0.37900001 -1.83 11
5.427 -0.405 -1.8099999 10
4.223 -0.29800001 -1.8430001 9
4.4580002 -0.31900001 -1.842 10
4.6950002 -0.34200001 -1.8329999 17
4.9749999 -0.36700001 -1.8329999 10
5.2670002 -0.39500001 -1.8279999 10
5.5630002 -0.42300001 -1.8150001 10
4.3070002 -0.31 -1.844 10
4.5489998 -0.33199999 -1.8430001 11
4.7940001 -0.35499999 -1.835 10
5.0760002 -0.382 -1.832 11
5.3860002 -0.41100001 -1.829 15
5.698 -0.44 -1.817 10
4.395 -0.322 -1.846 9
4.625 -0.34400001 -1.837 15
4.8940001 -0.36899999 -1.835 11
5.1789999 -0.396 -1.83 10
5.4660001 -0.42300001 -1.816 15
5.8239999 -0.45699999 -1.8150001 11
4.474 -0.33399999 -1.842 9
4.711 -0.35600001 -1.834 11
4.9959998 -0.382 -1.835 10
5.2989998 -0.41100001 -1.832 16
5.6110001 -0.44100001 -1.823 11
5.9749999 -0.47499999 -1.819 10
4.5669999 -0.34599999 -1.844 10
4.8099999 -0.36899999 -1.834 10
5.099 -0.396 -1.8329999 10
5.4039998 -0.42500001 -1.8279999 20
5.7540002 -0.458 -1.827 10
6.1160002 -0.49200001 -1.817 11
4.6479998 -0.35699999 -1.839 9
4.9109998 -0.382 -1.834 10
5.2179999 -0.41 -1.835 17
5.4920001 -0.43700001 -1.816 12
5.8759999 -0.47299999 -1.821 10
6.2620001 -0.509 -1.8150001 10
4.7449999 -0.36899999 -1.839 9
5.013 -0.39399999 -1.832 10
5.3169999 -0.42300001 -1.829 21
5.651 -0.454 -1.826 10
6.0229998 -0.48899999 -1.822 10
6.4310002 -0.528 -1.816 17
4.8449998 -0.38100001 -1.8380001 10
5.1279998 -0.40700001 -1.834 10
5.434 -0.43599999 -1.827 20
5.783 -0.46900001 -1.824 11
6.1719999 -0.50599998 -1.821 11
6.5939999 -0.546 -1.814 21
4.9439998 -0.39199999 -1.835 10
5.2379999 -0.41999999 -1.831 19
5.5560002 -0.44999999 -1.825 10
5.927 -0.48500001 -1.824 11
6.3239999 -0.52200001 -1.819 10
6.7519999 -0.56300002 -1.808 12
5.0409999 -0.403 -1.83 10
5.3449998 -0.43200001 -1.827 20
5.6950002 -0.46399999 -1.827 10
6.072 -0.5 -1.823 10
6.4790001 -0.53799999 -1.8150001 21
6.934 -0.58200002 -1.806 11
5.1820002 -0.417 -1.84 13
5.461 -0.44400001 -1.823 18
5.829 -0.47799999 -1.825 11
6.2160001 -0.514 -1.819 10
6.6300001 -0.55400002 -1.808 20
7.1240001 -0.60000002 -1.804 10
5.276 -0.42699999 -1.831 16
5.599 -0.45699999 -1.825 10
5.9699998 -0.49200001 -1.823 10
6.4000001 -0.53200001 -1.825 16
6.8330002 -0.57300001 -1.813 10
7.3509998 -0.62099999 -1.807 10
5.3940001 -0.43799999 -1.829 16
5.7350001 -0.47 -1.825 10
6.1269999 -0.50599998 -1.824 10
6.5419998 -0.54500002 -1.816 22
7.0229998 -0.58999997 -1.811 10
7.5630002 -0.64099997 -1.804 10
5.5 -0.44800001 -1.821 12
5.8769999 -0.48300001 -1.824 10
6.277 -0.51999998 -1.8200001 10
6.6929998 -0.55900002 -1.807 17
7.2529998 -0.61000001 -1.817 9
7.8070002 -0.662 -1.8049999 10
5.6630001 -0.46200001 -1.83 10
6.0149999 -0.495 -1.8200001 10
6.4429998 -0.53399998 -1.819 20
6.8920002 -0.57499999 -1.809 10
7.4580002 -0.62699997 -1.813 10
8.0310001 -0.68099999 -1.798 9
5.7969999 -0.47299999 -1.827 10
6.177 -0.50800002 -1.821 10
6.605 -0.54699999 -1.814 24
7.1009998 -0.59200001 -1.811 10
7.6539998 -0.64300001 -1.804 9
8.2770004 -0.70099998 -1.793 10
5.9380002 -0.48500001 -1.825 10
6.3499999 -0.52100003 -1.823 12
6.7810001 -0.56099999 -1.811 12
7.3280001 -0.61000001 -1.814 9
7.888 -0.66100001 -1.801 9
8.5450001 -0.72100002 -1.79 10
6.092 -0.49599999 -1.824 10
6.487 -0.53100002 -1.812 23
6.98 -0.57499999 -1.812 10
7.5380001 -0.625 -1.8099999 9
8.1409998 -0.68000001 -1.799 10
8.8269997 -0.74199998 -1.785 10
6.2540002 -0.50700003 -1.823 10
6.6570001 -0.54299998 -1.808 21
7.1950002 -0.59100002 -1.813 10
7.7449999 -0.63999999 -1.802 10
8.3959999 -0.69800001 -1.794 10
9.1230001 -0.76200002 -1.778 10
6.4289999 -0.51899999 -1.824 16
6.8559999 -0.55599999 -1.809 10
7.4099998 -0.60500002 -1.811 10
7.994 -0.65600002 -1.8 10
8.6669998 -0.71600002 -1.788 10
9.4440002 -0.78399998 -1.773 10
6.5840001 -0.528 -1.817 19
7.0580001 -0.56900001 -1.808 11
7.6300001 -0.61799997 -1.807 10
8.2419996 -0.67199999 -1.795 10
8.9700003 -0.73500001 -1.785 10
9.7849998 -0.80599999 -1.766 10
6.7540002 -0.53799999 -1.811 13
7.2839999 -0.583 -1.811 9
7.848 -0.63099998 -1.801 9
8.5120001 -0.68800002 -1.7920001 10
9.2589998 -0.75199997 -1.776 10
10.145 -0.82800001 -1.758 10
6.9619999 -0.55000001 -1.814 10
7.506 -0.59500003 -1.8099999 10
8.1009998 -0.64499998 -1.799 10
8.7959995 -0.70300001 -1.786 10
9.5930004 -0.77100003 -1.77 10
10.535 -0.85100001 -1.751 10
7.1950002 -0.56199998 -1.819 9
7.7220001 -0.60600001 -1.804 10
8.3610001 -0.65799999 -1.794 10
9.085 -0.71799999 -1.779 10
9.9399996 -0.78899997 -1.762 10
10.946 -0.87300003 -1.7410001 9
7.401 -0.57099998 -1.8150001 9
7.96 -0.61699998 -1.8 10
8.6280003 -0.671 -1.788 10
9.3970003 -0.73400003 -1.772 10
10.317 -0.80900002 -1.756 10
11.384 -0.89600003 -1.7309999 10
7.612 -0.57999998 -1.8099999 10
8.2069998 -0.62699997 -1.794 10
8.9230003 -0.68400002 -1.783 10
9.7390003 -0.74900001 -1.766 10
10.704 -0.82700002 -1.745 10
11.873 -0.92000002 -1.721 9
7.8390002 -0.588 -1.8049999 10
8.4610004 -0.63700002 -1.788 10
9.2220001 -0.69599998 -1.776 10
10.097 -0.76499999 -1.7589999 10
11.15 -0.847 -1.739 9
12.393 -0.94499999 -1.711 10
8.0880003 -0.597 -1.802 10
8.75 -0.648 -1.785 10
9.5539999 -0.70899999 -1.772 10
10.474 -0.77899998 -1.75 11
11.598 -0.866 -1.728 10
12.945 -0.96899998 -1.696 11
8.3299999 -0.60399997 -1.794 10
9.0439997 -0.65700001 -1.779 10
9.8809996 -0.72000003 -1.762 10
10.889 -0.79500002 -1.743 10
12.093 -0.88499999 -1.7180001 10
13.562 -0.995 -1.684 11
8.599 -0.611 -1.789 10
9.3470001 -0.66600001 -1.772 10
10.259 -0.73199999 -1.756 10
11.328 -0.81 -1.733 9
12.613 -0.903 -1.704 10
14.222 -1.021 -1.668 10
8.8870001 -0.61799997 -1.785 10
9.684 -0.67500001 -1.766 10
10.657 -0.74299997 -1.749 10
11.799 -0.824 -1.724 10
13.192 -0.92299998 -1.691 11
14.978 -1.05 -1.655 11
9.1899996 -0.625 -1.78 10
10.031 -0.68199998 -1.758 11
11.076 -0.75400001 -1.74 10
12.287 -0.83700001 -1.709 11
13.819 -0.94300002 -1.676 11
15.906 -1.087 -1.648 22
9.5080004 -0.63 -1.772 10
10.411 -0.69 -1.75 10
11.527 -0.764 -1.729 10
12.861 -0.852 -1.699 11
14.518 -0.963 -1.661 10
16.681999 -1.108 -1.615 29
9.8470001 -0.634 -1.765 10
10.815 -0.69599998 -1.742 10
12.002 -0.77200001 -1.717 10
13.464 -0.86699998 -1.687 11
15.334 -0.98699999 -1.65 11
17.823 -1.148 -1.6059999 11
10.216 -0.63800001 -1.7589999 11
11.26 -0.70200002 -1.735 11
12.532 -0.78100002 -1.706 10
14.088 -0.87800002 -1.669 10
16.16 -1.007 -1.63 12
19.261 -1.2 -1.6059999 13
10.599 -0.63999999 -1.75 10
11.707 -0.70599997 -1.723 10
13.09 -0.78899997 -1.693 10
14.85 -0.89399999 -1.658 10
17.142 -1.031 -1.613 11
20.774 -1.248 -1.594 16
10.943 -0.63700002 -1.73 18
12.21 -0.70999998 -1.712 11
13.695 -0.79500002 -1.678 11
15.641 -0.90600002 -1.641 11
18.351 -1.062 -1.605 12
22.499001 -1.301 -1.5779999 18
11.42 -0.639 -1.726 12
12.729 -0.71100003 -1.697 11
14.38 -0.801 -1.664 10
16.518 -0.91799998 -1.6210001 10
19.851999 -1.101 -1.603 14
24.405001 -1.351 -1.55 12
11.924 -0.639 -1.72 10
13.321 -0.71200001 -1.6849999 10
15.18 -0.80900002 -1.653 11
17.621 -0.93599999 -1.612 11
21.424 -1.135 -1.5880001 16
27.068001 -1.4299999 -1.54 6
12.445 -0.63599998 -1.709 10
13.936 -0.70999998 -1.668 10
15.976 -0.81 -1.633 12
18.979 -0.95899999 -1.61 13
23.263 -1.1720001 -1.572 16
30.215 -1.517 -1.523 5
12.977 -0.63 -1.6950001 11
14.636 -0.708 -1.655 11
16.893 -0.81300002 -1.6160001 10
20.346001 -0.97500002 -1.594 15
25.320999 -1.2079999 -1.548 8
33.654999 -1.599 -1.482 34
13.571 -0.62400001 -1.683 10
15.418 -0.704 -1.641 12
18.077 -0.82099998 -1.6109999 12
22.046 -0.99599999 -1.585 17
28.054001 -1.261 -1.536 6
33.598 -1.502 -1.265 69
14.22 -0.61400002 -1.668 11
16.226 -0.69599998 -1.622 11
19.382 -0.82599998 -1.602 14
23.809999 -1.008 -1.559 12
32.765999 -1.3789999 -1.586 7
33.664001 -1.406 -1.054 64
14.951 -0.60299999 -1.655 10
17.226 -0.68900001 -1.609 11
20.907 -0.82999998 -1.5930001 16
26.000999 -1.024 -1.535 7
33.689999 -1.316 -1.414 41
33.52 -1.299 -0.83899999 48
15.737 -0.588 -1.641 11
18.42 -0.68199998 -1.602 13
22.563 -0.82700002 -1.575 18
28.986 -1.053 -1.529 5
33.539001 -1.207 -1.199 74
36.903999 -1.3150001 -0.69300002 52
16.58 -0.56900001 -1.6210001 10
19.742001 -0.67000002 -1.591 14
24.459999 -0.82099998 -1.5549999 13
33.210999 -1.103 -1.545 16
33.421001 -1.097 -0.98799998 77
37.368 -1.2130001 -0.47400001 63
17.617001 -0.54900002 -1.61 11
21.271 -0.65399998 -1.58 16
26.775 -0.81300002 -1.534 6
33.527 -1.005 -1.353 66
33.48 -0.98900002 -0.78399998 27
37.506001 -1.0930001 -0.24600001 50
18.905001 -0.528 -1.609 13
22.923 -0.63099998 -1.561 18
29.909 -0.81 -1.529 5
33.452 -0.89099997 -1.145 63
37.466 -0.98199999 -0.64999998 51
37.522999 -0.96700001 -0.021 77
20.254999 -0.49900001 -1.599 15
24.837 -0.60000002 -1.538 10
33.394001 -0.79100001 -1.503 31
33.377998 -0.77399999 -0.93900001 62
37.445999 -0.85100001 -0.42300001 70
37.851002 -0.84200001 0.206 78
21.799 -0.46200001 -1.586 17
27.250999 -0.56400001 -1.521 7
33.382999 -0.67400002 -1.301 74
0 0 0 0
37.623001 -0.722 -0.20200001 68
38.335999 -0.71700001 0.43399999 52
23.549999 -0.417 -1.5700001 19
30.378 -0.51999998 -1.511 6
33.321999 -0.55299997 -1.098 71
37.645 -0.60399997 -0.60900003 71
37.835999 -0.58600003 0.021 77
57.827 -0.866 0.99800003 58
25.665001 -0.36000001 -1.5549999 9
33.344002 -0.44999999 -1.461 34
33.332001 -0.43099999 -0.90100002 79
37.862 -0.46599999 -0.38800001 51
38.360001 -0.44999999 0.24699999 60
58.366001 -0.65200001 1.348 10
27.926001 -0.28799999 -1.525 5
33.509998 -0.32499999 -1.268 72
0 0 0 0
38.018002 -0.32300001 -0.169 59
47.071999 -0.37099999 0.57499999 70
0 0 0 0
0 0 0 0
33.272999 -0.19400001 -1.064 63
38.230999 -0.199 -0.58399999 63
38.577999 -0.176 0.052000001 46
47.062 -0.184 0.847 64
0 0 0 0
33.243 -0.085000001 -1.424 54
33.230999 -0.063000001 -0.87 63
38.705002 -0.046 -0.36700001 53
46.300999 -0.025 0.32800001 60
47.036999 0.0060000001 1.114 64
123.611 0.103 4.9829998 20
33.262001 0.048999999 -1.2309999 65
0 0 0 0
46.252998 0.132 -0.176 56
46.087002 0.16500001 0.588 56
47.25 0.20299999 1.387 80
124.365 0.62699997 5.7140002 28
33.111 0.185 -1.036 83
39.657001 0.25 -0.58499998 20
45.84 0.32300001 0.082000002 74
46.082001 0.359 0.84600002 69
47.316002 0.40599999 1.653 79
127.198 1.1849999 6.5469999 40
33.179001 0.32499999 -0.85000002 52
45.894001 0.484 -0.41999999 61
45.604 0.51599997 0.33500001 60
46.005001 0.55599999 1.098 53
47.423 0.611 1.916 21
132.942 1.824 7.5749998 16
33.112999 0.46799999 -0.66299999 2
37.459999 0.55800003 -0.13500001 42
45.519001 0.71399999 0.58499998 66
46.049999 0.759 1.35 62
47.75 0.82599998 2.188 2
104.399 1.895 6.5089998 11
37.077 0.685 -0.542 48
37.095001 0.71399999 0.064999998 49
45.457001 0.91299999 0.82700002 55
34.091999 0.71399999 1.182 48
0 0 0 0
105.037 2.3789999 7.1020002 36
36.759998 0.84299999 -0.34 47
36.949001 0.87800002 0.26300001 42
34.016998 0.838 0.801 76
33.944 0.86500001 1.3559999 36
0 0 0 0
104.67 2.8529999 7.625 21
34.195999 0.93900001 -0.13500001 0
33.952 0.96200001 0.41999999 33
33.882 0.98900002 0.97299999 74
46.813999 1.41 2.1129999 47
0 0 0 0
0 0 0 0
36.435001 1.171 0.048 64
33.77 1.115 0.59500003 7
33.744999 1.145 1.146 87
47.323002 1.65 2.381 4
0 0 0 0
0 0 0 0
36.445 1.344 0.235 44
37.160999 1.404 0.84399998 23
45.877998 1.777 1.791 64
0 0 0 0
0 0 0 0
0 0 0 0
36.495998 1.522 0.42199999 60
37.367001 1.594 1.04 1
46.200001 2.0150001 2.0369999 75
0 0 0 0
0 0 0 0
0 0 0 0
36.742001 1.714 0.611 48
45.235001 2.154 1.485 60
46.546001 2.2639999 2.2850001 22
0 0 0 0
0 0 0 0
0 0 0 0
36.823002 1.901 0.79299998 48
45.410999 2.3900001 1.712 73
169.008 9.0780001 9.1260004 38
0 0 0 0
0 0 0 0
0 0 0 0
37.007999 2.0999999 0.977 31
45.683998 2.6400001 1.9450001 74
0 0 0 0
0 0 0 0
0 0 0 0
0 0 0 0
37.178001 2.302 1.159 3
46.023998 2.8989999 2.178 53
0 0 0 0
0 0 0 0
0 0 0 0
0 0 0 0
45.155998 3.0320001 1.619 69
46.900002 3.2030001 2.4389999 6
0 0 0 0
0 0 0 0
0 0 0 0
0 0 0 0
45.389 3.2920001 1.8380001 65
127.276 9.3769999 7.2049999 44
0 0 0 0
0 0 0 0
0 0 0 0
0 0 0 0
45.778 3.569 2.062 71
126.933 10.045 7.7589998 37
0 0 0 0
0 0 0 0
0 0 0 0
0 0 0 0
46.223 3.8599999 2.289 17
113.907 9.6529999 7.474 31
0 0 0 0
0 0 0 0
0 0 0 0
0 0 0 0
102.984 9.1800003 5.553 6
103.724 9.3730001 7.2579999 19
0 0 0 0
0 0 0 0
0 0 0 0
0 0 0 0
103.081 9.7700005 5.9959998 32
101.157 9.7150002 7.506 18
227.989 22.198999 20.603001 54
0 0 0 0
0 0 0 0
0 0 0 0
103.235 10.378 6.4390001 21
100.582 10.241 7.8850002 26
227.645 23.482 21.514999 31
0 0 0 0
0 0 0 0
0 0 0 0
99.827003 10.614 6.6339998 20
99.512001 10.714 8.21 30
0 0 0 0
0 0 0 0
0 0 0 0
0 0 0 0
96.390999 10.822 6.796 47
99.148003 11.265 8.5769997 35
0 0 0 0
0 0 0 0
0 0 0 0
