# .PCD v0.7 - Point Cloud Data file format
VERSION 0.7
FIELDS x y z intensity
SIZE 4 4 4 4
TYPE F F F F
COUNT 1 1 1 1
WIDTH 1798
HEIGHT 1
VIEWPOINT 0 0 0 1 0 0 0
POINTS 1798
DATA ascii
8.8170004 -3.2420001 -0.12 2
15.292 -5.6560001 0.054000001 38
15.272 -5.6820002 0.31900001 36
15.24 -5.7069998 0.583 43
15.165 -5.7189999 0.84500003 37
8.7989998 -3.2820001 -0.24600001 11
8.8640003 -3.323 -0.094999999 1
80.865997 -30.482 0.53100002 15
14.278 -5.414 0.34200001 4
14.021 -5.3509998 0.58099997 22
15.154 -5.8239999 0.89399999 13
0 0 0 0
68.182999 -26.040001 -0.528 5
80.495003 -30.917 0.77700001 13
13.861 -5.355 0.375 14
13.749 -5.3460002 0.61299998 23
19.775999 -7.743 1.2309999 3
13.809 -5.3439999 -0.30500001 11
13.786 -5.3629999 -0.064000003 54
13.777 -5.3889999 0.177 18
13.595 -5.3499999 0.41299999 27
13.526 -5.3579998 0.64899999 12
19.781 -7.8889999 1.301 1
19.798 -7.8000002 -0.375 4
19.795 -7.8400002 -0.028999999 2
77.263 -30.77 1.245 22
13.401 -5.369 0.45199999 37
13.33 -5.375 0.68599999 1
0 0 0 0
0 0 0 0
76.830002 -30.968 0.14399999 5
76.791 -31.120001 1.498 32
13.262 -5.4070001 0.49399999 0
112.318 -46.098 6.184 11
99.738998 -41.217999 7.2750001 12
0 0 0 0
76.505997 -31.371 0.40099999 12
78.952003 -32.550999 1.812 5
0 0 0 0
99.249001 -41.435001 5.8270001 23
110.684 -46.535 8.493 14
66.655998 -27.652 -0.60100001 5
76.161003 -31.759001 0.662 18
0 0 0 0
100.047 -42.200001 4.4429998 15
100.075 -42.484001 6.243 22
99.348 -42.473999 7.9980001 15
69.901001 -29.475 -0.391 13
77.345001 -32.778999 0.94599998 14
66.064003 -28.153999 1.9910001 4
66.184998 -28.372999 3.184 16
98.282997 -42.410999 6.5089998 34
64.609001 -28.075001 5.4530001 3
70.646004 -30.268 -0.142 14
66.439003 -28.608999 1.0549999 18
66.399002 -28.747999 2.247 68
66.732002 -29.068001 3.4660001 23
100.213 -43.941002 7.0219998 12
64.197998 -28.35 5.6739998 33
73.491997 -31.985001 0.118 4
76.561996 -33.487 1.497 25
100.317 -44.120998 3.776 15
0 0 0 0
0 0 0 0
64.195 -28.796 5.9380002 33
69.709 -30.806999 0.37 34
74.797997 -33.221001 1.7460001 29
0 0 0 0
100.365 -45.099998 6.0009999 12
0 0 0 0
63.337002 -28.856001 6.125 28
69.334999 -31.101 0.63300002 37
0 0 0 0
0 0 0 0
98.196999 -44.798 6.2729998 15
64.879997 -29.796 5.3449998 9
64.064003 -29.631001 6.4679999 25
69.289001 -31.541 0.90399998 11
0 0 0 0
0 0 0 0
0 0 0 0
63.264 -29.485001 5.4790001 15
23.719 -11.135 2.4979999 11
71.664001 -33.095001 1.22 4
0 0 0 0
0 0 0 0
0 0 0 0
24.108999 -11.399 2.194 1
23.650999 -11.264 2.598 34
84.342003 -39.5 1.779 34
86.763 -40.839001 3.4219999 12
0 0 0 0
23.681999 -11.279 1.813 0
24.093 -11.553 2.2980001 16
23.761 -11.476 2.7149999 15
83.563004 -39.665001 2.1029999 6
86.376999 -41.212002 3.7709999 28
0 0 0 0
23.672001 -11.431 1.9170001 34
23.646999 -11.497 2.362 4
23.823 -11.667 2.8329999 48
64.860001 -31.201 1.905 46
64.806999 -31.334999 3.1040001 9
25.937 -12.612 1.727 69
23.622999 -11.56 2.0179999 31
23.666 -11.66 2.4719999 41
23.642 -11.735 2.921 7
85.441002 -41.639 2.8710001 28
25.878 -12.677 1.352 7
23.983 -11.816 1.704 10
23.642 -11.721 2.1259999 44
23.768 -11.865 2.592 33
23.500999 -11.82 3.016 39
23.988001 -11.838 0.91100001 42
23.773001 -11.795 1.347 40
23.629999 -11.791 1.784 44
23.139 -11.62 2.188 22
23.74 -12.005 2.701 27
23.025999 -11.731 3.066 37
23.886 -11.934 1.01 48
23.806999 -11.957 1.454 36
23.569 -11.905 1.886 35
23.18 -11.783 2.2980001 33
23.672001 -12.118 2.8039999 40
23.429001 -12.084 3.2320001 25
23.82 -12.043 1.112 36
23.533001 -11.961 1.543 55
23.596001 -12.063 1.997 34
23.157 -11.915 2.4059999 24
23.476999 -12.164 2.895 23
23.073999 -12.049 3.2969999 38
23.725 -12.136 1.214 19
23.454 -12.061 1.645 44
23.601 -12.209 2.108 26
23.664 -12.321 2.5710001 13
23.472 -12.308 3.0090001 24
22.938999 -12.121 3.3929999 24
23.724001 -12.274 1.323 2
23.497999 -12.223 1.758 18
23.42 -12.256 2.2030001 12
23.547001 -12.403 2.6730001 25
23.455999 -12.444 3.1240001 13
23.344 -12.481 3.572 17
25.264 -13.217 1.526 68
23.306999 -12.259 1.853 25
23.207001 -12.279 2.2950001 9
22.995001 -12.247 2.7219999 24
23.423 -12.565 3.2360001 1
28.26 -15.28 4.467 31
23.419001 -12.384 1.522 17
23.209999 -12.34 1.955 25
23.309 -12.468 2.4170001 13
9.7550001 -5.2519999 1.202 4
28.138 -15.261 4.0289998 38
9.7229996 -5.3150001 1.5880001 16
23.361 -12.483 1.63 19
23.292999 -12.514 2.0739999 0
9.7489996 -5.27 1.058 1
9.717 -5.2880001 1.247 5
28.233 -15.477 4.1859999 29
9.6949997 -5.3569999 1.6339999 26
23.309 -12.582 1.7359999 2
24.921 -13.527 2.3410001 70
9.6990004 -5.296 1.101 5
9.7440004 -5.3569999 1.299 4
9.6680002 -5.355 1.483 38
28.150999 -15.72 4.8930001 18
24.874001 -13.56 1.972 70
9.7060003 -5.3210001 0.95899999 8
9.757 -5.382 1.156 12
9.6660004 -5.368 1.3380001 28
9.6639996 -5.4070001 1.533 4
28.641001 -16.158001 5.132 28
27.502001 -15.137 2.3139999 54
9.7360001 -5.3889999 1.01 13
9.6440001 -5.3709998 1.191 32
9.6350002 -5.4029999 1.383 33
28.284 -15.981 4.6360002 17
28.410999 -16.184999 5.243 39
9.7259998 -5.402 0.866 0
9.6529999 -5.3920002 1.049 2
9.6110001 -5.4029999 1.2359999 32
9.75 -5.5190001 1.45 17
28.611 -16.319 4.8400002 9
9.8920002 -5.6890001 1.878 0
9.6689997 -5.4190001 0.90799999 13
9.5900002 -5.4050002 1.09 30
9.6859999 -5.4949999 1.295 21
9.7749996 -5.5840001 1.505 4
28.554001 -16.438 4.9819999 27
9.8850002 -5.7389998 1.932 16
9.6009998 -5.428 0.94999999 32
9.5889997 -5.4520001 1.1390001 29
28.305 -16.197001 3.931 40
28.034 -16.155001 4.4629998 18
28.649 -16.638 5.1539998 0
9.8190002 -5.7509999 1.972 14
9.5469999 -5.4419999 0.99199998 28
9.8319998 -5.6370001 1.217 2
27.898001 -16.099001 4.0159998 32
27.767 -16.136999 4.566 7
28.551001 -16.722 5.2859998 8
9.8079996 -5.7930002 2.023 15
9.5579996 -5.4910002 1.04 8
27.788 -16.059 3.5799999 37
28.070999 -16.327999 4.184 38
27.827999 -16.302999 4.7210002 2
9.8219995 -5.7989998 1.8710001 16
9.125 -5.4349999 1.932 21
27.450001 -15.893 3.125 37
27.891001 -16.243 3.734 37
27.83 -16.315001 4.2930002 37
33.825001 -19.974001 5.9180002 9
9.7950001 -5.8299999 1.919 19
8.9530001 -5.375 1.944 33
27.412001 -15.986 3.257 39
27.882 -16.357 3.8759999 38
27.981001 -16.524 4.461 14
38.823002 -23.094999 6.9959998 29
9.3959999 -5.6339998 1.891 16
9.71 -5.875 2.1619999 29
27.485001 -16.143 3.4030001 37
27.959 -16.518999 4.027 37
28.021999 -16.667999 4.612 38
9.7510004 -5.8429999 1.808 26
8.993 -5.4320002 1.859 44
9.6619997 -5.888 2.2060001 35
9.691 -5.73 1.249 1
9.7089996 -5.7750001 1.448 21
9.7410002 -5.8330002 1.654 26
9.7159996 -5.8610001 1.853 35
9.6680002 -5.8800001 2.05 32
9.6610003 -5.9289999 2.2590001 33
9.6680002 -5.7529998 1.294 36
9.6759996 -5.7930002 1.493 31
9.7040005 -5.849 1.698 34
9.1210003 -5.539 1.788 44
9.6990004 -5.9390001 2.109 12
9.6599998 -5.9679999 2.312 27
9.6540003 -5.7789998 1.341 36
9.6750002 -5.8270001 1.5420001 35
9.6990004 -5.882 1.748 34
8.9659996 -5.4780002 1.8049999 27
9.7370005 -5.9990001 2.1700001 0
9.6619997 -6.0079999 2.365 0
9.6529999 -5.8109999 1.3890001 32
9.6809998 -5.8649998 1.592 35
9.3879995 -5.7259998 1.74 21
28.052999 -17.243 5.7950001 6
33.709 -20.893999 7.6929998 9
27.608 -17.27 6.9099998 2
9.6610003 -5.848 1.439 29
9.6890001 -5.901 1.643 19
8.9779997 -5.506 1.71 39
27.910999 -17.250999 5.9130001 10
35.747002 -22.281 8.3509998 18
14.254 -8.9680004 3.6440001 0
9.684 -5.8920002 1.4910001 3
28.139999 -17.228001 4.914 39
8.9589996 -5.5240002 1.753 11
27.701 -17.212 6.0149999 1
27.524 -17.247999 6.5780001 0
14.24 -9.007 3.72 4
9.1040001 -5.5650001 1.447 0
9.0150003 -5.546 1.62 2
27.913 -17.294001 5.605 24
33.410999 -20.862 7.4289999 38
27.353001 -17.226999 6.6820002 3
14.078 -8.9499998 3.7539999 8
9.1820002 -5.638 1.505 8
8.9809999 -5.5500002 1.659 34
27.833 -17.322001 5.7319999 3
33.321999 -20.902 7.5830002 21
27.24 -17.236 6.7979999 1
14.071 -8.9879999 3.8280001 24
9.073 -5.5939999 1.5319999 2
8.9829998 -5.5739999 1.704 19
27.719 -17.323 5.8499999 10
33.105999 -20.854 7.7030001 18
27.521999 -17.489 7.013 6
14.118 -9.0570002 3.9159999 37
9.0220003 -5.5830002 1.568 1
27.827999 -17.333 5.4180002 25
27.627001 -17.332001 5.9689999 14
27.433001 -17.348 6.5229998 7
27.458 -17.517 7.1389999 29
10.395 -6.6960001 2.9389999 1
8.9940004 -5.5840001 1.607 29
8.9709997 -5.6059999 1.791 0
27.596001 -17.372 6.0999999 14
27.474001 -17.434999 6.6729999 21
14.06 -9.0019999 3.7290001 1
10.347 -6.6890001 2.9790001 19
8.9709997 -5.5869999 1.645 35
8.9399996 -5.6040001 1.8279999 7
27.634001 -17.451 6.244 39
27.41 -17.448999 6.7940001 28
14.078 -9.0419998 3.8039999 5
10.358 -6.7179999 3.036 33
9.0299997 -5.6389999 1.7 19
8.8739996 -5.5780001 1.857 5
27.547001 -17.443001 6.3600001 20
27.16 -17.337999 6.868 14
14.128 -9.1009998 3.8889999 23
10.354 -6.7350001 3.0880001 36
9.0419998 -5.6589999 1.744 15
8.8149996 -5.5539999 1.887 2
27.445 -17.421 6.4710002 18
27.08 -17.330999 6.9819999 9
10.378 -6.7020001 2.9089999 1
10.323 -6.7319999 3.132 36
9.0200005 -5.6570001 1.7819999 2
27.763 -17.528999 6.0760002 28
27.379999 -17.416 6.5840001 31
27.093 -17.375999 7.1139998 11
10.36 -6.7049999 2.9549999 17
8.6520004 -5.6550002 2.668 0
8.8649998 -5.5689998 1.793 8
27.712 -17.525 6.1950002 27
27.368 -17.437 6.7129998 36
27.297001 -17.537001 7.2989998 11
10.362 -6.7179999 3.0050001 27
8.6289997 -5.6500001 2.7030001 11
8.8540001 -5.5689998 1.831 9
27.652 -17.509001 6.3099999 17
27.264999 -17.393999 6.8150001 18
14.125 -9.0869999 3.8429999 8
10.363 -6.7280002 3.0550001 35
8.6400003 -5.6659999 2.7479999 36
8.8400002 -5.5650001 1.868 3
27.521999 -17.443001 6.4039998 17
27.135 -17.327999 6.9060001 16
14.119 -9.092 3.908 30
10.353 -6.7280002 3.102 27
8.7049999 -5.7140002 2.8110001 11
8.8529997 -5.5760002 1.91 0
27.409 -17.382 6.5 34
27.325001 -17.459999 7.0770001 14
10.291 -6.631 2.895 0
10.34 -6.724 3.145 16
0 0 0 0
27.742001 -17.476 6.1079998 22
27.457001 -17.414 6.6339998 28
27.423 -17.525999 7.224 24
10.398 -6.7010002 2.971 5
8.658 -5.632 2.6719999 7
10.261 -6.743 3.408 17
27.591 -17.377001 6.1929998 20
27.495001 -17.434999 6.7600002 13
14.074 -8.993 3.7690001 8
10.356 -6.6729999 3.0050001 20
8.6569996 -5.6300001 2.71 24
10.036 -6.5949998 3.378 15
27.632 -17.393999 6.3179998 0
33.217999 -21.052999 8.3059998 20
14.061 -8.9799995 3.8239999 23
10.361 -6.6729999 3.05 23
8.7139997 -5.665 2.766 26
9.757 -6.408 3.326 12
33.089001 -20.808001 7.7020001 17
33.368 -21.129 8.4829998 24
14.099 -8.9960003 3.8940001 33
10.389 -6.6849999 3.102 13
8.6549997 -5.6209998 2.7839999 13
9.3719997 -6.1500001 3.2360001 23
32.417 -20.358999 7.677 2
14.244 -9.007 3.6789999 2
10.43 -6.6459999 2.9230001 0
10.484 -6.7379999 3.1730001 17
8.6379995 -5.6040001 2.813 0
9.3900003 -6.1539998 3.28 34
27.441 -17.204 6.6069999 1
14.223 -8.9779997 3.7290001 9
14.283 -9.0860004 4.059 28
8.7440004 -5.6100001 2.681 1
0 0 0 0
9.375 -6.1339998 3.312 30
27.523001 -17.219999 6.73 2
14.262 -8.9849997 3.7939999 13
9.5480003 -6.0619998 2.7490001 0
8.75 -5.6020002 2.7160001 33
8.9250002 -5.7680001 2.977 6
9.2749996 -6.0560002 3.313 21
27.556999 -17.198999 6.8410001 2
14.274 -8.9700003 3.8499999 21
9.7449999 -6.171 2.8429999 18
8.7980003 -5.619 2.7639999 44
8.802 -5.6739998 2.9690001 36
9.2980003 -6.0570002 3.3559999 29
9.6450005 -6.0029998 2.4289999 10
9.6809998 -6.066 2.6459999 27
9.3059998 -5.8769999 2.7479999 23
0 0 0 0
0 0 0 0
0 0 0 0
9.632 -5.9749999 2.46 33
9.6920004 -6.0539999 2.6830001 29
8.9449997 -5.6300001 2.6730001 24
9.085 -5.7670002 2.9189999 29
9.1429996 -5.8579998 3.1489999 22
8.8990002 -5.7610002 3.276 37
9.6400003 -5.9580002 2.4949999 36
9.691 -6.0310001 2.7160001 10
8.651 -5.4250002 2.6140001 32
8.8769999 -5.6139998 2.882 29
9.4189997 -6.013 3.2750001 5
8.9370003 -5.7649999 3.3199999 31
9.6499996 -5.941 2.53 27
9.5410004 -5.914 2.7049999 18
8.6680002 -5.414 2.648 34
8.8479996 -5.5739999 2.901 6
9.1820002 -5.8379998 3.223 20
9.0389996 -5.8060002 3.3859999 16
9.651 -5.915 2.5599999 0
9.1459999 -5.6440001 2.622 29
8.677 -5.3959999 2.678 40
9.3579998 -5.869 3.098 24
8.5530005 -5.414 3.029 1
8.4259996 -5.388 3.1830001 19
14.26 -8.6990004 3.8269999 32
9.434 -5.7940001 2.733 34
8.7200003 -5.3959999 2.717 9
9.6700001 -6.0349998 3.2309999 22
8.54 -5.3800001 3.05 8
8.3400002 -5.3080001 3.175 8
14.382 -8.7279997 3.902 9
0 0 0 0
0 0 0 0
0 0 0 0
8.5839996 -5.3790002 3.089 30
8.3030005 -5.256 3.184 0
14.493 -8.7469997 3.973 16
8.8190002 -5.3590002 2.6059999 34
9.1450005 -5.599 2.902 33
9.1070004 -5.6220002 3.0929999 16
8.9420004 -5.572 3.2420001 30
9.9069996 -6.2360001 3.825 25
8.6759996 -5.2059999 2.402 0
8.802 -5.316 2.6240001 2
9.1759996 -5.585 2.9349999 35
9.0369997 -5.5469999 3.092 15
9.2910004 -5.7550001 3.392 32
9.132 -5.7129998 3.549 16
8.6630001 -5.165 2.421 0
8.9589996 -5.3779998 2.6930001 4
9.448 -5.7129998 3.046 30
8.9689999 -5.4689999 3.0910001 12
9.4139996 -5.7940001 3.4590001 32
8.8339996 -5.4920001 3.4530001 12
14.528 -8.6049995 4.0949998 19
9.3400002 -5.5689998 2.8299999 3
9.1169996 -5.4770002 2.96 21
9.4580002 -5.7290001 3.2809999 30
0 0 0 0
8.7399998 -5.3959999 3.4360001 17
8.8719997 -5.2179999 2.5209999 0
8.8990002 -5.2680001 2.717 20
9.1870003 -5.48 3.003 40
9.5889997 -5.7659998 3.3469999 23
8.4420004 -5.1230001 3.138 10
9.2390003 -5.6630001 3.651 23
8.8199997 -5.1490002 2.526 9
9.2309999 -5.4250002 2.8380001 10
9.2159996 -5.4559999 3.0320001 33
9.8170004 -5.8590002 3.447 5
8.566 -5.1589999 3.201 46
0 0 0 0
8.8500004 -5.1259999 2.553 11
10.12 -5.901 3.132 2
9.3640003 -5.5 3.099 14
8.276 -4.9000001 2.921 2
8.8649998 -5.296 3.3299999 34
8.1499996 -4.9169998 3.25 33
8.8459997 -5.0819998 2.569 49
0 0 0 0
9.1289997 -5.3169999 3.0380001 5
8.2840004 -4.8639998 2.9389999 9
8.4589996 -5.0110002 3.1919999 30
8.4790001 -5.072 3.395 27
8.8809996 -5.059 2.595 0
8.8120003 -5.052 2.7590001 43
9.3649998 -5.4070001 3.132 0
9.6190004 -5.599 3.428 46
8.1160002 -4.7659998 3.0739999 33
8.3389997 -4.9450002 3.3510001 15
13.857 -7.8239999 4.072 45
8.8319998 -5.0180001 2.779 17
8.7749996 -5.0219998 2.948 7
8.868 -5.1149998 3.1730001 40
8.0579996 -4.6890001 3.0639999 31
8.1520004 -4.789 3.286 37
13.649 -7.6339998 4.033 45
8.4379997 -4.7490001 2.668 11
8.7670002 -4.9689999 2.9579999 40
8.5109997 -4.862 3.0569999 25
8.2080002 -4.7309999 3.131 37
8.1859999 -4.7639999 3.3099999 27
8.4469995 -4.6789999 2.5079999 1
8.4200001 -4.6939998 2.674 8
0 0 0 0
8.8100004 -4.9840002 3.175 12
8.2840004 -4.7270002 3.1689999 25
8.2799997 -4.77 3.3559999 35
8.4750004 -4.6479998 2.527 16
8.4320002 -4.6539998 2.688 5
8.8959999 -4.9439998 3.023 34
8.802 -4.9289999 3.181 20
0 0 0 0
8.1009998 -4.618 3.29 31
8.5209999 -4.625 2.5510001 22
8.3280001 -4.5479999 2.6630001 39
8.9259996 -4.908 3.0420001 36
8.7309999 -4.8379998 3.1630001 25
8.0810003 -4.5159998 3.105 30
8.2939997 -4.678 3.375 29
8.3030005 -4.4580002 2.494 4
8.2790003 -4.4720001 2.6559999 12
9.2939997 -5.0549998 3.1760001 5
8.5349998 -4.678 3.099 34
8.1739998 -4.5180001 3.1470001 16
8.4320002 -4.7030001 3.4360001 33
9.0489998 -4.8049998 2.727 20
8.3310003 -4.4499998 2.6800001 7
9.4370003 -5.0760002 3.2309999 17
8.5970001 -4.6589999 3.1270001 35
8.6149998 -4.7069998 3.3210001 44
0 0 0 0
8.6190004 -4.5240002 2.6040001 33
9.0500002 -4.7779999 2.9170001 31
9.1639996 -4.8720002 3.1440001 30
8.618 -4.6149998 3.1389999 35
8.0900002 -4.368 3.1229999 39
8.632 -4.7030001 3.523 34
8.7740002 -4.5500002 2.6570001 41
9.3739996 -4.8899999 3.027 36
8.6569996 -4.546 2.974 40
8.3809996 -4.434 3.056 41
8.1289997 -4.336 3.1389999 27
8.552 -4.6020002 3.4920001 37
8.6759996 -4.4450002 2.632 27
8.5880003 -4.4260001 2.777 9
9.2869997 -4.8179998 3.1930001 16
8.3430004 -4.3600001 3.043 40
8.1499996 -4.2930002 3.148 35
8.3559999 -4.441 3.4119999 35
8.5719995 -4.3369999 2.6040001 37
0 0 0 0
10.031 -5.138 3.4519999 27
8.5080004 -4.3889999 3.105 45
8.0889997 -4.2059999 3.125 42
8.2250004 -4.3140001 3.358 31
8.4040003 -4.197 2.5550001 37
8.4720001 -4.2550001 2.744 32
9.6610003 -4.8839998 3.325 9
8.4940004 -4.3249998 3.0999999 37
8.3509998 -4.2849998 3.2249999 39
8.2360001 -4.263 3.3599999 21
8.3660002 -4.1230001 2.5450001 38
9.7910004 -4.8530002 3.1719999 19
0 0 0 0
8.5830002 -4.3109999 3.131 25
8.5209999 -4.3140001 3.2880001 40
8.342 -4.2589998 3.4000001 41
9.0159998 -4.3829999 2.743 30
9.1289997 -4.4629998 2.957 12
8.5480003 -4.204 2.9400001 41
8.9890003 -4.4530001 3.277 20
0 0 0 0
8.3699999 -4.2129998 3.4070001 35
8.474 -4.0609999 2.5780001 36
8.79 -4.237 2.845 18
8.6190004 -4.1799998 2.9619999 39
8.8549995 -4.3239999 3.224 34
9.04 -4.448 3.48 38
0 0 0 0
8.4560003 -3.9949999 2.5710001 42
8.7279997 -4.1459999 2.822 24
8.8629999 -4.2360001 3.0420001 28
8.8549995 -4.2610002 3.2190001 38
8.6280003 -4.1830001 3.316 41
8.4759998 -4.1440001 3.438 40
8.5749998 -3.993 2.6040001 28
9.4870005 -4.441 3.0639999 31
8.8950005 -4.1890001 3.049 3
8.8389997 -4.191 3.2079999 38
8.4049997 -4.0139999 3.224 43
8.5880003 -4.1350002 3.4760001 47
9.5229998 -4.368 2.888 42
9.434 -4.3499999 3.0420001 37
9.4469995 -4.381 3.2309999 4
8.4619999 -3.95 3.0639999 40
8.408 -3.9549999 3.2179999 39
8.6190004 -4.086 3.4790001 41
9.6630001 -4.3639998 2.925 9
0 0 0 0
9.3809996 -4.283 3.2019999 31
8.5129995 -3.9119999 3.076 36
8.5310001 -3.9489999 3.256 29
8.3129997 -3.8789999 3.346 34
9.5790005 -4.2579999 2.8929999 16
9.3050003 -4.1570001 2.987 38
8.9469995 -4.0209999 3.046 39
8.9090004 -4.0289998 3.21 30
8.6009998 -3.918 3.273 34
8.3669996 -3.8410001 3.358 28
9.8629999 -4.3130002 2.971 32
9.599 -4.2199998 3.073 51
9.0500002 -4.0009999 3.072 35
8.7600002 -3.8970001 3.1470001 15
8.8990002 -3.987 3.375 37
8.8190002 -3.9809999 3.527 33
9.2270002 -3.9679999 2.7709999 30
9.1969995 -3.9760001 2.9349999 42
9.3500004 -4.0640001 3.1630001 47
9.1540003 -4.0050001 3.276 31
8.4650002 -3.7290001 3.1989999 37
8.507 -3.776 3.3900001 35
9.1929998 -3.888 2.7520001 37
9.04 -3.842 2.875 56
9.5649996 -4.0879998 3.224 37
9.4860001 -4.079 3.382 44
8.5450001 -3.6989999 3.217 36
8.6879997 -3.789 3.448 39
9.2639999 -3.8510001 2.763 31
8.8640003 -3.7019999 2.8080001 47
0 0 0 0
9.6960001 -4.0970001 3.444 28
8.6479998 -3.6789999 3.2420001 39
0 0 0 0
9.3009996 -3.799 2.763 38
8.9429998 -3.6700001 2.8210001 50
8.8509998 -3.651 2.9590001 41
8.9709997 -3.723 3.1719999 15
8.6969995 -3.6329999 3.2460001 31
8.4759998 -3.5669999 3.3340001 32
9.2639999 -3.7160001 2.7390001 32
8.9160004 -3.5929999 2.8 46
8.8879995 -3.6010001 2.9579999 42
0 0 0 0
0 0 0 0
8.4549999 -3.493 3.309 32
9.1499996 -3.6040001 2.6919999 47
9.1210003 -3.609 2.8499999 49
8.9230003 -3.549 2.9549999 48
9.9849997 -3.994 3.4960001 33
9.5970001 -3.8629999 3.5469999 40
8.8959999 -3.6070001 3.464 32
9.1809998 -3.549 2.687 43
8.9720001 -3.483 2.789 47
8.9040003 -3.474 2.9319999 27
10.025 -3.9349999 3.4909999 34
9.3959999 -3.711 3.4530001 40
9.1730003 -3.648 3.552 24
9.2449999 -3.5050001 2.691 45
9.2220001 -3.5120001 2.8499999 51
9.0979996 -3.483 2.98 20
9.0459995 -3.483 3.1329999 39
9.1920004 -3.5610001 3.359 40
9.3789997 -3.658 3.6110001 31
10.047 -3.7360001 2.9070001 42
0 0 0 0
9.2799997 -3.4820001 3.0209999 42
9.1199999 -3.4419999 3.1389999 43
9.3599997 -3.5539999 3.4000001 13
9.7049999 -3.71 3.714 39
10.229 -3.7279999 2.9400001 33
10.237 -3.747 3.125 43
9.9110003 -3.645 3.2060001 30
9.2869997 -3.434 3.1760001 44
9.4130001 -3.5020001 3.3970001 43
9.5010004 -3.5580001 3.612 46
10.146 -3.6229999 2.8959999 41
10.104 -3.6229999 3.0639999 55
9.8389997 -3.5450001 3.161 55
9.4989996 -3.441 3.227 46
9.5539999 -3.4820001 3.425 31
9.4289999 -3.4590001 3.5610001 33
10.283 -3.5969999 2.914 37
9.9209995 -3.4849999 2.987 51
9.7449999 -3.4389999 3.109 52
9.7860003 -3.4719999 3.3010001 45
9.29 -3.3150001 3.3069999 40
9.507 -3.414 3.566 41
10.926 -3.7420001 3.073 38
9.9960003 -3.437 2.9860001 44
9.9700003 -3.4449999 3.158 45
9.6890001 -3.365 3.244 46
9.3900003 -3.28 3.3180001 33
9.2360001 -3.247 3.4389999 28
10.932 -3.665 3.05 19
10.535 -3.546 3.1229999 29
10.145 -3.4289999 3.188 41
9.9090004 -3.3670001 3.293 32
9.323 -3.1860001 3.27 45
9.2110004 -3.168 3.404 43
11.393 -3.7360001 3.152 28
10.622 -3.497 3.122 46
10.144 -3.3540001 3.161 49
10.025 -3.3310001 3.3039999 37
9.5500002 -3.1919999 3.323 39
9.3900003 -3.1570001 3.4430001 45
11.362 -3.6429999 3.1159999 28
10.591 -3.4089999 3.086 52
10.166 -3.2869999 3.141 41
9.9860001 -3.244 3.2639999 45
0 0 0 0
9.5839996 -3.1489999 3.4849999 41
10.654 -3.339 2.8940001 46
10.749 -3.382 3.1040001 38
0 0 0 0
10.434 -3.3139999 3.381 35
9.8929996 -3.158 3.385 31
0 0 0 0
10.782 -3.303 2.9000001 50
10.715 -3.2939999 3.0650001 54
10.852 -3.3499999 3.293 42
0 0 0 0
9.875 -3.079 3.348 46
10.172 -3.1900001 3.635 32
0 0 0 0
12.041 -3.6140001 3.411 53
10.889 -3.283 3.2720001 30
12.189 -3.6919999 3.8770001 38
10.77 -3.2780001 3.618 41
10.149 -3.1070001 3.5940001 32
12.268 -3.5810001 3.2320001 44
12.28 -3.598 3.4430001 48
12.171 -3.5810001 3.6210001 37
12.057 -3.563 3.7969999 32
12.122 -3.5999999 4.033 44
0 0 0 0
12.383 -3.5280001 3.227 8
12.412 -3.5480001 3.4419999 58
12.849 -3.687 3.7820001 42
12.255 -3.533 3.8199999 38
11.967 -3.467 3.9419999 45
10.788 -3.142 3.747 45
12.693 -3.526 3.2690001 37
12.394 -3.4549999 3.3989999 46
12.967 -3.628 3.776 25
12.271 -3.4489999 3.7850001 46
12.049 -3.4030001 3.928 40
11.793 -3.3499999 4.0549998 40
15.183 -4.112 3.8640001 18
0 0 0 0
13.165 -3.5910001 3.7909999 46
12.548 -3.437 3.8280001 33
12.323 -3.392 3.9749999 37
12.018 -3.326 4.0890002 37
15.225 -4.0170002 3.826 7
13.063 -3.4579999 3.4979999 43
13.151 -3.494 3.7420001 37
12.513 -3.3380001 3.7739999 17
12.281 -3.2920001 3.9170001 42
12.186 -3.283 4.1020002 42
15.802 -4.0599999 3.9189999 0
12.985 -3.3469999 3.4330001 37
13.105 -3.3900001 3.684 44
13.227 -3.4349999 3.9430001 22
12.378 -3.23 3.9030001 43
12.222 -3.2060001 4.0679998 39
16.403999 -4.1009998 4.013 23
12.984 -3.256 3.3889999 58
12.814 -3.2249999 3.5569999 28
13.149 -3.323 3.8710001 36
12.646 -3.211 3.9400001 31
12.529 -3.197 4.1220002 41
16.146999 -3.927 3.895 5
13.056 -3.1849999 3.362 11
12.931 -3.1659999 3.543 33
13.276 -3.2639999 3.8599999 31
12.857 -3.175 3.9579999 44
12.522 -3.1070001 4.0700002 39
16.021999 -3.79 3.8080001 20
13.02 -3.0880001 3.3050001 5
12.982 -3.0899999 3.5090001 40
13.294 -3.177 3.8150001 25
13.099 -3.1440001 3.9809999 34
12.597 -3.0380001 4.046 34
0 0 0 0
13.098 -3.02 3.2780001 51
13.084 -3.026 3.4879999 33
13.095 -3.04 3.7079999 34
13.015 -3.0350001 3.905 25
12.686 -2.9719999 4.0229998 44
13.726 -3.0639999 3.1630001 16
13.671 -3.0599999 3.369 9
13.081 -2.938 3.437 33
12.82 -2.8900001 3.5799999 43
13.175 -2.9820001 3.9000001 31
13.005 -2.957 4.0700002 40
13.758 -2.9809999 3.118 13
13.607 -2.9560001 3.3010001 55
13.54 -2.95 3.503 38
13.105 -2.8659999 3.6059999 44
13.351 -2.9319999 3.8959999 27
13.049 -2.8789999 4.0289998 33
14.858 -3.1229999 3.3110001 13
13.716 -2.891 3.2739999 36
13.458 -2.8440001 3.4289999 47
13.185 -2.7969999 3.575 35
13.113 -2.7920001 3.7720001 24
13.273 -2.839 4.0419998 20
14.78 -3.0109999 3.2349999 7
13.781 -2.8150001 3.234 35
13.473 -2.7609999 3.378 52
13.241 -2.723 3.5350001 36
12.97 -2.677 3.677 32
13.201 -2.7360001 3.9630001 32
14.645 -2.892 3.148 39
14.655 -2.9000001 3.381 25
13.622 -2.704 3.359 33
13.182 -2.625 3.464 48
13.107 -2.619 3.6589999 44
13.288 -2.6670001 3.9300001 32
14.71 -2.8110001 3.1010001 49
14.631 -2.803 3.3139999 39
15.872 -3.049 3.8469999 6
13.163 -2.5369999 3.402 51
13.126 -2.539 3.6070001 38
13.199 -2.5639999 3.846 23
14.974 -2.7690001 3.095 61
14.679 -2.721 3.263 42
14.589 -2.711 3.474 18
13.242 -2.4690001 3.365 33
13.28 -2.4849999 3.5910001 41
13.055 -2.4530001 3.7449999 42
15.058 -2.6930001 3.05 60
14.69 -2.632 3.2030001 41
14.617 -2.6259999 3.4170001 14
13.423 -2.4189999 3.352 34
13.209 -2.3889999 3.5120001 43
13.189 -2.3940001 3.7219999 42
15.249 -2.6329999 3.0220001 46
14.798 -2.5610001 3.1619999 50
14.876 -2.5810001 3.411 29
15.591 -2.7130001 3.822 39
13.7 -2.392 3.579 39
13.225 -2.3180001 3.6700001 46
15.155 -2.526 2.937 51
14.909 -2.4890001 3.119 40
15.65 -2.6199999 3.5179999 43
15.141 -2.5420001 3.642 39
14.505 -2.4430001 3.721 49
13.658 -2.309 3.7249999 48
15.029 -2.415 2.845 57
15.444 -2.487 3.161 42
14.911 -2.4070001 3.283 39
15.227 -2.464 3.5910001 38
14.75 -2.3940001 3.714 36
14.203 -2.3139999 3.8050001 42
15.078 -2.335 2.786 60
15.268 -2.368 3.0539999 57
15.322 -2.382 3.302 48
14.932 -2.3269999 3.451 47
15.132 -2.365 3.737 37
14.276 -2.24 3.7550001 36
15.213 -2.2679999 2.74 48
15.224 -2.2739999 2.974 45
15.369 -2.3 3.2390001 44
15.128 -2.27 3.425 40
15.288 -2.3 3.7019999 38
14.371 -2.1700001 3.71 48
0 0 0 0
15.293 -2.197 2.9159999 44
15.209 -2.1889999 3.1340001 34
15.185 -2.1919999 3.365 41
15.051 -2.178 3.572 45
15.075 -2.1889999 3.8169999 38
0 0 0 0
15.899 -2.1949999 2.9549999 37
15.44 -2.135 3.1059999 45
15.456 -2.142 3.348 42
15.181 -2.1099999 3.527 46
15.003 -2.092 3.723 36
0 0 0 0
16.618 -2.201 3.007 18
15.467 -2.053 3.0350001 46
16.474001 -2.191 3.487 20
15.717 -2.096 3.5710001 40
15.646 -2.092 3.802 33
0 0 0 0
0 0 0 0
16.419001 -2.089 3.1389999 59
16.490999 -2.102 3.4070001 36
15.615 -1.9960001 3.4679999 8
15.992 -2.05 3.803 45
0 0 0 0
0 0 0 0
0 0 0 0
0 0 0 0
0 0 0 0
16.264 -1.9960001 3.7820001 5
0 0 0 0
0 0 0 0
0 0 0 0
0 0 0 0
0 0 0 0
0 0 0 0
0 0 0 0
0 0 0 0
0 0 0 0
0 0 0 0
0 0 0 0
0 0 0 0
0 0 0 0
0 0 0 0
0 0 0 0
0 0 0 0
0 0 0 0
0 0 0 0
0 0 0 0
0 0 0 0
0 0 0 0
0 0 0 0
0 0 0 0
0 0 0 0
0 0 0 0
0 0 0 0
0 0 0 0
0 0 0 0
0 0 0 0
0 0 0 0
0 0 0 0
0 0 0 0
0 0 0 0
0 0 0 0
0 0 0 0
0 0 0 0
83.124001 -7.1950002 9.9329996 9
0 0 0 0
0 0 0 0
0 0 0 0
0 0 0 0
0 0 0 0
81.422997 -6.6729999 9.2840004 6
0 0 0 0
0 0 0 0
0 0 0 0
0 0 0 0
0 0 0 0
81.362999 -6.3010001 8.8269997 38
0 0 0 0
0 0 0 0
0 0 0 0
0 0 0 0
0 0 0 0
81.831001 -5.9749999 8.4209995 39
0 0 0 0
0 0 0 0
0 0 0 0
0 0 0 0
0 0 0 0
82.410004 -5.6589999 8.0109997 24
83.735001 -5.744 9.3620005 22
0 0 0 0
0 0 0 0
0 0 0 0
0 0 0 0
82.25 -5.3010001 7.526 38
82.553001 -5.3140001 8.7559996 13
0 0 0 0
0 0 0 0
0 0 0 0
0 0 0 0
82.763 -4.9910002 7.0929999 35
82.767998 -4.9829998 8.2969999 44
94.683998 -5.6960001 10.881 9
0 0 0 0
0 0 0 0
0 0 0 0
85.352997 -4.8049998 6.8210001 33
82.402 -4.6290002 7.7779999 46
93.545998 -5.2490001 10.201 32
0 0 0 0
0 0 0 0
0 0 0 0
83.745003 -4.3839998 6.197 33
82.799004 -4.3270001 7.3309999 52
82.782997 -4.3189998 8.5410004 16
0 0 0 0
0 0 0 0
0 0 0 0
84.327003 -4.0949998 5.7420001 15
83.672997 -4.052 6.9099998 42
82.557999 -3.99 8.0249996 17
94.558998 -4.559 10.578 31
0 0 0 0
0 0 0 0
105.339 -4.7220001 6.5430002 14
83.806 -3.7460001 6.4219999 46
93.379997 -4.1609998 8.5109997 22
93.392998 -4.1490002 9.8800001 39
97.487 -4.3189998 11.748 23
0 0 0 0
137.912 -5.6799998 7.7280002 14
92.635002 -3.799 6.527 18
84.258003 -3.4449999 7.165 46
93.582001 -3.813 9.3260002 44
97.224998 -3.948 11.118 23
0 0 0 0
99.232002 -3.7390001 4.9559999 7
0 0 0 0
84.319 -3.1500001 6.658 35
94.598 -3.5190001 8.8509998 28
93.740997 -3.4749999 10.15 30
98.181 -3.625 12.077 10
99.713997 -3.4200001 4.3709998 7
104.116 -3.5510001 6.0679998 11
91.508003 -3.105 6.6620002 37
84.473 -2.8529999 7.3850002 11
94.375 -3.1719999 9.6330004 36
96.328003 -3.221 11.249 21
104.081 -3.224 3.918 48
93.315002 -2.8740001 4.8639998 8
92.039001 -2.8150001 6.1290002 34
90.898003 -2.7650001 7.381 37
94.519997 -2.858 9.0579996 11
95.690002 -2.8770001 10.575 24
104.225 -2.8929999 3.2679999 116
94.459999 -2.6040001 4.3299999 9
90.853996 -2.4860001 5.4819999 15
91.799004 -2.493 6.875 33
91.797997 -2.477 8.2200003 17
94.897003 -2.5380001 9.8809996 17
62.466 -1.541 1.5650001 17
104.209 -2.5469999 4.1160002 134
0 0 0 0
91.460999 -2.197 6.2719998 35
90.987 -2.168 7.5710001 47
97.648003 -2.306 9.5559998 17
42.709999 -0.92699999 0.80299997 40
0 0 0 0
128.463 -2.7290001 6.132 17
100.392 -2.108 6.2470002 10
91.163002 -1.893 7.0019999 34
0 0 0 0
42.355999 -0.796 0.52399999 53
62.395 -1.159 1.675 26
128.151 -2.3499999 5.2979999 54
127.922 -2.3150001 7.1479998 21
90.734001 -1.6210001 6.395 15
91.318001 -1.609 7.77 30
42.191002 -0.67699999 0.252 58
43.216999 -0.68300003 0.884 1
128.116 -1.993 4.4790001 50
0 0 0 0
131.05901 -1.971 8.3929996 17
90.679001 -1.34 7.1300001 41
42.249001 -0.56599998 -0.018999999 58
42.791 -0.56099999 0.597 60
62.591999 -0.80500001 1.783 20
128.944 -1.623 5.546 12
128.524 -1.5829999 7.3979998 22
91.897003 -1.1059999 6.6290002 11
40.387001 -0.43700001 -0.28299999 1
42.589001 -0.449 0.31799999 64
51.567001 -0.52999997 1.133 63
0 0 0 0
127.538 -1.238 6.5100002 21
94.470001 -0.88999999 6.2030001 11
37.763 -0.31600001 -0.51099998 45
42.640999 -0.345 0.041000001 64
50.898998 -0.398 0.787 54
51.827 -0.389 1.554 31
127.829 -0.921 5.6880002 16
95.040001 -0.65700001 5.6170001 16
37.558998 -0.227 -0.75599998 62
43.117001 -0.248 -0.242 50
50.738998 -0.27599999 0.45100001 52
50.908001 -0.26100001 1.192 64
52.536999 -0.25400001 1.9960001 2
127.824 -0.57700002 6.717 37
37.675999 -0.14300001 -1.008 50
37.553001 -0.131 -0.461 31
50.779999 -0.162 0.115 47
50.452999 -0.14399999 0.847 60
51.273998 -0.131 1.609 70
128.931 -0.28600001 5.921 12
37.437 -0.063000001 -1.252 16
37.473999 -0.050999999 -0.70700002 67
44.050999 -0.046 -0.191 9
50.330002 -0.037 0.514 59
50.540001 -0.018999999 1.252 60
52.105999 -0.001 2.046 28
30.903999 0.0089999996 -1.2410001 4
37.612 0.024 -0.96200001 51
37.633999 0.035999998 -0.41499999 20
50.360001 0.066 0.178 62
50.203999 0.082999997 0.90799999 67
50.825001 0.102 1.661 54
28.002001 0.061000001 -1.3099999 7
37.460999 0.093999997 -1.2079999 34
37.438999 0.107 -0.66000003 72
43.888 0.141 -0.13500001 3
50.055 0.18000001 0.574 61
50.374001 0.2 1.3099999 47
25.34 0.101 -1.358 8
31.523001 0.13600001 -1.229 4
37.507 0.176 -0.917 58
37.741001 0.191 -0.37200001 5
50.002998 0.27200001 0.234 61
50.015999 0.29100001 0.96399999 56
23.096001 0.131 -1.396 12
28.181 0.17 -1.2920001 6
37.518002 0.23999999 -1.1720001 43
37.498001 0.255 -0.62400001 50
41.807999 0.30000001 -0.086000003 3
49.872002 0.37799999 0.62199998 58
21.143999 0.153 -1.423 16
25.412001 0.193 -1.339 10
32.553001 0.25999999 -1.239 4
37.700001 0.31600001 -0.884 51
37.901001 0.333 -0.336 1
41.716 0.384 0.237 32
19.646999 0.171 -1.459 14
23.146 0.211 -1.381 15
28.650999 0.27200001 -1.289 7
37.484001 0.37099999 -1.137 37
37.404999 0.38600001 -0.588 50
41.431999 0.44499999 -0.046 47
18.360001 0.184 -1.4910001 12
21.195999 0.221 -1.41 16
25.826 0.28099999 -1.34 10
0 0 0 0
37.453999 0.43900001 -0.84600002 50
41.113998 0.5 -0.329 53
17.285 0.19499999 -1.525 11
19.716999 0.23100001 -1.448 14
23.5 0.285 -1.381 12
28.834999 0.36199999 -1.272 6
37.483002 0.48800001 -1.105 37
37.382 0.50300002 -0.55699998 49
16.318001 0.20299999 -1.5549999 9
18.379 0.236 -1.479 12
21.441999 0.285 -1.41 16
26.128 0.35800001 -1.332 8
0 0 0 0
37.369999 0.54699999 -0.81199998 65
15.401 0.207 -1.576 8
17.295 0.23999999 -1.513 11
19.941 0.285 -1.45 14
23.757 0.35100001 -1.377 11
29.353001 0.447 -1.271 6
37.477001 0.58899999 -1.073 42
14.64 0.20999999 -1.601 5
16.358999 0.242 -1.545 9
18.568001 0.28299999 -1.48 12
21.608 0.33899999 -1.402 16
26.450001 0.428 -1.327 10
33.813 0.56400001 -1.202 1
13.897 0.20999999 -1.618 9
15.48 0.241 -1.572 8
17.478001 0.28 -1.515 11
20.107 0.33199999 -1.4450001 14
23.996 0.40799999 -1.37 10
29.771999 0.52100003 -1.263 6
13.231 0.20900001 -1.636 9
14.664 0.23899999 -1.5930001 8
16.48 0.27599999 -1.545 10
18.701 0.322 -1.476 13
21.733 0.38600001 -1.3940001 17
26.559 0.48500001 -1.3150001 8
12.599 0.206 -1.649 9
13.906 0.234 -1.6109999 10
15.584 0.27000001 -1.573 8
17.569 0.31299999 -1.511 11
20.094999 0.36899999 -1.431 80
24.214001 0.45699999 -1.3660001 11
12.043 0.20200001 -1.6619999 9
13.249 0.229 -1.628 9
14.779 0.26300001 -1.595 8
16.566999 0.303 -1.541 10
18.996 0.35800001 -1.484 96
21.936001 0.42500001 -1.391 17
11.508 0.197 -1.671 9
12.629 0.223 -1.643 10
14.01 0.25400001 -1.612 9
15.671 0.29300001 -1.568 9
17.733999 0.34099999 -1.511 93
20.183001 0.39899999 -1.4220001 72
10.977 0.19 -1.674 17
12.061 0.21600001 -1.656 9
13.338 0.24600001 -1.63 10
14.84 0.28099999 -1.591 8
16.778999 0.32699999 -1.5470001 80
18.952999 0.38 -1.4680001 91
10.594 0.185 -1.692 15
11.527 0.208 -1.666 10
12.704 0.236 -1.643 10
14.083 0.26899999 -1.609 9
15.816 0.31099999 -1.571 45
17.757 0.359 -1.499 88
10.235 0.17900001 -1.709 22
11.006 0.198 -1.669 18
12.135 0.22499999 -1.656 10
13.407 0.257 -1.627 10
14.996 0.296 -1.594 15
16.785 0.34099999 -1.534 91
9.7869997 0.17 -1.705 19
10.635 0.19 -1.689 15
11.613 0.215 -1.6670001 10
12.775 0.243 -1.6390001 10
14.18 0.27900001 -1.6059999 9
15.892 0.322 -1.562 97
9.5050001 0.163 -1.724 14
10.262 0.182 -1.702 24
11.076 0.20200001 -1.668 15
12.213 0.23 -1.653 9
13.499 0.26300001 -1.623 10
15.172 0.30500001 -1.597 36
9.1400003 0.153 -1.724 22
9.8120003 0.17 -1.699 17
10.731 0.193 -1.693 17
11.681 0.21699999 -1.664 10
12.865 0.24699999 -1.638 10
14.268 0.28299999 -1.602 10
8.8690004 0.145 -1.739 12
9.5609999 0.162 -1.725 16
10.313 0.18099999 -1.701 26
11.154 0.20299999 -1.668 13
12.286 0.23100001 -1.651 10
13.573 0.264 -1.619 10
8.5469999 0.13500001 -1.738 20
9.1520004 0.15000001 -1.7180001 23
9.8629999 0.168 -1.698 14
10.797 0.191 -1.692 20
11.752 0.215 -1.663 9
12.93 0.245 -1.633 10
8.3299999 0.125 -1.756 16
8.9110003 0.14 -1.738 14
9.6269999 0.15800001 -1.727 22
10.351 0.176 -1.697 24
11.241 0.199 -1.67 11
12.341 0.226 -1.647 10
8.0319996 0.115 -1.752 9
8.5609999 0.12800001 -1.732 20
9.1879997 0.14300001 -1.715 20
9.9420004 0.162 -1.7 13
10.85 0.184 -1.689 20
11.805 0.208 -1.6569999 9
7.796 0.104 -1.758 9
8.3389997 0.117 -1.748 17
8.9680004 0.132 -1.739 19
9.6409998 0.149 -1.719 22
10.379 0.167 -1.6900001 19
11.326 0.19 -1.671 10
7.5749998 0.093999997 -1.765 9
8.0570002 0.105 -1.748 10
8.6129999 0.118 -1.732 18
9.2519999 0.134 -1.716 14
10.028 0.152 -1.704 12
10.886 0.17299999 -1.682 15
7.3769999 0.082999997 -1.774 9
7.8200002 0.093000002 -1.7539999 10
8.3839998 0.106 -1.747 12
8.9779997 0.12 -1.729 11
9.6730003 0.13600001 -1.712 11
10.455 0.155 -1.6900001 11
7.1760001 0.071999997 -1.779 9
7.6040001 0.082000002 -1.762 10
8.1090002 0.093000002 -1.749 9
8.6809998 0.106 -1.735 11
9.335 0.121 -1.719 10
10.078 0.138 -1.7 10
6.993 0.059999999 -1.786 9
7.3959999 0.068999998 -1.768 9
7.8709998 0.079999998 -1.755 9
8.4090004 0.092 -1.7410001 9
9.0319996 0.105 -1.728 10
9.7159996 0.12 -1.7079999 10
6.7789998 0.048 -1.7819999 9
7.2069998 0.057 -1.776 9
7.6430001 0.067000002 -1.76 9
8.1529999 0.077 -1.7460001 10
8.7480001 0.090000004 -1.7359999 10
9.3970003 0.103 -1.7180001 10
6.6100001 0.037 -1.7869999 10
7.013 0.045000002 -1.78 9
7.4450002 0.052999999 -1.768 9
7.9299998 0.063000001 -1.756 10
8.467 0.074000001 -1.74 10
9.0909996 0.086000003 -1.726 10
6.441 0.025 -1.789 10
6.8390002 0.032000002 -1.786 8
7.237 0.039999999 -1.771 9
7.7030001 0.048999999 -1.761 10
8.2200003 0.059 -1.748 9
8.8100004 0.07 -1.734 9
6.2870002 0.013 -1.794 10
6.6360002 0.02 -1.7819999 10
7.0580001 0.027000001 -1.779 9
7.5 0.035 -1.768 10
7.9899998 0.043000001 -1.755 10
8.5229998 0.052999999 -1.737 10
6.1230001 0.001 -1.7920001 9
6.4689999 0.0070000002 -1.785 10
6.8540001 0.013 -1.777 10
7.2930002 0.02 -1.772 11
7.7639999 0.028000001 -1.76 10
8.2700005 0.037 -1.743 10
5.9860001 -0.0099999998 -1.7970001 9
6.3109999 -0.0049999999 -1.788 10
6.6999998 0 -1.786 10
7.1199999 0.0060000001 -1.78 9
7.559 0.013 -1.767 10
8.0430002 0.02 -1.752 10
5.8540001 -0.022 -1.802 10
6.1719999 -0.017999999 -1.793 10
6.5279999 -0.013 -1.7869999 10
6.908 -0.0070000002 -1.777 11
7.368 -0.001 -1.774 10
7.816 0.0040000002 -1.757 10
5.7220001 -0.034000002 -1.804 10
6.0190001 -0.029999999 -1.793 10
6.3759999 -0.026000001 -1.7920001 10
6.7280002 -0.022 -1.778 10
7.1589999 -0.017000001 -1.774 10
7.6199999 -0.011 -1.766 10
5.5879998 -0.046999998 -1.804 10
5.8930001 -0.043000001 -1.8 10
6.2179999 -0.039999999 -1.793 10
6.5739999 -0.035999998 -1.785 11
6.967 -0.032000002 -1.777 10
7.415 -0.028000001 -1.77 9
5.4710002 -0.059 -1.807 10
5.7550001 -0.056000002 -1.8 10
6.0809999 -0.054000001 -1.798 10
6.4260001 -0.050999999 -1.791 11
6.7909999 -0.046999998 -1.779 10
7.1989999 -0.043000001 -1.7690001 10
5.3639998 -0.071999997 -1.812 10
5.6409998 -0.07 -1.806 9
5.947 -0.067000002 -1.801 10
6.2680001 -0.064999998 -1.791 11
6.632 -0.061999999 -1.784 11
7.0139999 -0.059 -1.771 11
5.2509999 -0.083999999 -1.813 9
5.5120001 -0.082000002 -1.8049999 10
5.8140001 -0.081 -1.802 10
6.1339998 -0.079000004 -1.7970001 10
6.4819999 -0.078000002 -1.79 11
6.848 -0.075000003 -1.777 10
5.1399999 -0.096000001 -1.813 10
5.401 -0.096000001 -1.808 12
5.6939998 -0.094999999 -1.806 11
5.9899998 -0.093000002 -1.796 10
6.323 -0.092 -1.789 10
6.6869998 -0.090999998 -1.78 11
5.0349998 -0.109 -1.813 9
5.29 -0.109 -1.8099999 9
5.5650001 -0.108 -1.8049999 9
5.8610001 -0.108 -1.8 11
6.1810002 -0.107 -1.7920001 10
6.5300002 -0.107 -1.784 10
4.9419999 -0.122 -1.817 9
5.1880002 -0.122 -1.813 10
5.461 -0.122 -1.811 10
5.7470002 -0.122 -1.8049999 11
6.0479999 -0.122 -1.796 10
6.3850002 -0.123 -1.788 10
4.8400002 -0.134 -1.816 9
5.086 -0.13500001 -1.8150001 11
5.348 -0.13600001 -1.812 10
5.6209998 -0.13699999 -1.806 10
5.9229999 -0.138 -1.8 10
6.23 -0.138 -1.7869999 10
4.7509999 -0.147 -1.818 10
4.9879999 -0.148 -1.816 10
5.2449999 -0.15000001 -1.8150001 11
5.5019999 -0.15099999 -1.8049999 11
5.7750001 -0.152 -1.794 11
6.099 -0.154 -1.79 11
4.6690001 -0.16 -1.821 9
4.8920002 -0.161 -1.817 10
5.1389999 -0.163 -1.8150001 11
5.3860002 -0.16500001 -1.8049999 11
5.6760001 -0.167 -1.802 10
5.9759998 -0.169 -1.794 11
4.5900002 -0.17299999 -1.824 9
4.8010001 -0.17399999 -1.818 11
5.0450001 -0.177 -1.817 11
5.289 -0.17900001 -1.809 12
5.5570002 -0.18099999 -1.802 11
5.835 -0.184 -1.791 11
4.5159998 -0.186 -1.829 10
4.7220001 -0.18799999 -1.822 10
4.954 -0.191 -1.819 11
5.198 -0.19400001 -1.814 11
5.4530001 -0.197 -1.8049999 11
5.7379999 -0.2 -1.799 12
4.4359999 -0.198 -1.829 9
4.6420002 -0.20100001 -1.824 10
4.8579998 -0.204 -1.818 11
5.0949998 -0.208 -1.813 11
5.355 -0.211 -1.809 11
5.618 -0.215 -1.799 11
4.3649998 -0.211 -1.832 9
4.5599999 -0.214 -1.825 11
4.77 -0.21699999 -1.819 10
5.0110002 -0.222 -1.818 11
5.2550001 -0.226 -1.811 11
5.5079999 -0.23 -1.8 11
4.2849998 -0.22400001 -1.83 9
4.4920001 -0.228 -1.83 10
4.6929998 -0.23199999 -1.822 10
4.9120002 -0.236 -1.816 10
5.158 -0.241 -1.812 10
5.3920002 -0.245 -1.798 10
4.2140002 -0.237 -1.831 9
4.4060001 -0.241 -1.826 9
4.619 -0.245 -1.826 10
4.8280001 -0.25 -1.817 10
5.0650001 -0.255 -1.813 10
5.323 -0.26199999 -1.809 11
4.1399999 -0.249 -1.829 9
4.3390002 -0.25400001 -1.829 10
4.539 -0.259 -1.825 10
4.7540002 -0.264 -1.822 10
4.974 -0.27000001 -1.813 10
5.2210002 -0.27599999 -1.808 10
4.079 -0.26199999 -1.831 8
4.2639999 -0.26699999 -1.8279999 10
4.4679999 -0.27200001 -1.8279999 11
4.6659999 -0.278 -1.819 10
4.8920002 -0.28400001 -1.8150001 10
5.1339998 -0.292 -1.811 11
4.02 -0.27500001 -1.834 8
4.204 -0.28099999 -1.832 9
4.3920002 -0.28600001 -1.827 10
4.5929999 -0.292 -1.821 9
4.8109999 -0.29899999 -1.816 9
5.052 -0.30700001 -1.814 11
3.9579999 -0.28799999 -1.834 8
4.1360002 -0.29300001 -1.832 9
4.335 -0.30000001 -1.832 10
4.5229998 -0.30599999 -1.823 9
4.7290001 -0.31299999 -1.816 9
4.9660001 -0.322 -1.8150001 11
3.905 -0.301 -1.837 8
4.0700002 -0.30599999 -1.83 9
4.2690001 -0.31400001 -1.8329999 9
4.4650002 -0.32100001 -1.829 10
4.6669998 -0.32800001 -1.822 10
4.8920002 -0.33700001 -1.818 10
3.8559999 -0.31400001 -1.842 8
4.0110002 -0.31900001 -1.832 9
4.2049999 -0.32699999 -1.834 9
4.3920002 -0.33399999 -1.827 10
4.5949998 -0.34299999 -1.823 11
4.803 -0.35100001 -1.814 10
3.7980001 -0.32600001 -1.841 8
3.951 -0.33199999 -1.831 8
4.1399999 -0.34 -1.8329999 10
4.3309999 -0.34799999 -1.83 10
4.526 -0.35600001 -1.824 9
4.7420001 -0.366 -1.8200001 10
3.744 -0.33899999 -1.841 8
3.905 -0.34599999 -1.836 9
4.079 -0.35299999 -1.832 10
4.2670002 -0.36199999 -1.83 10
4.4619999 -0.37099999 -1.825 10
4.6700001 -0.38100001 -1.821 10
3.6960001 -0.352 -1.842 8
3.8540001 -0.359 -1.837 9
4.0219998 -0.36700001 -1.8329999 9
4.2069998 -0.37599999 -1.831 10
4.388 -0.384 -1.822 10
4.599 -0.396 -1.821 10
3.6559999 -0.36500001 -1.848 8
3.8039999 -0.37200001 -1.839 9
3.971 -0.38 -1.835 10
4.151 -0.38999999 -1.8329999 9
4.336 -0.40000001 -1.827 10
4.5380001 -0.41 -1.823 9
3.602 -0.377 -1.846 8
3.7609999 -0.38600001 -1.844 8
3.914 -0.39300001 -1.834 10
4.0949998 -0.403 -1.8329999 10
4.2779999 -0.414 -1.8279999 10
4.4819999 -0.426 -1.827 10
3.5539999 -0.38999999 -1.845 8
3.7130001 -0.39899999 -1.844 9
3.8710001 -0.40700001 -1.8380001 9
4.0370002 -0.417 -1.832 10
4.2160001 -0.42699999 -1.827 9
4.4130001 -0.44 -1.824 10
3.5109999 -0.403 -1.847 7
3.664 -0.412 -1.844 8
3.825 -0.421 -1.841 9
3.9809999 -0.43000001 -1.831 9
4.1659999 -0.442 -1.83 9
4.3590002 -0.45500001 -1.827 10
3.4690001 -0.41499999 -1.848 7
3.6210001 -0.42500001 -1.846 8
3.7809999 -0.435 -1.8430001 9
3.938 -0.44499999 -1.835 9
4.1139998 -0.456 -1.831 9
4.3049998 -0.47 -1.829 9
3.4300001 -0.428 -1.85 7
3.5829999 -0.43799999 -1.849 9
3.7320001 -0.44800001 -1.842 9
3.885 -0.458 -1.8329999 9
4.0669999 -0.47099999 -1.8329999 9
4.2459998 -0.484 -1.827 9
3.3840001 -0.44 -1.847 7
3.54 -0.45100001 -1.849 9
3.6900001 -0.461 -1.844 9
3.845 -0.472 -1.837 9
4.0120001 -0.484 -1.831 10
4.2030001 -0.49900001 -1.831 9
3.349 -0.45300001 -1.85 7
3.497 -0.46399999 -1.848 9
3.648 -0.47499999 -1.845 8
3.7969999 -0.48500001 -1.836 8
3.964 -0.498 -1.831 9
4.1490002 -0.51300001 -1.83 9
3.3099999 -0.46599999 -1.849 7
3.4579999 -0.477 -1.849 8
3.6070001 -0.48800001 -1.845 9
3.7650001 -0.50099999 -1.842 8
3.9200001 -0.51200002 -1.832 9
4.099 -0.52700001 -1.83 9
3.276 -0.479 -1.851 7
3.418 -0.49000001 -1.848 8
3.572 -0.50199997 -1.848 8
3.7249999 -0.514 -1.8430001 9
3.8729999 -0.52600002 -1.831 9
4.0479999 -0.54100001 -1.8279999 8
3.244 -0.49200001 -1.853 7
3.388 -0.50400001 -1.853 8
3.5409999 -0.51599997 -1.852 8
3.6849999 -0.528 -1.8430001 8
3.842 -0.54100001 -1.837 8
4.006 -0.55599999 -1.83 9
3.2079999 -0.50400001 -1.852 7
3.3510001 -0.51599997 -1.852 8
3.5 -0.52899998 -1.851 8
3.6500001 -0.542 -1.846 8
3.8010001 -0.55599999 -1.837 9
3.964 -0.57099998 -1.83 8
3.1689999 -0.51499999 -1.849 7
3.3150001 -0.528 -1.851 7
3.4649999 -0.54299998 -1.851 8
3.6110001 -0.55599999 -1.845 8
3.7650001 -0.56999999 -1.839 8
3.927 -0.58499998 -1.8329999 8
3.1429999 -0.52899998 -1.853 7
3.279 -0.54100001 -1.85 8
3.4289999 -0.55599999 -1.851 7
3.5829999 -0.57099998 -1.849 8
3.7279999 -0.58399999 -1.839 8
3.8870001 -0.60000002 -1.832 8
3.1070001 -0.54000002 -1.85 7
3.247 -0.55400002 -1.85 8
3.3989999 -0.56900001 -1.852 7
3.5409999 -0.583 -1.846 8
3.694 -0.59799999 -1.841 8
3.865 -0.616 -1.84 8
3.0840001 -0.55400002 -1.854 6
3.223 -0.56800002 -1.854 7
3.3670001 -0.58200002 -1.853 7
3.5090001 -0.597 -1.847 8
3.6589999 -0.61199999 -1.841 8
3.8180001 -0.62900001 -1.835 8
3.0580001 -0.56699997 -1.8559999 6
3.188 -0.57999998 -1.851 7
3.335 -0.59500003 -1.852 7
3.483 -0.611 -1.849 8
3.6370001 -0.62800002 -1.847 8
3.789 -0.64499998 -1.8380001 8
3.033 -0.579 -1.858 6
3.1659999 -0.59299999 -1.855 7
3.3069999 -0.60900003 -1.853 7
3.454 -0.625 -1.851 8
3.6070001 -0.64200002 -1.848 8
3.7609999 -0.66000003 -1.841 8
3.0009999 -0.59100002 -1.855 6
3.141 -0.60600001 -1.8559999 6
3.2820001 -0.62199998 -1.855 7
3.4260001 -0.639 -1.852 8
3.573 -0.65600002 -1.846 9
3.7349999 -0.67500001 -1.844 8
2.984 -0.60500002 -1.86 6
3.1099999 -0.61799997 -1.854 7
3.2490001 -0.634 -1.852 7
3.392 -0.65100002 -1.848 8
3.5469999 -0.67000002 -1.848 8
3.701 -0.68900001 -1.842 8
2.954 -0.616 -1.8559999 6
3.092 -0.63200003 -1.858 7
3.227 -0.648 -1.854 7
3.375 -0.667 -1.854 8
3.517 -0.68400002 -1.846 8
3.678 -0.70499998 -1.845 7
0 0 0 0
3.0650001 -0.64499998 -1.857 6
3.201 -0.66100001 -1.853 7
3.345 -0.67900002 -1.852 8
3.494 -0.69800001 -1.849 8
3.652 -0.71899998 -1.846 8
1.67 -0.368 -1.066 3
3.05 -0.65899998 -1.8609999 6
3.1819999 -0.67500001 -1.8559999 7
3.3269999 -0.69400001 -1.855 7
3.474 -0.713 -1.851 7
3.6289999 -0.73400003 -1.848 8
1.5549999 -0.35100001 -1 2
3.02 -0.67000002 -1.8559999 7
3.1559999 -0.68699998 -1.854 7
3.299 -0.70700002 -1.853 7
3.4530001 -0.72799999 -1.853 8
3.598 -0.74800003 -1.845 8
1.528 -0.354 -0.98900002 2
3.0039999 -0.68300003 -1.859 6
3.138 -0.70099998 -1.857 7
3.277 -0.72000003 -1.852 7
3.4319999 -0.74199998 -1.854 8
3.582 -0.764 -1.848 8
1.503 -0.35699999 -0.98000002 4
2.9879999 -0.69700003 -1.862 6
3.122 -0.71499997 -1.859 7
3.2590001 -0.73400003 -1.854 7
3.4100001 -0.75599998 -1.854 7
3.5539999 -0.77700001 -1.845 8
1.482 -0.361 -0.97299999 4
2.9690001 -0.70999998 -1.8609999 7
3.099 -0.727 -1.857 6
3.2409999 -0.74800003 -1.855 7
3.391 -0.76999998 -1.855 7
3.5409999 -0.79299998 -1.85 7
1.466 -0.366 -0.96799999 5
2.954 -0.72299999 -1.863 6
3.0799999 -0.74000001 -1.8559999 6
3.2260001 -0.76200002 -1.857 7
3.3670001 -0.78299999 -1.851 8
3.5209999 -0.80699998 -1.849 8
0 0 0 0
2.9119999 -0.72899997 -1.848 8
3.066 -0.75400001 -1.858 7
3.2030001 -0.77399999 -1.854 7
3.352 -0.79799998 -1.853 8
3.5039999 -0.82200003 -1.85 7
0 0 0 0
0 0 0 0
3.0510001 -0.76700002 -1.859 6
3.1949999 -0.79000002 -1.858 7
3.3329999 -0.81099999 -1.852 7
3.487 -0.83700001 -1.85 7
0 0 0 0
1.72 -0.44999999 -1.103 3
3.0380001 -0.77999997 -1.859 6
3.1789999 -0.80299997 -1.858 7
3.326 -0.82700002 -1.8559999 7
3.4760001 -0.852 -1.852 8
0 0 0 0
1.624 -0.43399999 -1.045 2
3.0250001 -0.79400003 -1.86 6
3.1659999 -0.81699997 -1.859 7
3.3110001 -0.84100002 -1.8559999 7
3.464 -0.86699998 -1.853 7
0 0 0 0
1.545 -0.421 -1 2
3.0109999 -0.80599999 -1.859 6
3.155 -0.83099997 -1.859 7
3.3039999 -0.85699999 -1.859 7
3.4530001 -0.88200003 -1.854 8
0 0 0 0
1.524 -0.42399999 -0.99000001 2
3.0039999 -0.82099998 -1.862 6
3.1429999 -0.84500003 -1.859 7
3.2880001 -0.87 -1.857 8
3.4400001 -0.89700001 -1.854 8
0 0 0 0
1.5089999 -0.428 -0.98299998 2
2.987 -0.83200002 -1.858 6
3.135 -0.85900003 -1.8609999 7
3.277 -0.884 -1.8559999 7
3.431 -0.912 -1.854 8
0 0 0 0
1.4960001 -0.43200001 -0.97799999 3
2.984 -0.847 -1.862 6
3.1259999 -0.87300003 -1.8609999 7
3.27 -0.89899999 -1.857 7
3.4219999 -0.92699999 -1.855 7
0 0 0 0
0 0 0 0
2.973 -0.86000001 -1.86 6
3.1210001 -0.88700002 -1.863 6
3.2620001 -0.91299999 -1.858 7
3.4130001 -0.94199997 -1.854 7
0 0 0 0
0 0 0 0
2.967 -0.87300003 -1.862 6
3.1099999 -0.89999998 -1.8609999 6
3.26 -0.92900002 -1.86 8
3.404 -0.95599997 -1.853 7
0 0 0 0
0 0 0 0
2.971 -0.88999999 -1.868 5
3.1059999 -0.91399997 -1.862 6
3.25 -0.94199997 -1.858 7
3.402 -0.972 -1.855 7
0 0 0 0
0 0 0 0
2.96 -0.90100002 -1.864 6
3.1010001 -0.92799997 -1.862 6
3.247 -0.95700002 -1.859 7
3.3970001 -0.98699999 -1.854 7
0 0 0 0
0 0 0 0
2.9579999 -0.91500002 -1.865 6
3.1029999 -0.94400001 -1.865 7
3.244 -0.972 -1.859 7
3.3929999 -1.002 -1.854 7
0 0 0 0
0 0 0 0
2.9530001 -0.92799997 -1.864 6
3.099 -0.95700002 -1.865 6
3.2449999 -0.98699999 -1.8609999 7
3.3929999 -1.017 -1.854 8
0 0 0 0
0 0 0 0
2.9489999 -0.94 -1.863 5
3.0969999 -0.97100002 -1.864 7
3.24 -1 -1.859 7
3.398 -1.034 -1.857 7
0 0 0 0
0 0 0 0
2.9519999 -0.95499998 -1.865 6
3.098 -0.986 -1.865 6
3.2490001 -1.018 -1.863 8
3.3959999 -1.049 -1.8559999 7
0 0 0 0
0 0 0 0
2.9549999 -0.96899998 -1.867 6
3.095 -0.99900001 -1.863 6
3.244 -1.03 -1.86 7
3.398 -1.064 -1.8559999 7
0 0 0 0
0 0 0 0
2.957 -0.98299998 -1.867 5
3.0999999 -1.013 -1.864 6
3.2479999 -1.046 -1.86 7
3.4059999 -1.081 -1.858 8
0 0 0 0
1.443 -0.495 -0.95599997 0
2.9590001 -0.99599999 -1.867 6
3.1040001 -1.028 -1.865 6
3.2539999 -1.061 -1.862 7
3.4100001 -1.097 -1.858 7
0 0 0 0
0 0 0 0
2.967 -1.011 -1.87 6
3.1059999 -1.041 -1.863 6
3.263 -1.077 -1.864 7
3.418 -1.113 -1.859 7
0 0 0 0
0 0 0 0
2.97 -1.024 -1.868 5
3.1159999 -1.057 -1.8660001 7
3.2679999 -1.092 -1.863 7
3.4300001 -1.13 -1.8609999 7
0 0 0 0
1.465 -0.51999998 -0.96700001 0
2.983 -1.04 -1.873 6
3.122 -1.071 -1.865 6
3.277 -1.108 -1.863 7
3.444 -1.148 -1.863 7
0 0 0 0
1.485 -0.53299999 -0.97799999 1
2.99 -1.054 -1.873 6
3.132 -1.086 -1.8660001 6
3.29 -1.124 -1.865 7
3.4489999 -1.163 -1.8609999 8
0 0 0 0
0 0 0 0
3 -1.069 -1.874 5
3.1440001 -1.102 -1.868 7
3.3010001 -1.14 -1.8660001 7
3.4619999 -1.179 -1.8609999 7
0 0 0 0
0 0 0 0
3.006 -1.082 -1.8710001 6
3.1530001 -1.1160001 -1.867 6
3.3110001 -1.155 -1.865 7
3.471 -1.194 -1.859 7
0 0 0 0
0 0 0 0
3.0120001 -1.094 -1.868 6
3.1630001 -1.13 -1.8660001 7
3.3169999 -1.168 -1.8609999 7
3.4909999 -1.2130001 -1.862 8
0 0 0 0
2.8789999 -1.074 -1.8710001 6
3.0220001 -1.107 -1.867 7
3.177 -1.146 -1.867 6
3.3329999 -1.184 -1.862 8
