# .PCD v0.7 - Point Cloud Data file format
VERSION 0.7
FIELDS x y z intensity
SIZE 4 4 4 4
TYPE F F F F
COUNT 1 1 1 1
WIDTH 1718
HEIGHT 1
VIEWPOINT 0 0 0 1 0 0 0
POINTS 1718
DATA ascii
5.118 -0.55400002 -1.818 15
4.0209999 -0.491 -1.84 9
4.1999998 -0.50400001 -1.837 10
4.3920002 -0.51899999 -1.834 11
4.5869999 -0.53299999 -1.827 10
4.8189998 -0.55199999 -1.8279999 14
5.046 -0.56999999 -1.821 15
3.9660001 -0.50400001 -1.841 9
4.1420002 -0.51800001 -1.8380001 10
4.335 -0.53399998 -1.837 10
4.5289998 -0.54900002 -1.83 10
4.73 -0.565 -1.822 11
4.9660001 -0.58499998 -1.8200001 17
3.918 -0.51899999 -1.844 8
4.0869999 -0.53200001 -1.839 10
4.2709999 -0.54699999 -1.836 10
4.4679999 -0.56400001 -1.8329999 15
4.665 -0.58099997 -1.824 10
4.8889999 -0.60000002 -1.8200001 17
3.8659999 -0.53200001 -1.845 9
4.026 -0.54500002 -1.837 10
4.2179999 -0.56199998 -1.839 11
4.4109998 -0.57999998 -1.835 17
4.6020002 -0.59600002 -1.826 10
4.8200002 -0.616 -1.821 10
3.8210001 -0.54699999 -1.848 8
3.973 -0.55900002 -1.8380001 10
4.1630001 -0.57700002 -1.84 10
4.3379998 -0.59200001 -1.83 16
4.5440001 -0.61199999 -1.829 11
4.7529998 -0.63099998 -1.822 10
3.776 -0.56099999 -1.851 8
3.9289999 -0.574 -1.842 9
4.1079998 -0.59100002 -1.84 11
4.2940001 -0.60900003 -1.836 16
4.4899998 -0.62800002 -1.832 12
4.6989999 -0.648 -1.827 10
3.7309999 -0.57499999 -1.851 8
3.888 -0.58899999 -1.846 11
4.052 -0.60500002 -1.8380001 9
4.243 -0.62400001 -1.839 14
4.428 -0.64200002 -1.831 10
4.6420002 -0.66399997 -1.83 10
3.681 -0.588 -1.85 8
3.8369999 -0.60299999 -1.844 15
4.006 -0.61900002 -1.841 9
4.1859999 -0.63800001 -1.837 9
4.382 -0.65899998 -1.836 10
4.5749998 -0.67900002 -1.827 10
3.638 -0.60100001 -1.85 12
3.7980001 -0.61699998 -1.848 24
3.957 -0.634 -1.841 9
4.1389999 -0.653 -1.839 10
4.3130002 -0.671 -1.83 14
4.526 -0.69499999 -1.831 10
3.6040001 -0.616 -1.855 9
3.7449999 -0.63 -1.844 19
3.901 -0.64600003 -1.837 11
4.0890002 -0.66799998 -1.84 9
4.2750001 -0.68900001 -1.836 21
4.474 -0.71100003 -1.8329999 17
3.559 -0.62900001 -1.854 8
3.7119999 -0.64600003 -1.85 15
3.878 -0.66399997 -1.847 9
4.0419998 -0.68199998 -1.84 9
4.2290001 -0.704 -1.839 14
4.4260001 -0.72799999 -1.836 17
3.5139999 -0.64200002 -1.851 8
3.6760001 -0.66100001 -1.853 9
3.825 -0.67699999 -1.8430001 8
4.0019999 -0.69800001 -1.8430001 10
4.1830001 -0.72000003 -1.84 10
4.382 -0.74400002 -1.839 16
3.483 -0.65700001 -1.855 8
3.6370001 -0.67500001 -1.853 9
3.7939999 -0.69300002 -1.849 9
3.9560001 -0.71200001 -1.842 9
4.1329999 -0.73400003 -1.8380001 10
4.3280001 -0.759 -1.8380001 14
3.4460001 -0.67000002 -1.855 8
3.599 -0.68900001 -1.854 8
3.7509999 -0.70700002 -1.848 9
3.9130001 -0.727 -1.8430001 9
4.0929999 -0.75 -1.841 9
4.2779999 -0.77399999 -1.836 10
3.411 -0.68400002 -1.8559999 7
3.562 -0.70200002 -1.854 9
3.7190001 -0.722 -1.852 9
3.875 -0.74199998 -1.844 20
4.0549998 -0.76599997 -1.8430001 9
4.2379999 -0.79000002 -1.839 9
3.378 -0.69800001 -1.857 7
3.5309999 -0.71700001 -1.857 9
3.674 -0.73500001 -1.848 20
3.846 -0.759 -1.849 13
4.0110002 -0.78100002 -1.842 9
4.1919999 -0.80500001 -1.8380001 10
3.345 -0.71100003 -1.857 7
3.497 -0.73199999 -1.858 9
3.652 -0.75199997 -1.855 27
3.806 -0.773 -1.848 26
3.9660001 -0.79400003 -1.84 10
4.1529999 -0.82099998 -1.839 9
3.3180001 -0.72600001 -1.86 7
3.457 -0.74400002 -1.854 8
3.618 -0.76700002 -1.8559999 10
3.767 -0.787 -1.847 10
3.927 -0.80900002 -1.839 9
4.1170001 -0.838 -1.841 10
3.277 -0.73699999 -1.855 7
3.427 -0.75800002 -1.855 8
3.5769999 -0.77999997 -1.852 9
3.7309999 -0.801 -1.847 8
3.895 -0.82499999 -1.842 9
4.0799999 -0.85299999 -1.842 9
3.2539999 -0.75199997 -1.859 9
3.4000001 -0.773 -1.857 8
3.5469999 -0.79400003 -1.853 8
3.7060001 -0.81800002 -1.851 8
3.8640001 -0.84100002 -1.844 8
4.0450001 -0.86900002 -1.8430001 9
3.221 -0.764 -1.8559999 9
3.3699999 -0.787 -1.857 8
3.5179999 -0.80800003 -1.854 8
3.6700001 -0.83099997 -1.848 9
3.829 -0.85500002 -1.8430001 8
4.006 -0.884 -1.841 9
3.1930001 -0.778 -1.8559999 13
3.345 -0.801 -1.859 8
3.4960001 -0.82499999 -1.858 8
3.645 -0.847 -1.852 8
3.8050001 -0.87300003 -1.847 12
3.9779999 -0.90100002 -1.844 9
3.174 -0.79299998 -1.86 13
3.312 -0.81400001 -1.8559999 8
3.471 -0.83899999 -1.86 8
3.625 -0.86400002 -1.857 8
3.7880001 -0.89099997 -1.853 14
3.944 -0.91600001 -1.842 9
3.1500001 -0.80699998 -1.8609999 8
3.2920001 -0.829 -1.86 8
3.4419999 -0.85399997 -1.859 9
3.5929999 -0.87800002 -1.855 8
3.7449999 -0.903 -1.847 13
3.9089999 -0.93099999 -1.841 9
3.1210001 -0.81999999 -1.858 7
3.2709999 -0.84399998 -1.862 8
3.415 -0.86799997 -1.859 8
3.566 -0.89300001 -1.855 9
3.73 -0.921 -1.853 17
3.888 -0.94800001 -1.844 9
3.0999999 -0.83399999 -1.86 7
3.243 -0.85699999 -1.86 8
3.3859999 -0.88099998 -1.857 8
3.5420001 -0.90799999 -1.855 8
3.6960001 -0.935 -1.849 9
3.8599999 -0.96399999 -1.844 8
3.085 -0.84899998 -1.864 7
3.224 -0.87199998 -1.863 7
3.369 -0.89700001 -1.86 8
3.5220001 -0.92400002 -1.858 8
3.6760001 -0.95099998 -1.852 8
3.8369999 -0.98000002 -1.846 8
3.0639999 -0.86299998 -1.865 6
3.2019999 -0.88599998 -1.862 7
3.3469999 -0.912 -1.86 8
3.5039999 -0.94 -1.8609999 8
3.655 -0.96700001 -1.853 8
3.813 -0.99599999 -1.846 7
3.04 -0.875 -1.862 7
3.1830001 -0.89999998 -1.863 21
3.329 -0.92699999 -1.862 8
3.4779999 -0.954 -1.858 9
3.6340001 -0.98299998 -1.854 8
3.7980001 -1.0140001 -1.85 12
3.0220001 -0.889 -1.863 7
3.165 -0.91500002 -1.864 13
3.3 -0.93900001 -1.857 8
3.4579999 -0.96899998 -1.859 7
3.6110001 -0.99800003 -1.854 8
3.7839999 -1.033 -1.854 12
3.0150001 -0.90600002 -1.87 9
3.1370001 -0.926 -1.859 12
3.2839999 -0.954 -1.859 9
3.4400001 -0.98500001 -1.859 8
3.5999999 -1.016 -1.858 8
3.76 -1.048 -1.852 12
2.9920001 -0.91799998 -1.867 7
3.122 -0.94099998 -1.86 21
3.2720001 -0.97000003 -1.862 7
3.4200001 -0.99900001 -1.858 8
3.5769999 -1.03 -1.855 8
3.7409999 -1.064 -1.852 12
2.9779999 -0.93199998 -1.868 7
3.1110001 -0.95599997 -1.863 7
3.257 -0.98500001 -1.863 7
3.405 -1.015 -1.86 8
3.562 -1.0470001 -1.857 8
3.721 -1.079 -1.85 8
2.961 -0.94499999 -1.8660001 6
3.0999999 -0.972 -1.8660001 7
3.2420001 -1 -1.864 7
3.392 -1.03 -1.8609999 7
3.5420001 -1.061 -1.855 8
3.7079999 -1.096 -1.852 8
2.9530001 -0.95999998 -1.8710001 6
3.089 -0.98699999 -1.868 7
3.227 -1.0140001 -1.863 7
3.3800001 -1.046 -1.862 8
3.536 -1.079 -1.859 8
3.691 -1.112 -1.851 8
2.934 -0.972 -1.867 7
3.075 -1 -1.867 7
3.22 -1.031 -1.867 8
3.3659999 -1.061 -1.862 7
3.5209999 -1.094 -1.858 8
3.6760001 -1.128 -1.85 8
2.9260001 -0.98699999 -1.87 6
3.0569999 -1.013 -1.864 7
3.194 -1.041 -1.858 22
3.359 -1.0779999 -1.865 7
3.5139999 -1.112 -1.8609999 8
3.6700001 -1.146 -1.854 9
2.9189999 -1.001 -1.872 6
3.05 -1.028 -1.867 7
3.1889999 -1.057 -1.862 24
3.346 -1.092 -1.864 7
3.5039999 -1.128 -1.862 8
3.661 -1.163 -1.854 13
2.9070001 -1.015 -1.8710001 6
3.0369999 -1.041 -1.865 18
3.1830001 -1.073 -1.864 25
3.3429999 -1.11 -1.868 8
3.4909999 -1.143 -1.86 8
3.6589999 -1.182 -1.858 12
2.8940001 -1.027 -1.869 6
3.0339999 -1.058 -1.869 12
3.1800001 -1.09 -1.867 8
3.3310001 -1.124 -1.8660001 8
3.4860001 -1.16 -1.8609999 8
3.6570001 -1.201 -1.8609999 13
1.507 -0.54299998 -0.97500002 0
3.029 -1.073 -1.87 9
3.175 -1.105 -1.869 7
3.325 -1.14 -1.867 7
3.4820001 -1.177 -1.863 8
3.6400001 -1.214 -1.8559999 8
1.415 -0.51800001 -0.91900003 0
3.026 -1.0880001 -1.872 12
3.1659999 -1.119 -1.867 7
3.3199999 -1.156 -1.867 8
3.4749999 -1.193 -1.863 8
3.628 -1.229 -1.853 8
1.41 -0.52399999 -0.917 0
3.016 -1.101 -1.87 7
3.161 -1.1339999 -1.868 7
3.313 -1.17 -1.8660001 8
3.4690001 -1.2079999 -1.862 8
3.6329999 -1.249 -1.857 8
1.47 -0.55400002 -0.958 0
3.0090001 -1.114 -1.869 6
3.1600001 -1.15 -1.87 7
3.3069999 -1.1849999 -1.865 9
3.471 -1.226 -1.864 8
3.631 -1.266 -1.858 8
1.484 -0.56800002 -0.96899998 0
3.0109999 -1.13 -1.872 7
3.1559999 -1.165 -1.869 7
3.302 -1.2 -1.864 9
3.4660001 -1.242 -1.863 8
3.6259999 -1.2819999 -1.8559999 8
2.868 -1.112 -1.874 6
3.0090001 -1.145 -1.872 7
3.1600001 -1.182 -1.873 9
3.302 -1.216 -1.864 9
3.464 -1.258 -1.862 8
3.6429999 -1.3049999 -1.865 13
2.868 -1.126 -1.875 6
3.0039999 -1.158 -1.87 7
3.1500001 -1.194 -1.867 11
3.3080001 -1.234 -1.868 9
3.46 -1.273 -1.86 8
3.638 -1.321 -1.862 12
2.8659999 -1.14 -1.874 6
3.0120001 -1.175 -1.875 8
3.154 -1.21 -1.87 10
3.306 -1.249 -1.8660001 7
3.4679999 -1.2920001 -1.863 7
3.645 -1.34 -1.864 12
2.8670001 -1.154 -1.874 6
3.0190001 -1.193 -1.8789999 9
3.154 -1.225 -1.869 9
3.312 -1.266 -1.868 8
3.477 -1.3099999 -1.8660001 8
3.6370001 -1.353 -1.857 9
2.8699999 -1.168 -1.876 6
3.0120001 -1.2029999 -1.873 8
3.158 -1.2410001 -1.87 8
3.3069999 -1.279 -1.863 7
3.483 -1.3279999 -1.867 8
3.645 -1.3710001 -1.859 8
2.8699999 -1.181 -1.874 6
3.0109999 -1.216 -1.87 10
3.1589999 -1.255 -1.868 8
3.3199999 -1.298 -1.867 8
3.484 -1.3430001 -1.864 8
3.6489999 -1.388 -1.857 8
2.8740001 -1.196 -1.875 6
3.023 -1.234 -1.876 9
3.178 -1.276 -1.876 8
3.326 -1.314 -1.867 8
3.49 -1.36 -1.864 8
3.658 -1.4069999 -1.857 8
2.8770001 -1.209 -1.874 7
3.0209999 -1.2460001 -1.8710001 7
3.181 -1.29 -1.874 7
3.3340001 -1.331 -1.868 8
3.503 -1.3789999 -1.8660001 8
3.6800001 -1.4299999 -1.864 9
2.8840001 -1.223 -1.874 6
3.0320001 -1.263 -1.874 7
3.187 -1.3049999 -1.873 7
3.3469999 -1.349 -1.87 8
3.5120001 -1.396 -1.865 8
3.6889999 -1.447 -1.862 12
2.895 -1.24 -1.877 6
3.043 -1.279 -1.875 7
3.194 -1.3200001 -1.8710001 14
3.3599999 -1.367 -1.872 8
3.5139999 -1.41 -1.8609999 7
3.704 -1.467 -1.863 12
2.905 -1.255 -1.878 6
3.0439999 -1.291 -1.8710001 7
3.1960001 -1.3329999 -1.867 23
3.3670001 -1.383 -1.869 8
3.5320001 -1.4299999 -1.863 8
3.7179999 -1.4859999 -1.863 11
2.915 -1.2690001 -1.8789999 7
3.066 -1.311 -1.878 7
3.207 -1.348 -1.867 14
3.3840001 -1.401 -1.8710001 8
3.55 -1.449 -1.865 8
3.7309999 -1.503 -1.8609999 8
2.921 -1.2819999 -1.876 6
3.075 -1.325 -1.876 9
3.22 -1.365 -1.8660001 11
3.4000001 -1.419 -1.873 8
3.5669999 -1.4680001 -1.865 8
3.747 -1.522 -1.86 8
2.934 -1.2970001 -1.877 6
3.096 -1.344 -1.881 10
3.247 -1.386 -1.874 8
3.414 -1.4349999 -1.8710001 8
3.5810001 -1.485 -1.863 8
3.7679999 -1.5420001 -1.8609999 8
2.9460001 -1.311 -1.876 6
3.102 -1.3559999 -1.876 16
3.2650001 -1.404 -1.875 8
3.4319999 -1.4529999 -1.872 8
3.5999999 -1.503 -1.863 8
3.79 -1.562 -1.8609999 8
2.9590001 -1.326 -1.876 6
3.1129999 -1.37 -1.874 14
3.279 -1.419 -1.874 8
3.4519999 -1.471 -1.872 8
3.622 -1.522 -1.864 7
3.8080001 -1.581 -1.859 13
2.9749999 -1.341 -1.876 7
3.1329999 -1.387 -1.875 8
3.302 -1.437 -1.876 7
3.473 -1.489 -1.872 8
3.6440001 -1.541 -1.864 8
3.8399999 -1.604 -1.862 12
2.997 -1.358 -1.8789999 7
3.155 -1.404 -1.877 8
3.325 -1.456 -1.878 8
3.4890001 -1.505 -1.869 7
3.671 -1.562 -1.8660001 9
3.8729999 -1.627 -1.8660001 12
3.0150001 -1.373 -1.8789999 9
3.175 -1.42 -1.877 8
3.3429999 -1.472 -1.876 8
3.5120001 -1.523 -1.869 7
3.7079999 -1.586 -1.8710001 12
3.8940001 -1.645 -1.862 8
3.0320001 -1.387 -1.878 7
3.2 -1.438 -1.88 7
3.3659999 -1.489 -1.876 8
3.5350001 -1.541 -1.868 7
3.7260001 -1.602 -1.867 14
3.9289999 -1.668 -1.865 9
3.052 -1.402 -1.877 7
3.23 -1.4579999 -1.8839999 8
3.3870001 -1.505 -1.874 8
3.559 -1.558 -1.867 8
3.7379999 -1.614 -1.858 13
3.9630001 -1.691 -1.865 9
3.079 -1.42 -1.88 7
3.25 -1.473 -1.882 11
3.4119999 -1.522 -1.873 8
3.595 -1.58 -1.8710001 8
3.78 -1.6390001 -1.864 9
3.994 -1.711 -1.864 9
3.105 -1.437 -1.882 7
3.27 -1.487 -1.8789999 16
3.4430001 -1.541 -1.876 7
3.6340001 -1.603 -1.875 11
3.819 -1.6619999 -1.867 8
4.0289998 -1.733 -1.864 9
3.131 -1.4529999 -1.882 7
3.283 -1.498 -1.8710001 12
3.473 -1.559 -1.876 7
3.654 -1.617 -1.87 14
3.852 -1.683 -1.8660001 8
4.0689998 -1.756 -1.865 8
3.151 -1.466 -1.8789999 10
3.316 -1.516 -1.874 9
3.5009999 -1.576 -1.874 8
3.671 -1.63 -1.862 12
3.8929999 -1.706 -1.869 8
4.1040001 -1.777 -1.862 9
3.1800001 -1.482 -1.88 11
3.3540001 -1.5369999 -1.878 8
3.53 -1.5930001 -1.873 8
3.717 -1.654 -1.867 8
3.927 -1.725 -1.8660001 10
4.151 -1.802 -1.865 9
3.198 -1.493 -1.873 11
3.3840001 -1.554 -1.877 7
3.563 -1.6109999 -1.872 8
3.7590001 -1.676 -1.869 8
3.967 -1.747 -1.8660001 9
4.2030001 -1.829 -1.868 10
3.233 -1.512 -1.876 9
3.4200001 -1.573 -1.8789999 8
3.5969999 -1.6289999 -1.8710001 8
3.7950001 -1.696 -1.868 8
4.0149999 -1.771 -1.868 9
4.25 -1.853 -1.868 13
3.2780001 -1.534 -1.883 8
3.4460001 -1.586 -1.874 8
3.631 -1.647 -1.869 8
3.8499999 -1.722 -1.874 10
4.0549998 -1.791 -1.8660001 9
4.2849998 -1.8710001 -1.862 13
3.306 -1.548 -1.8789999 8
3.4860001 -1.6059999 -1.876 8
3.6719999 -1.6670001 -1.87 8
3.882 -1.738 -1.869 15
4.0970001 -1.812 -1.864 9
4.329 -1.893 -1.859 9
3.342 -1.5650001 -1.88 7
3.517 -1.6210001 -1.872 8
3.7179999 -1.688 -1.872 8
3.9159999 -1.7539999 -1.864 12
4.1500001 -1.837 -1.8660001 8
4.3930001 -1.9220001 -1.863 8
3.375 -1.58 -1.877 8
3.553 -1.637 -1.87 7
3.7690001 -1.711 -1.876 10
3.973 -1.78 -1.868 8
4.2090001 -1.863 -1.869 11
4.4489999 -1.948 -1.862 8
3.418 -1.599 -1.8789999 7
3.6010001 -1.659 -1.873 8
3.8 -1.725 -1.869 14
4.0209999 -1.802 -1.868 8
4.2470002 -1.88 -1.862 13
4.5040002 -1.972 -1.8609999 11
3.4579999 -1.6160001 -1.8789999 8
3.6400001 -1.675 -1.8710001 8
3.849 -1.7460001 -1.869 15
4.0770001 -1.826 -1.87 9
4.3070002 -1.906 -1.863 10
4.5570002 -1.995 -1.857 8
3.4979999 -1.632 -1.878 7
3.687 -1.6950001 -1.8710001 8
3.8940001 -1.765 -1.867 15
4.1300001 -1.848 -1.869 9
4.3639998 -1.9299999 -1.862 10
4.6290002 -2.0250001 -1.86 8
3.543 -1.651 -1.878 7
3.74 -1.717 -1.874 11
3.9560001 -1.791 -1.872 8
4.1869998 -1.8710001 -1.869 9
4.4320002 -1.9579999 -1.865 11
4.6890001 -2.05 -1.8559999 9
3.586 -1.6670001 -1.876 8
3.783 -1.733 -1.8710001 14
4.0110002 -1.813 -1.872 8
4.244 -1.8940001 -1.868 9
4.487 -1.98 -1.86 14
4.777 -2.086 -1.863 10
3.631 -1.684 -1.875 8
3.8280001 -1.75 -1.867 15
4.066 -1.834 -1.8710001 9
4.3119998 -1.921 -1.8710001 8
4.559 -2.0079999 -1.862 9
4.8590002 -2.118 -1.8660001 14
3.684 -1.704 -1.876 9
3.8870001 -1.772 -1.869 13
4.1259999 -1.8559999 -1.872 8
4.3670001 -1.941 -1.867 9
4.6259999 -2.033 -1.8609999 9
4.9200001 -2.1400001 -1.859 16
3.7249999 -1.7180001 -1.87 12
3.95 -1.796 -1.872 8
4.1880002 -1.8789999 -1.872 9
4.4439998 -1.971 -1.8710001 12
4.7080002 -2.0639999 -1.864 9
4.9889998 -2.1659999 -1.854 11
3.7850001 -1.739 -1.873 13
4.007 -1.816 -1.8710001 8
4.244 -1.898 -1.868 9
4.4860001 -1.983 -1.859 15
4.7839999 -2.092 -1.863 9
5.0809999 -2.1989999 -1.8559999 8
3.8269999 -1.752 -1.8660001 12
4.0700002 -1.8380001 -1.872 9
4.3070002 -1.92 -1.8660001 9
4.579 -2.0179999 -1.867 9
4.8699999 -2.1229999 -1.865 16
5.1560001 -2.2260001 -1.851 9
3.8940001 -1.776 -1.87 10
4.1300001 -1.858 -1.8710001 9
4.3790002 -1.9450001 -1.868 9
4.6469998 -2.0409999 -1.864 9
4.9400001 -2.1459999 -1.86 17
5.257 -2.2620001 -1.854 8
3.9590001 -1.798 -1.872 8
4.197 -1.88 -1.8710001 9
4.4549999 -1.971 -1.869 14
4.7360001 -2.072 -1.868 9
5.0170002 -2.1719999 -1.8559999 11
5.3530002 -2.2950001 -1.854 8
4.0219998 -1.818 -1.872 8
4.2540002 -1.897 -1.8660001 9
4.506 -1.985 -1.86 14
4.8239999 -2.1010001 -1.87 13
5.119 -2.207 -1.86 8
5.4559999 -2.3299999 -1.855 9
4.086 -1.837 -1.872 8
4.3299999 -1.9220001 -1.868 10
4.618 -2.0250001 -1.873 8
4.895 -2.1229999 -1.864 18
5.2080002 -2.2349999 -1.858 8
5.5799999 -2.3729999 -1.8609999 17
4.152 -1.857 -1.8710001 9
4.3990002 -1.942 -1.8660001 10
4.6820002 -2.043 -1.8660001 9
4.9619999 -2.142 -1.8559999 17
5.3070002 -2.2679999 -1.858 8
5.6529999 -2.3929999 -1.848 15
4.2350001 -1.883 -1.876 11
4.4790001 -1.967 -1.867 14
4.77 -2.0699999 -1.868 10
5.0640001 -2.174 -1.859 9
5.4109998 -2.3 -1.858 8
5.7750001 -2.4330001 -1.85 9
4.2859998 -1.895 -1.867 10
4.5500002 -1.987 -1.864 10
4.862 -2.098 -1.87 15
5.1630001 -2.2049999 -1.86 8
5.5339999 -2.3399999 -1.863 10
5.9050002 -2.4749999 -1.853 8
4.3639998 -1.9170001 -1.867 8
4.6430001 -2.0150001 -1.868 9
4.9439998 -2.1210001 -1.8660001 19
5.2600002 -2.233 -1.859 9
5.632 -2.368 -1.859 17
6.0300002 -2.513 -1.853 9
4.4499998 -1.942 -1.8710001 8
4.7270002 -2.0380001 -1.8660001 8
5.0159998 -2.1389999 -1.858 18
5.3579998 -2.2609999 -1.8559999 9
5.7160001 -2.3889999 -1.848 18
6.1630001 -2.5539999 -1.853 8
4.526 -1.962 -1.869 9
4.8119998 -2.0610001 -1.865 9
5.1149998 -2.1670001 -1.858 10
5.4790001 -2.2980001 -1.86 8
5.8699999 -2.4389999 -1.858 8
6.3270001 -2.6059999 -1.8609999 8
4.6139998 -1.9859999 -1.87 9
4.9200001 -2.0929999 -1.8710001 13
5.2179999 -2.1960001 -1.858 9
5.592 -2.3299999 -1.86 10
6 -2.4760001 -1.859 8
6.4559999 -2.642 -1.8559999 8
4.7030001 -2.01 -1.8710001 8
4.9959998 -2.1099999 -1.864 18
5.323 -2.224 -1.858 9
5.7010002 -2.358 -1.857 15
6.151 -2.5209999 -1.864 8
6.6069999 -2.6849999 -1.8559999 8
4.7800002 -2.026 -1.865 9
5.0809999 -2.1300001 -1.858 19
5.4530001 -2.2620001 -1.865 13
5.8000002 -2.382 -1.849 10
6.2870002 -2.5580001 -1.862 7
6.77 -2.7320001 -1.857 8
4.8850002 -2.0539999 -1.869 8
5.177 -2.152 -1.855 10
5.52 -2.2709999 -1.848 15
5.9829998 -2.438 -1.8660001 7
6.4180002 -2.592 -1.858 8
6.9229999 -2.773 -1.853 8
4.9780002 -2.076 -1.867 10
5.2880001 -2.181 -1.857 9
5.6690001 -2.3139999 -1.857 7
6.1170001 -2.473 -1.865 7
6.572 -2.6340001 -1.858 7
7.0970001 -2.8210001 -1.852 8
5.0809999 -2.0999999 -1.868 13
5.415 -2.214 -1.862 10
5.7880001 -2.3429999 -1.8559999 8
6.2490001 -2.506 -1.862 8
6.73 -2.675 -1.857 8
7.2659998 -2.865 -1.849 8
5.1469998 -2.109 -1.854 10
5.5159998 -2.2360001 -1.8559999 22
5.9510002 -2.388 -1.8660001 7
6.3930001 -2.5420001 -1.8609999 8
6.882 -2.7130001 -1.853 8
7.4450002 -2.911 -1.846 8
5.2779999 -2.1429999 -1.862 8
5.618 -2.256 -1.85 18
6.0819998 -2.4189999 -1.864 7
6.54 -2.5769999 -1.86 8
7.0430002 -2.7520001 -1.85 8
7.619 -2.954 -1.84 9
5.3850002 -2.1659999 -1.86 8
5.7420001 -2.2850001 -1.85 10
6.2160001 -2.45 -1.863 8
6.677 -2.6070001 -1.853 8
7.2199998 -2.796 -1.848 8
7.855 -3.0190001 -1.845 10
5.5079999 -2.1930001 -1.862 11
5.8889999 -2.3210001 -1.8559999 8
6.3530002 -2.4790001 -1.859 8
6.8439999 -2.6470001 -1.853 8
7.4039998 -2.8399999 -1.846 8
8.0570002 -3.0669999 -1.84 31
5.6279998 -2.2179999 -1.8609999 16
6.0190001 -2.348 -1.853 9
6.4970002 -2.51 -1.8559999 8
6.9990001 -2.6800001 -1.848 8
7.5949998 -2.885 -1.8430001 8
8.184 -3.085 -1.816 27
5.7290001 -2.234 -1.853 16
6.1929998 -2.391 -1.863 8
6.651 -2.543 -1.854 8
7.1859999 -2.724 -1.849 8
7.7750001 -2.9230001 -1.836 8
8.4720001 -3.161 -1.825 8
5.8649998 -2.2620001 -1.854 8
6.3299999 -2.4170001 -1.86 8
6.8119998 -2.5769999 -1.852 8
7.3590002 -2.76 -1.844 8
7.9809999 -2.9690001 -1.832 8
8.7030001 -3.214 -1.819 8
6.0079999 -2.2920001 -1.8559999 9
6.4699998 -2.4430001 -1.855 8
6.973 -2.609 -1.849 8
7.5489998 -2.8 -1.841 8
8.2019997 -3.0190001 -1.83 8
8.9700003 -3.277 -1.818 7
6.1789999 -2.3299999 -1.865 8
6.6139998 -2.4690001 -1.851 8
7.1459999 -2.6429999 -1.846 8
7.73 -2.835 -1.834 7
8.4329996 -3.069 -1.827 8
9.2189999 -3.3310001 -1.8099999 7
6.322 -2.355 -1.863 8
6.777 -2.5 -1.85 7
7.3319998 -2.681 -1.845 8
7.947 -2.881 -1.8329999 8
8.6560001 -3.1140001 -1.819 7
9.4860001 -3.388 -1.803 7
6.4580002 -2.3770001 -1.858 8
6.9489999 -2.533 -1.849 8
7.5089998 -2.7130001 -1.84 8
8.1520004 -2.921 -1.8279999 8
8.9020004 -3.165 -1.8150001 7
9.7819996 -3.4530001 -1.799 7
6.6100001 -2.402 -1.8559999 8
7.1139998 -2.5599999 -1.845 8
7.7010002 -2.747 -1.836 7
8.3809996 -2.9649999 -1.825 8
9.1680002 -3.2190001 -1.811 7
10.068 -3.51 -1.789 11
6.763 -2.425 -1.852 8
7.2859998 -2.589 -1.841 8
7.9039998 -2.783 -1.832 8
8.6090002 -3.007 -1.819 7
9.4359999 -3.2709999 -1.804 7
10.29 -3.543 -1.765 14
6.9349999 -2.4549999 -1.852 8
7.4780002 -2.622 -1.84 9
8.1140003 -2.8199999 -1.8279999 8
8.8599997 -3.0550001 -1.817 7
9.717 -3.325 -1.799 7
10.728 -3.645 -1.775 6
7.1079998 -2.4820001 -1.851 8
7.6609998 -2.6500001 -1.834 8
8.3290005 -2.8559999 -1.823 8
9.1000004 -3.095 -1.808 7
10.067 -3.3989999 -1.801 16
11.108 -3.724 -1.77 7
7.2740002 -2.5039999 -1.845 8
7.8569999 -2.6800001 -1.831 8
8.5539999 -2.892 -1.819 8
9.3559999 -3.138 -1.801 7
10.357 -3.4489999 -1.79 54
11.464 -3.7909999 -1.7589999 7
7.4460001 -2.526 -1.84 8
8.0550003 -2.707 -1.824 8
8.7810001 -2.9260001 -1.811 7
9.6400003 -3.188 -1.7970001 7
10.608 -3.4820001 -1.77 46
11.867 -3.869 -1.751 7
7.6350002 -2.552 -1.837 8
8.2720003 -2.74 -1.821 8
9.0480003 -2.971 -1.811 7
9.9619999 -3.2449999 -1.7970001 12
10.864 -3.513 -1.748 21
12.3 -3.951 -1.743 7
7.822 -2.5739999 -1.831 8
8.4840002 -2.767 -1.814 8
9.2919998 -3.0050001 -1.802 7
10.299 -3.3050001 -1.796 43
11.374 -3.6240001 -1.7640001 6
12.831 -4.0599999 -1.745 22
8.0200005 -2.598 -1.827 8
8.7200003 -2.8 -1.812 8
9.5620003 -3.0439999 -1.7970001 7
10.561 -3.336 -1.779 51
11.748 -3.684 -1.753 7
13.262 -4.131 -1.728 47
8.2309999 -2.6240001 -1.824 8
8.9560003 -2.8299999 -1.806 8
9.8719997 -3.0929999 -1.796 9
10.899 -3.388 -1.772 53
12.131 -3.744 -1.7410001 5
13.753 -4.2160001 -1.714 48
8.4549999 -2.6500001 -1.8200001 8
9.2139997 -2.862 -1.801 7
10.237 -3.154 -1.802 46
11.227 -3.4319999 -1.76 56
12.587 -3.8199999 -1.734 7
14.216 -4.2849998 -1.692 40
8.6750002 -2.6730001 -1.8150001 8
9.4709997 -2.892 -1.795 7
10.462 -3.168 -1.78 57
11.545 -3.4690001 -1.744 38
13.046 -3.892 -1.724 6
14.701 -4.3559999 -1.669 35
8.9119997 -2.697 -1.8099999 8
9.7419996 -2.9230001 -1.789 7
10.772 -3.2049999 -1.771 56
11.844 -3.497 -1.723 20
13.666 -4.0050001 -1.7309999 15
15.275 -4.447 -1.651 12
9.1499996 -2.7190001 -1.8049999 7
10.025 -2.954 -1.783 7
11.124 -3.25 -1.766 52
12.399 -3.595 -1.735 7
14.128 -4.0669999 -1.7130001 35
16.166 -4.6220002 -1.6619999 10
9.3959999 -2.74 -1.798 7
10.309 -2.9809999 -1.775 7
11.483 -3.293 -1.7589999 49
12.84 -3.654 -1.727 6
14.639 -4.1360002 -1.697 59
16.986 -4.7670002 -1.658 11
9.6490002 -2.7620001 -1.7920001 8
10.616 -3.0120001 -1.7690001 7
11.851 -3.335 -1.751 55
13.281 -3.7079999 -1.715 6
15.226 -4.2199998 -1.686 53
17.834 -4.9099998 -1.649 11
9.9350004 -2.7869999 -1.79 7
10.989 -3.056 -1.771 10
12.235 -3.375 -1.742 52
13.767 -3.7690001 -1.705 7
15.58 -4.2340002 -1.645 43
17.827999 -4.8119998 -1.558 10
10.21 -2.8069999 -1.7819999 7
11.351 -3.0929999 -1.768 19
12.615 -3.4089999 -1.729 58
14.297 -3.8340001 -1.696 8
16.454 -4.381 -1.653 10
17.277 -4.5689998 -1.423 20
10.489 -2.8239999 -1.774 8
11.756 -3.138 -1.768 34
12.973 -3.434 -1.712 47
14.933 -3.9219999 -1.697 10
17.169001 -4.4759998 -1.64 9
17.056999 -4.4180002 -1.322 115
10.785 -2.842 -1.767 7
12.047 -3.1470001 -1.75 45
13.286 -3.4419999 -1.6849999 29
15.498 -3.984 -1.684 29
17.039 -4.3470001 -1.543 22
17.063999 -4.3239999 -1.2410001 255
11.108 -2.8629999 -1.762 7
12.375 -3.161 -1.734 69
13.783 -3.4909999 -1.6799999 13
15.943 -4.007 -1.654 10
17.084 -4.263 -1.466 38
17.362 -4.302 -1.1799999 53
11.431 -2.8789999 -1.7539999 7
12.719 -3.175 -1.7180001 60
14.438 -3.575 -1.689 8
16.705999 -4.1040001 -1.653 10
20.002001 -4.8779998 -1.622 11
17.761999 -4.3010001 -1.125 73
11.768 -2.8940001 -1.747 7
13.174 -3.211 -1.715 55
14.985 -3.622 -1.6799999 8
17.495001 -4.1960001 -1.648 11
17.937 -4.27 -1.3710001 5
26.232 -6.2010002 -1.5420001 5
12.123 -2.9100001 -1.739 8
13.594 -3.234 -1.704 61
15.505 -3.658 -1.665 9
18.245001 -4.2690001 -1.6339999 12
22.157 -5.145 -1.592 8
28.306 -6.526 -1.5369999 5
12.477 -2.9200001 -1.73 8
14.09 -3.2679999 -1.7 62
16.110001 -3.704 -1.655 10
19.207001 -4.3800001 -1.632 13
23.483 -5.3150001 -1.5829999 8
30.653999 -6.888 -1.53 4
12.836 -2.9260001 -1.719 8
14.535 -3.283 -1.686 78
16.761999 -3.7539999 -1.646 10
20.118999 -4.4699998 -1.6210001 15
24.798 -5.4660001 -1.563 7
33.889999 -7.4159999 -1.546 5
13.26 -2.9419999 -1.714 6
15.05 -3.3080001 -1.677 67
17.504999 -3.8150001 -1.642 11
21.101999 -4.5619998 -1.608 13
26.254 -5.631 -1.543 6
35.25 -7.5040002 -1.461 5
13.659 -2.947 -1.704 7
15.524 -3.319 -1.6619999 65
18.309999 -3.881 -1.638 12
22.208 -4.6659999 -1.598 11
28.073999 -5.8540001 -1.533 5
38.025002 -7.8670001 -1.42 2
14.112 -2.9579999 -1.698 10
15.814 -3.2839999 -1.625 34
19.113001 -3.934 -1.6289999 13
23.336 -4.7610002 -1.5829999 9
30.415001 -6.1550002 -1.5369999 5
35.77 -7.1849999 -1.194 23
14.6 -2.9690001 -1.694 12
16.658001 -3.3559999 -1.641 10
19.971001 -3.9879999 -1.62 14
24.733 -4.8969998 -1.5779999 8
32.111 -6.3039999 -1.495 5
35.514999 -6.9200001 -1.0470001 71
15.093 -2.9760001 -1.688 15
17.320999 -3.3829999 -1.636 11
20.892 -4.0419998 -1.6109999 15
25.820999 -4.9520001 -1.545 7
35.372002 -6.7270002 -1.511 12
35.368999 -6.6729999 -0.90700001 56
15.514 -2.961 -1.6720001 13
18.028999 -3.4070001 -1.63 12
21.919001 -4.1030002 -1.603 14
27.259001 -5.0580001 -1.526 5
35.321999 -6.4980001 -1.374 46
35.153 -6.415 -0.77100003 45
15.906 -2.9349999 -1.651 9
18.784 -3.4319999 -1.625 13
22.891001 -4.1430001 -1.587 15
29.049 -5.2080002 -1.517 4
35.078999 -6.2340002 -1.235 68
35.772999 -6.3039999 -0.65399998 13
16.513 -2.941 -1.649 10
19.555 -3.448 -1.617 14
23.997 -4.191 -1.574 8
31.094999 -5.381 -1.511 6
34.873001 -5.9809999 -1.104 65
42.411999 -7.2119999 -0.62800002 33
17.086 -2.934 -1.642 11
20.346001 -3.457 -1.607 15
25.216 -4.244 -1.563 7
32.902 -5.4840002 -1.482 4
34.737 -5.7389998 -0.98000002 57
42.396 -6.9439998 -0.48500001 57
17.702999 -2.927 -1.638 12
21.204 -3.4690001 -1.6 16
26.447001 -4.2839999 -1.548 6
34.661999 -5.5609999 -1.444 31
34.498001 -5.4840002 -0.85799998 67
42.550999 -6.704 -0.347 52
18.351 -2.9170001 -1.633 13
22.002001 -3.46 -1.585 17
27.959999 -4.3520002 -1.5420001 6
34.533001 -5.3210001 -1.325 47
34.612 -5.2810001 -0.74800003 45
43.262001 -6.54 -0.214 52
19.000999 -2.8970001 -1.626 13
22.929001 -3.457 -1.575 17
29.448999 -4.3920002 -1.527 5
34.265999 -5.0599999 -1.204 50
35.231998 -5.1500001 -0.64999998 13
43.167999 -6.2480001 -0.078000002 65
19.721001 -2.8770001 -1.622 15
23.823999 -3.437 -1.559 11
31.389 -4.48 -1.529 5
34.077 -4.8119998 -1.091 68
37.425999 -5.23 -0.57599998 1
43.254002 -5.9840002 0.050000001 58
20.398001 -2.8429999 -1.612 15
24.872999 -3.425 -1.549 8
33.765999 -4.598 -1.541 14
33.879002 -4.5619998 -0.98299998 75
43.080002 -5.7389998 -0.53600001 65
43.456001 -5.7290001 0.176 14
21.129999 -2.8050001 -1.605 16
26.018 -3.4130001 -1.5420001 7
33.942001 -4.3979998 -1.448 37
33.839001 -4.336 -0.884 68
43.219002 -5.4759998 -0.41499999 67
84.775002 -10.627 0.58099997 45
21.863001 -2.757 -1.595 17
27.155001 -3.382 -1.53 7
33.918999 -4.1739998 -1.351 42
33.796001 -4.1090002 -0.78799999 41
55.133999 -6.6240001 -0.37799999 20
84.967003 -10.093 0.81099999 12
22.601 -2.698 -1.584 18
28.424 -3.3499999 -1.522 6
33.623001 -3.9130001 -1.2460001 67
33.778 -3.882 -0.69599998 6
55.574001 -6.309 -0.234 6
87.125999 -9.7740002 1.058 36
23.368 -2.6340001 -1.574 14
29.674 -3.299 -1.5089999 5
33.456001 -3.671 -1.152 67
37.056 -4.013 -0.66799998 49
84.615997 -9.0480003 -0.142 14
87.495003 -9.243 1.278 7
24.208 -2.5669999 -1.567 8
31.299999 -3.2720001 -1.512 6
33.344002 -3.437 -1.0650001 78
37.230999 -3.7850001 -0.57999998 1
84.516998 -8.4809999 0.059 47
95.567001 -9.4639997 1.622 17
25.15 -2.4979999 -1.5650001 8
33.132999 -3.24 -1.5190001 20
33.202999 -3.1989999 -0.98000002 78
51.459999 -4.888 -0.68099999 10
80.237999 -7.5139999 0.241 69
0 0 0 0
25.919001 -2.3989999 -1.551 7
33.303001 -3.0339999 -1.449 37
33.174 -2.9749999 -0.903 75
37.662998 -3.326 -0.414 35
89.101997 -7.7490001 0.463 61
0 0 0 0
26.618999 -2.2820001 -1.5319999 6
33.191002 -2.799 -1.3710001 61
33.049 -2.7409999 -0.82800001 63
37.176998 -3.0339999 -0.33000001 54
37.721001 -3.03 0.27399999 13
0 0 0 0
27.902 -2.2049999 -1.546 6
33.123001 -2.5699999 -1.298 65
33.161999 -2.526 -0.76300001 39
37.014999 -2.77 -0.25299999 49
37.469002 -2.7550001 0.347 50
142.002 -10.266 3.6010001 44
28.906 -2.086 -1.5420001 5
33.013 -2.336 -1.228 64
33.647999 -2.336 -0.70899999 8
36.758999 -2.5039999 -0.182 62
37.231998 -2.4860001 0.414 49
141.64101 -9.2790003 3.8529999 38
0 0 0 0
32.828999 -2.099 -1.159 73
36.240002 -2.2679999 -0.69599998 49
36.594002 -2.244 -0.116 70
37.111 -2.2279999 0.47799999 50
141.061 -8.2930002 4.079 26
31.951 -1.867 -1.585 10
32.726002 -1.87 -1.098 75
36.431999 -2.0320001 -0.63800001 71
36.513 -1.989 -0.052999999 68
37.102001 -1.974 0.53899997 50
139.86 -7.2670002 4.27 26
32.396999 -1.669 -1.553 20
32.631001 -1.6390001 -1.041 72
36.373001 -1.778 -0.57800001 77
36.474998 -1.7359999 0.003 76
37.125999 -1.72 0.597 41
141.03101 -6.362 4.5190001 20
32.57 -1.451 -1.5089999 27
32.682999 -1.413 -0.99199998 58
36.351002 -1.527 -0.523 73
36.488998 -1.487 0.056000002 66
37.324001 -1.472 0.653 32
0 0 0 0
32.610001 -1.227 -1.464 29
32.446999 -1.181 -0.93900001 84
36.511002 -1.2819999 -0.47499999 49
36.512001 -1.238 0.105 78
37.467999 -1.225 0.704 13
89.086998 -2.8039999 3.092 28
32.618999 -1.0039999 -1.421 35
32.460999 -0.95999998 -0.898 71
36.424 -1.031 -0.428 47
36.627998 -0.99199998 0.15000001 76
99.917 -2.585 1.998 26
89.221001 -2.2 3.2 5
32.556999 -0.77600002 -1.3789999 54
32.396999 -0.73100001 -0.85799998 54
36.498001 -0.78100002 -0.38699999 65
36.862 -0.74400002 0.192 69
57.179001 -1.085 1.205 15
98.929001 -1.7589999 3.6530001 97
32.507999 -0.54900002 -1.342 64
32.367001 -0.50700003 -0.82300001 63
36.696999 -0.52899998 -0.35100001 67
37.151001 -0.491 0.23100001 67
57.108002 -0.68900001 1.26 22
122.852 -1.3380001 4.6539998 45
32.417 -0.31999999 -1.306 73
32.481998 -0.28099999 -0.79500002 48
36.999001 -0.27500001 -0.31999999 61
37.683998 -0.237 0.26800001 26
46.820999 -0.23899999 1.073 19
0 0 0 0
32.292999 -0.093000002 -1.273 65
32.304001 -0.056000002 -0.764 38
37.674999 -0.021 -0.296 50
45.313999 0.027000001 0.35800001 54
45.800999 0.079999998 1.084 58
122.745 0.359 4.842 20
32.276001 0.131 -1.249 65
32.584999 0.17 -0.74699998 39
45.250999 0.287 -0.32499999 62
44.875999 0.33899999 0.384 68
45.277 0.39199999 1.101 54
46.819 0.45699999 1.875 20
32.16 0.35699999 -1.225 62
32.320999 0.39399999 -0.722 35
44.749001 0.59600002 -0.296 57
44.532001 0.64200002 0.405 61
44.901001 0.699 1.115 69
46.112999 0.76800001 1.87 52
32.188999 0.57999998 -1.21 55
32.396999 0.61900002 -0.708 37
35.889999 0.72600001 -0.221 46
36.150002 0.76999998 0.34400001 30
33.139 0.74599999 0.83700001 22
33.081001 0.78100002 1.355 25
32.057999 0.80400002 -1.193 66
0 0 0 0
35.576 0.97000003 -0.207 41
35.905998 1.017 0.354 46
32.939999 0.97000003 0.84200001 72
32.884998 1.006 1.3559999 56
32.061001 1.03 -1.184 64
32.259998 1.071 -0.68599999 37
35.474998 1.215 -0.198 44
35.631001 1.2589999 0.359 45
32.756001 1.193 0.84299999 64
32.719002 1.228 1.355 4
31.959 1.252 -1.176 70
32.264999 1.3 -0.68199998 36
35.272999 1.457 -0.193 45
35.456001 1.502 0.36000001 44
36.203999 1.573 0.935 24
44.805 1.9960001 1.859 60
31.943001 1.477 -1.175 62
33.089001 1.5650001 -0.699 40
35.138 1.696 -0.193 44
35.342999 1.744 0.35800001 44
36.120998 1.8200001 0.93099999 46
44.618999 2.299 1.849 63
32.127998 1.7130001 -1.184 37
0 0 0 0
35.091999 1.942 -0.197 44
35.310001 1.989 0.35299999 45
35.895 2.0599999 0.92000002 44
44.487 2.599 1.837 58
31.891001 1.925 -1.183 53
31.856001 1.955 -0.68400002 13
34.993999 2.1830001 -0.204 58
35.257 2.2349999 0.34400001 44
35.870998 2.3110001 0.91000003 44
44.363998 2.904 1.8200001 53
31.858999 2.1500001 -1.192 66
31.847 2.178 -0.69400001 26
35.009998 2.4289999 -0.21699999 48
35.161999 2.474 0.33000001 53
35.867001 2.562 0.89700001 46
44.269001 3.207 1.799 62
31.959999 2.3829999 -1.21 64
31.809 2.402 -0.708 32
35.09 2.6830001 -0.234 44
35.151001 2.7219999 0.31299999 44
35.880001 2.8139999 0.88 46
44.221001 3.5120001 1.775 57
31.806 2.5969999 -1.223 60
31.906 2.6329999 -0.72899997 35
35.037998 2.9260001 -0.25400001 44
35.214001 2.974 0.29300001 39
35.924 3.069 0.86000001 46
44.166 3.816 1.747 54
31.997 2.839 -1.253 55
31.830999 2.8529999 -0.75 48
35.068001 3.1760001 -0.27900001 44
35.262001 3.227 0.26899999 44
36.029999 3.3310001 0.83700001 46
44.176998 4.1300001 1.715 57
32.030998 3.0710001 -1.28 53
31.752001 3.0710001 -0.77399999 58
35.162998 3.431 -0.308 44
35.318001 3.4779999 0.23999999 43
36.145 3.5929999 0.81 39
44.132999 4.4299998 1.677 53
31.927 3.2869999 -1.306 51
31.754 3.296 -0.80299997 70
35.254002 3.688 -0.34200001 50
35.473 3.743 0.208 42
36.327999 3.865 0.77999997 7
44.279999 4.7540002 1.642 55
31.981001 3.5179999 -1.341 47
31.749001 3.5179999 -0.83600003 69
35.567001 3.9690001 -0.382 45
35.766998 4.0229998 0.17299999 37
43.743 4.96 0.89399999 62
44.301998 5.0630002 1.596 54
31.968 3.74 -1.378 36
31.726999 3.7349999 -0.87199998 74
35.756001 4.2379999 -0.42500001 41
36.219002 4.322 0.134 35
43.839001 5.2729998 0.84600002 64
44.341999 5.375 1.5470001 51
31.9 3.9579999 -1.416 28
31.844 3.973 -0.91600001 62
36.297001 4.5570002 -0.47799999 9
44.155998 5.5830002 0.107 51
44.008999 5.6009998 0.79400003 62
44.533001 5.7080002 1.498 61
31.830999 4.1729999 -1.457 26
31.805 4.1919999 -0.95899999 72
38.194 5.0640001 -0.55500001 21
44.146 5.8860002 0.046999998 54
44.162998 5.9260001 0.736 61
44.742001 6.0440001 1.444 52
31.591 4.3629999 -1.494 14
31.863001 4.4229999 -1.0089999 61
35.159 4.9060001 -0.56400001 2
44.488998 6.243 -0.017999999 66
44.397999 6.2690001 0.67400002 70
44.990002 6.3920002 1.385 50
31.209 4.5320001 -1.527 10
31.841999 4.645 -1.0599999 61
34.354 5.0339999 -0.60600001 13
37.269001 5.4899998 -0.075000003 12
44.834999 6.6420002 0.60900003 57
45.582001 6.79 1.332 57
29.566 4.5040002 -1.499 5
31.969999 4.888 -1.12 54
0 0 0 0
36.859001 5.6859999 -0.13699999 50
36.993 5.7360001 0.44 45
46.352001 7.2259998 1.275 21
28.195 4.4910002 -1.482 5
31.961 5.1100001 -1.179 61
32.036999 5.1440001 -0.68000001 25
36.335999 5.8600001 -0.20200001 48
36.516998 5.915 0.368 48
137.39999 22.370001 3.5339999 33
27.132999 4.5139999 -1.48 5
32.116001 5.3610001 -1.248 56
32.084999 5.3740001 -0.74299997 38
36.012001 6.0580001 -0.27000001 45
36.212002 6.118 0.29499999 47
36.943001 6.2719998 0.87800002 39
26.013 4.5110002 -1.474 6
32.035999 5.573 -1.312 36
31.959 5.5770001 -0.80699998 55
36.007 6.3060002 -0.34400001 47
35.984001 6.329 0.219 41
36.507 6.448 0.79500002 49
25.316 4.5689998 -1.4910001 7
32.074001 5.803 -1.3839999 30
31.955 5.7989998 -0.87699997 64
35.839001 6.526 -0.41999999 47
35.847 6.552 0.141 46
36.203999 6.6430001 0.71100003 44
24.316999 4.5580001 -1.49 8
31.806 5.9749999 -1.446 20
32.027 6.033 -0.95200002 55
35.861 6.7779999 -0.50199997 47
35.727001 6.776 0.059999999 43
36.011002 6.8540001 0.62699997 48
23.632 4.5949998 -1.505 14
0 0 0 0
32.064999 6.263 -1.031 61
35.654999 6.9829998 -0.58399999 47
35.786999 7.033 -0.022 43
35.896 7.079 0.54100001 47
22.747999 4.5809999 -1.507 16
28.468 5.744 -1.436 4
32.099998 6.4910002 -1.112 56
32.166 6.52 -0.60600001 5
35.727001 7.2620001 -0.11 42
35.911999 7.3239999 0.454 47
21.941 4.5689998 -1.512 18
27.231001 5.6799998 -1.4450001 5
32.396999 6.7709999 -1.207 52
32.188 6.744 -0.69 25
35.821999 7.5240002 -0.20200001 46
35.902 7.5650001 0.36300001 48
21.219999 4.5669999 -1.521 17
25.992001 5.6009998 -1.451 6
32.296001 6.9699998 -1.29 31
32.153 6.954 -0.77499998 49
35.805 7.7620001 -0.296 48
35.918999 7.8070002 0.27000001 48
20.476999 4.5469999 -1.527 16
24.929001 5.54 -1.462 7
32.316002 7.1919999 -1.38 35
32.216 7.1830001 -0.86500001 58
35.978001 8.04 -0.39700001 48
36.091999 8.0869999 0.17200001 38
19.716 4.513 -1.53 15
23.927999 5.4829998 -1.475 11
31.919001 7.3239999 -1.459 11
32.271999 7.4159999 -0.96100003 61
36.168999 8.3269997 -0.50199997 49
36.257999 8.368 0.068999998 41
18.993999 4.4780002 -1.533 14
22.945 5.414 -1.485 15
29.656 7.006 -1.446 5
32.476002 7.684 -1.066 40
36.021999 8.5380001 -0.61000001 50
36.479 8.6639996 -0.037999999 49
18.332001 4.448 -1.539 13
21.989 5.3379998 -1.493 18
27.669001 6.7220001 -1.4349999 4
32.548 7.9159999 -1.168 40
32.355999 7.882 -0.64499998 16
50.570999 12.344 -0.205 23
17.636 4.3990002 -1.54 12
21.113001 5.2690001 -1.503 17
26.198999 6.5430002 -1.4450001 5
32.683998 8.1709995 -1.28 41
32.539001 8.1450005 -0.75300002 40
49.873001 12.507 -0.361 12
16.992001 4.3540001 -1.5420001 11
20.233999 5.1859999 -1.51 15
24.941999 6.3940001 -1.459 7
32.577999 8.3590002 -1.383 17
32.568001 8.3660002 -0.86000001 49
42.134998 10.841 -0.44100001 1
16.363001 4.303 -1.543 10
19.417999 5.1059999 -1.517 14
23.665001 6.2249999 -1.466 8
0 0 0 0
32.790001 8.6379995 -0.97600001 40
36.266998 9.5679998 -0.49900001 2
15.818 4.2670002 -1.55 12
18.606001 5.0159998 -1.52 13
22.629 6.1009998 -1.4809999 17
28.695999 7.7399998 -1.416 4
32.799 8.8540001 -1.089 40
32.931 8.901 -0.56599998 1
15.339 4.2389998 -1.5599999 14
17.837999 4.927 -1.523 12
21.681999 5.987 -1.498 18
26.85 7.4180002 -1.4220001 4
32.941002 9.1090002 -1.2130001 37
32.890999 9.1040001 -0.68099999 37
14.97 4.2379999 -1.581 33
17.115999 4.842 -1.527 11
20.645 5.8379998 -1.505 16
25.454 7.1999998 -1.443 5
32.926998 9.3179998 -1.334 26
32.866001 9.3100004 -0.80199999 55
14.505 4.2030001 -1.59 24
16.415001 4.7519999 -1.529 11
19.721001 5.7059999 -1.5140001 15
24.039 6.9559999 -1.454 7
0 0 0 0
32.966 9.5509996 -0.92699999 41
14.006 4.151 -1.592 14
15.665 4.638 -1.522 18
18.764 5.553 -1.516 14
22.693001 6.7129998 -1.462 9
29.065001 8.6009998 -1.399 4
33.143002 9.8140001 -1.059 42
13.535 4.1020002 -1.596 10
15.201 4.6009998 -1.541 50
17.917 5.4190001 -1.521 13
21.768 6.5809999 -1.49 13
26.909 8.1350002 -1.403 4
33.438 10.113 -1.199 43
13.128 4.0650001 -1.605 11
14.77 4.5669999 -1.5599999 62
17.136 5.2940001 -1.526 12
20.674 6.3839998 -1.501 16
25.292999 7.8080001 -1.4220001 5
33.266998 10.273 -1.3279999 16
12.736 4.027 -1.613 10
14.295 4.513 -1.572 69
16.389999 5.1680002 -1.529 11
19.658001 6.1929998 -1.5089999 15
24.118999 7.5970001 -1.456 6
31.583 9.948 -1.3890001 6
12.378 3.994 -1.623 10
13.861 4.4640002 -1.585 69
15.778 5.0749998 -1.541 10
18.690001 6.006 -1.515 14
22.615 7.2649999 -1.46 9
28.813 9.2550001 -1.388 3
12.05 3.9660001 -1.635 10
13.417 4.4070001 -1.595 66
15.189 4.9819999 -1.551 9
17.83 5.842 -1.524 13
21.549999 7.0570002 -1.4859999 11
26.687 8.7360001 -1.4 4
11.694 3.924 -1.642 10
12.954 4.3379998 -1.6 79
14.627 4.8899999 -1.5599999 8
16.941 5.6570001 -1.524 12
20.445999 6.8210001 -1.499 13
24.916 8.3100004 -1.415 5
11.37 3.888 -1.652 10
12.552 4.2820001 -1.61 71
14.109 4.8060002 -1.571 10
16.174 5.5009999 -1.529 10
19.284 6.553 -1.501 14
23.606001 8.0170002 -1.447 7
11.058 3.852 -1.66 10
12.254 4.2579999 -1.631 63
13.478 4.6739998 -1.5650001 17
15.365 5.3200002 -1.524 30
18.372 6.355 -1.5140001 13
22.243 7.6890001 -1.464 10
10.762 3.8169999 -1.67 10
11.933 4.2210002 -1.646 46
13.006 4.5910001 -1.572 31
14.985 5.2800002 -1.557 47
17.473 6.1490002 -1.522 12
21.023001 7.3920002 -1.4809999 12
10.48 3.7820001 -1.679 10
11.58 4.1690001 -1.656 27
12.704 4.5619998 -1.598 46
14.495 5.1960001 -1.577 34
16.615999 5.947 -1.527 11
19.944 7.131 -1.498 11
10.194 3.743 -1.686 9
11.21 4.1040001 -1.66 16
12.346 4.5079999 -1.615 62
13.899 5.0640001 -1.58 11
15.804 5.7490001 -1.528 10
18.867001 6.8559999 -1.507 14
9.9160004 3.7030001 -1.693 9
10.838 4.0339999 -1.661 11
11.986 4.4489999 -1.6289999 72
13.376 4.9530001 -1.587 8
14.987 5.54 -1.523 40
17.882999 6.6020002 -1.5140001 13
9.6440001 3.6589999 -1.698 9
10.539 3.9860001 -1.67 10
11.627 4.3839998 -1.64 63
12.918 4.8600001 -1.599 9
14.605 5.4840002 -1.557 67
16.952999 6.3569999 -1.52 12
9.382 3.6170001 -1.7029999 10
10.24 3.934 -1.677 10
11.273 4.3179998 -1.649 61
12.484 4.77 -1.61 9
14.063 5.362 -1.572 68
16.167999 6.1539998 -1.531 11
9.1300001 3.575 -1.7079999 10
9.9549999 3.8829999 -1.6849999 10
10.929 4.2490001 -1.6569999 63
12.047 4.6719999 -1.6160001 10
13.652 5.283 -1.595 54
15.478 5.9780002 -1.543 10
8.8950005 3.536 -1.714 10
9.6800003 3.8329999 -1.691 10
10.65 4.2030001 -1.6720001 62
11.575 4.5549998 -1.614 24
13.14 5.158 -1.604 24
14.816 5.8049998 -1.554 9
8.6689997 3.4979999 -1.72 10
9.4090004 3.7809999 -1.697 9
10.415 4.1700001 -1.692 43
11.291 4.507 -1.635 46
12.627 5.027 -1.608 10
14.033 5.5749998 -1.545 26
8.4580002 3.4619999 -1.727 10
9.1499996 3.7290001 -1.702 10
10.081 4.0939999 -1.694 18
11.012 4.4580002 -1.656 59
12.153 4.9060001 -1.613 9
13.652 5.4980001 -1.575 46
8.2449999 3.4230001 -1.732 10
8.9099998 3.6830001 -1.709 10
9.7299995 4.006 -1.6900001 10
10.685 4.3850002 -1.665 56
11.798 4.8270001 -1.631 9
13.165 5.3740001 -1.591 61
8.0419998 3.3859999 -1.738 10
8.6689997 3.6329999 -1.714 10
9.4460001 3.9419999 -1.696 10
10.36 4.3080001 -1.673 58
11.396 4.7249999 -1.638 9
12.708 5.2540002 -1.604 56
7.8400002 3.346 -1.742 9
8.4510002 3.589 -1.72 10
9.1879997 3.885 -1.702 10
10.05 4.2329998 -1.6799999 59
10.997 4.6170001 -1.643 10
12.353 5.1729999 -1.627 30
7.6599998 3.312 -1.748 9
8.2399998 3.5439999 -1.726 11
8.934 3.826 -1.707 10
9.783 4.1729999 -1.691 54
10.633 4.5190001 -1.648 27
11.892 5.04 -1.632 10
7.4720001 3.2720001 -1.751 9
8.0419998 3.503 -1.734 10
8.7069998 3.7750001 -1.715 10
9.5939999 4.1430001 -1.715 35
10.37 4.461 -1.666 51
11.468 4.9180002 -1.638 9
7.2950001 3.234 -1.755 9
7.8460002 3.46 -1.739 10
8.4709997 3.7179999 -1.719 9
9.2119999 4.0240002 -1.7 10
10.091 4.3920002 -1.679 57
11.107 4.8189998 -1.649 9
7.1279998 3.1989999 -1.7589999 9
7.6479998 3.4130001 -1.742 9
8.2620001 3.668 -1.727 10
8.9610004 3.961 -1.707 10
9.8050003 4.316 -1.689 56
10.758 4.7199998 -1.658 9
6.9640002 3.1630001 -1.763 9
7.4660001 3.3710001 -1.747 10
8.0629997 3.6210001 -1.734 10
8.7229996 3.8989999 -1.714 10
9.5860004 4.2670002 -1.707 41
10.424 4.6230001 -1.6670001 9
6.8039999 3.125 -1.767 9
7.29 3.3280001 -1.751 9
7.8600001 3.569 -1.738 10
8.4870005 3.835 -1.7180001 10
9.25 4.1620002 -1.701 11
10.061 4.5100002 -1.6670001 27
6.6469998 3.0869999 -1.7690001 9
7.1139998 3.2839999 -1.7539999 9
7.6739998 3.5220001 -1.745 10
8.2740002 3.779 -1.725 9
8.9779997 4.0819998 -1.705 10
9.8059998 4.441 -1.682 48
6.4970002 3.0510001 -1.771 9
6.9450002 3.24 -1.756 9
7.48 3.4690001 -1.747 10
8.0760002 3.7260001 -1.732 10
8.7419996 4.0139999 -1.711 10
9.6020002 4.3909998 -1.702 38
6.3559999 3.016 -1.774 9
6.8000002 3.2049999 -1.763 9
7.3119998 3.425 -1.753 9
7.8779998 3.671 -1.738 9
8.5109997 3.9460001 -1.717 9
9.2860003 4.2870002 -1.701 12
6.2379999 2.9909999 -1.7819999 9
6.6469998 3.165 -1.766 9
7.138 3.3770001 -1.756 9
7.677 3.6110001 -1.74 10
8.3000002 3.885 -1.724 9
9.007 4.197 -1.7029999 9
6.0669999 2.938 -1.773 9
6.4970002 3.1240001 -1.768 9
6.967 3.3280001 -1.758 9
7.494 3.559 -1.7460001 10
8.0979996 3.825 -1.7309999 10
8.7659998 4.1209998 -1.71 10
5.9429998 2.905 -1.776 9
6.355 3.0840001 -1.77 8
6.8109999 3.283 -1.762 9
7.3239999 3.5090001 -1.751 9
7.8990002 3.7639999 -1.737 9
8.533 4.046 -1.715 9
5.8210001 2.872 -1.779 9
6.191 3.0320001 -1.765 10
6.6680002 3.243 -1.767 9
7.1529999 3.457 -1.7539999 9
7.7049999 3.7030001 -1.74 9
8.3190002 3.9779999 -1.721 9
5.698 2.8369999 -1.78 9
6.1100001 3.0190001 -1.7819999 8
6.5110002 3.194 -1.766 9
6.987 3.405 -1.757 9
7.5159998 3.642 -1.744 9
8.1230001 3.9159999 -1.729 9
5.585 2.806 -1.7819999 10
5.941 2.961 -1.771 9
6.3850002 3.1589999 -1.773 9
6.8369999 3.359 -1.761 9
7.348 3.5880001 -1.749 9
7.927 3.8499999 -1.734 9
5.4699998 2.7709999 -1.7819999 9
5.829 2.928 -1.776 9
6.263 3.1229999 -1.779 9
6.6919999 3.313 -1.766 9
7.1750002 3.53 -1.752 9
7.73 3.7820001 -1.738 9
5.3660002 2.74 -1.784 10
5.7059999 2.8900001 -1.776 9
6.0939999 3.062 -1.77 10
6.5469999 3.266 -1.7690001 9
7.013 3.4760001 -1.755 9
7.5580001 3.724 -1.744 9
5.2719998 2.714 -1.788 9
5.5900002 2.852 -1.776 10
5.9809999 3.027 -1.775 10
6.4089999 3.22 -1.771 9
6.8649998 3.4260001 -1.76 9
7.3829999 3.6630001 -1.748 10
5.1680002 2.6800001 -1.788 9
5.4889998 2.8210001 -1.78 9
5.8569999 2.9860001 -1.776 10
6.277 3.1760001 -1.774 9
6.7270002 3.3800001 -1.766 9
7.211 3.5999999 -1.75 9
5.0760002 2.652 -1.79 9
5.3730001 2.7809999 -1.778 9
5.7389998 2.9449999 -1.777 10
6.164 3.1389999 -1.781 9
6.5900002 3.332 -1.77 9
7.0560002 3.5450001 -1.755 9
4.973 2.6170001 -1.788 9
5.276 2.7490001 -1.78 9
5.6300001 2.908 -1.779 10
6.0089998 3.079 -1.773 9
6.4559999 3.2839999 -1.773 9
6.9109998 3.4920001 -1.76 9
4.8909998 2.5899999 -1.791 9
5.1810002 2.717 -1.7819999 9
5.5240002 2.8710001 -1.781 9
5.895 3.039 -1.776 10
6.3150001 3.2309999 -1.773 8
6.7639999 3.437 -1.763 9
4.8080001 2.563 -1.793 9
5.0960002 2.6889999 -1.786 9
5.4229999 2.835 -1.7819999 10
5.7789998 2.9960001 -1.777 10
6.1669998 3.1719999 -1.768 9
6.6230001 3.3829999 -1.765 9
4.7270002 2.5350001 -1.794 9
5.0079999 2.6570001 -1.788 9
5.3280001 2.8010001 -1.785 10
5.665 2.9530001 -1.777 9
6.0479999 3.1270001 -1.771 9
6.5009999 3.3369999 -1.771 9
4.6500001 2.5079999 -1.7970001 10
4.9120002 2.6210001 -1.786 9
5.224 2.7609999 -1.784 9
5.5650001 2.915 -1.78 9
5.9239998 3.0780001 -1.77 10
6.3319998 3.2650001 -1.763 10
4.5689998 2.4779999 -1.796 9
4.8340001 2.5929999 -1.789 9
5.1370001 2.7279999 -1.786 9
5.4569998 2.872 -1.779 10
5.8299999 3.043 -1.777 10
6.197 3.21 -1.761 9
4.4910002 2.447 -1.795 10
4.7610002 2.566 -1.7920001 10
5.0500002 2.694 -1.7869999 9
5.3610001 2.8329999 -1.78 9
5.711 2.993 -1.775 9
6.0900002 3.1670001 -1.766 10
4.4219999 2.4219999 -1.796 10
4.6760001 2.5320001 -1.79 11
4.9679999 2.6619999 -1.789 11
5.27 2.7969999 -1.7819999 9
5.619 2.9560001 -1.779 10
5.9749999 3.118 -1.767 10
4.3520002 2.3940001 -1.796 9
4.6160002 2.51 -1.796 10
4.8860002 2.628 -1.79 10
5.1830001 2.7609999 -1.783 9
5.506 2.9070001 -1.775 9
5.8759999 3.076 -1.771 9
4.2880001 2.368 -1.7970001 9
4.5359998 2.4760001 -1.793 10
4.8130002 2.599 -1.7920001 10
5.1040001 2.7279999 -1.786 9
5.4260001 2.8729999 -1.78 10
5.7740002 3.0320001 -1.773 10
4.2270002 2.3429999 -1.798 10
4.4749999 2.451 -1.796 10
4.7399998 2.5680001 -1.793 9
5.0279999 2.6949999 -1.788 9
5.3379998 2.835 -1.7819999 9
5.6739998 2.987 -1.773 10
4.178 2.3239999 -1.804 9
4.401 2.418 -1.793 9
4.6739998 2.539 -1.795 10
4.9450002 2.658 -1.7869999 10
5.2490001 2.7950001 -1.7819999 9
5.5780001 2.9430001 -1.774 9
4.118 2.2980001 -1.803 9
4.3429999 2.3929999 -1.796 10
4.6009998 2.506 -1.794 10
4.8740001 2.6259999 -1.789 10
5.1719999 2.7590001 -1.784 9
5.487 2.901 -1.774 9
4.0650001 2.2739999 -1.8049999 9
4.2800002 2.3640001 -1.795 11
4.5450001 2.4809999 -1.798 10
4.8070002 2.595 -1.791 10
5.0949998 2.723 -1.785 9
5.4089999 2.8640001 -1.778 10
4.0120001 2.25 -1.8049999 9
4.2309999 2.342 -1.799 11
4.4819999 2.451 -1.798 11
4.7340002 2.5599999 -1.79 10
5.0180001 2.6860001 -1.785 10
5.3189998 2.8199999 -1.776 10
3.9519999 2.221 -1.802 11
4.1750002 2.3150001 -1.799 11
4.4169998 2.4189999 -1.7970001 11
4.677 2.533 -1.794 11
4.9320002 2.642 -1.78 11
5.2389998 2.78 -1.776 10
3.901 2.1960001 -1.801 13
4.1300001 2.293 -1.802 10
4.3569999 2.3889999 -1.796 11
4.6209998 2.5050001 -1.7970001 10
4.8839998 2.619 -1.788 10
5.1690001 2.7449999 -1.779 10
3.8599999 2.1760001 -1.804 13
4.0780001 2.267 -1.802 10
4.303 2.362 -1.7970001 10
4.553 2.4690001 -1.794 10
4.7969999 2.573 -1.781 10
5.0999999 2.7079999 -1.78 9
3.8139999 2.152 -1.804 13
4.0349998 2.244 -1.8049999 11
4.2519999 2.335 -1.7970001 11
4.4970002 2.4389999 -1.794 10
4.7519999 2.549 -1.7869999 10
5.0320001 2.6719999 -1.781 10
3.7690001 2.1270001 -1.802 12
3.971 2.21 -1.7970001 16
4.2059999 2.309 -1.799 11
4.448 2.4119999 -1.7970001 10
4.697 2.5190001 -1.789 11
4.967 2.6359999 -1.781 10
3.727 2.1040001 -1.802 13
3.9400001 2.1919999 -1.803 17
4.1589999 2.283 -1.8 10
4.395 2.382 -1.7970001 10
4.6420002 2.487 -1.79 10
4.895 2.595 -1.778 10
3.6900001 2.082 -1.803 13
3.8959999 2.1659999 -1.802 16
4.118 2.2590001 -1.802 10
4.3410001 2.3510001 -1.795 10
4.5939999 2.4590001 -1.7920001 10
4.8470001 2.5669999 -1.7819999 10
3.654 2.0610001 -1.804 13
3.8510001 2.1400001 -1.8 15
4.0689998 2.2290001 -1.8 13
4.3039999 2.3280001 -1.799 10
4.54 2.4260001 -1.7920001 10
4.7839999 2.529 -1.78 10
3.631 2.046 -1.8099999 12
3.8210001 2.1199999 -1.804 16
4.026 2.2030001 -1.799 18
4.2490001 2.2950001 -1.795 10
4.4959998 2.3989999 -1.794 11
4.7470002 2.5039999 -1.786 11
3.599 2.0250001 -1.811 8
3.7820001 2.095 -1.803 16
3.9909999 2.1800001 -1.801 17
4.2119999 2.27 -1.7970001 10
4.4559999 2.372 -1.796 9
4.7069998 2.477 -1.79 10
3.5699999 2.0050001 -1.812 8
3.744 2.0699999 -1.8 18
3.9489999 2.152 -1.798 15
4.165 2.2390001 -1.795 10
4.4130001 2.3429999 -1.7970001 11
4.6589999 2.4449999 -1.791 11
3.5439999 1.9859999 -1.814 8
3.7279999 2.056 -1.809 15
3.9260001 2.1329999 -1.804 15
4.1220002 2.21 -1.7920001 16
4.3660002 2.3110001 -1.795 10
4.6129999 2.4130001 -1.79 10
3.52 1.967 -1.816 8
3.7 2.0350001 -1.8099999 11
3.8859999 2.105 -1.801 16
4.1009998 2.191 -1.799 24
4.329 2.2839999 -1.795 10
4.5739999 2.3840001 -1.7920001 10
3.49 1.9450001 -1.8150001 8
