# .PCD v0.7 - Point Cloud Data file format
VERSION 0.7
FIELDS x y z intensity
SIZE 4 4 4 4
TYPE F F F F
COUNT 1 1 1 1
WIDTH 1713
HEIGHT 1
VIEWPOINT 0 0 0 1 0 0 0
POINTS 1713
DATA ascii
17.267 -0.023 -1.543 11
20.252001 -0.022 -1.512 15
24.308001 -0.021 -1.459 12
30.507 -0.02 -1.387 4
34.203999 -0.014 -1.059 41
14.477 -0.033 -1.61 10
16.228001 -0.034000002 -1.564 9
18.674 -0.034000002 -1.526 12
22.125 -0.035 -1.484 17
26.875999 -0.035999998 -1.411 6
34.125999 -0.037 -1.296 34
13.799 -0.044 -1.632 9
15.318 -0.045000002 -1.584 8
17.41 -0.046 -1.545 11
20.417999 -0.048999999 -1.513 15
24.405001 -0.052999999 -1.451 11
30.875 -0.057999998 -1.387 4
13.158 -0.055 -1.65 9
14.513 -0.057 -1.604 9
16.362 -0.059 -1.566 9
18.799 -0.063000001 -1.523 13
22.353001 -0.068999998 -1.485 17
27.173 -0.075999998 -1.409 5
12.574 -0.066 -1.665 9
13.824 -0.068999998 -1.625 10
15.429 -0.071999997 -1.584 8
17.518999 -0.077 -1.541 11
20.561001 -0.083999999 -1.507 15
24.657 -0.093999997 -1.447 11
12.043 -0.078000002 -1.679 9
13.185 -0.081 -1.641 10
14.622 -0.086000003 -1.603 10
16.490999 -0.092 -1.564 10
19.02 -0.098999999 -1.524 13
22.552999 -0.111 -1.478 17
11.55 -0.090000004 -1.691 10
12.62 -0.093999997 -1.659 9
13.936 -0.1 -1.625 10
15.517 -0.106 -1.58 8
17.653 -0.114 -1.5369999 11
20.732 -0.12800001 -1.502 15
11.082 -0.103 -1.701 9
12.082 -0.108 -1.673 10
13.295 -0.114 -1.642 11
14.727 -0.121 -1.601 9
16.709999 -0.131 -1.569 20
19.136 -0.14399999 -1.517 13
10.662 -0.115 -1.711 9
11.581 -0.121 -1.6849999 10
12.715 -0.12800001 -1.659 10
14.014 -0.13600001 -1.6210001 10
15.744 -0.147 -1.587 19
17.502001 -0.15700001 -1.508 36
10.259 -0.12800001 -1.719 9
11.121 -0.134 -1.6950001 9
12.179 -0.142 -1.673 10
13.39 -0.15099999 -1.64 10
14.931 -0.163 -1.608 23
16.745001 -0.177 -1.557 78
9.8830004 -0.141 -1.726 10
10.7 -0.148 -1.707 9
11.674 -0.15700001 -1.686 10
12.794 -0.167 -1.656 10
14.214 -0.18000001 -1.6289999 23
15.818 -0.19400001 -1.579 65
9.5509996 -0.155 -1.7359999 9
10.3 -0.162 -1.715 9
11.214 -0.17200001 -1.698 10
12.251 -0.182 -1.67 9
13.565 -0.19599999 -1.647 69
14.94 -0.20999999 -1.594 72
9.2360001 -0.168 -1.743 10
9.9399996 -0.176 -1.724 10
10.786 -0.18700001 -1.707 10
11.762 -0.198 -1.6849999 10
12.935 -0.212 -1.66 77
14.231 -0.227 -1.6160001 71
8.9239998 -0.182 -1.748 10
9.5950003 -0.191 -1.732 10
10.38 -0.20100001 -1.715 10
11.311 -0.214 -1.699 10
12.373 -0.229 -1.673 80
13.589 -0.245 -1.635 75
8.6440001 -0.19499999 -1.7539999 10
9.2690001 -0.205 -1.738 9
10.018 -0.21600001 -1.724 10
10.869 -0.229 -1.706 10
11.932 -0.24600001 -1.694 66
12.982 -0.26199999 -1.65 69
8.3850002 -0.20900001 -1.76 9
8.9729996 -0.219 -1.745 9
9.6759996 -0.23100001 -1.733 10
10.467 -0.245 -1.715 10
11.384 -0.26100001 -1.693 10
12.481 -0.28 -1.671 59
8.1289997 -0.223 -1.7640001 9
8.6960001 -0.234 -1.751 9
9.3660002 -0.24699999 -1.7410001 9
10.115 -0.26100001 -1.726 10
10.945 -0.27599999 -1.702 10
12.003 -0.29699999 -1.686 56
7.9029999 -0.237 -1.77 9
8.4370003 -0.248 -1.757 9
9.0620003 -0.26100001 -1.747 10
9.7709999 -0.27700001 -1.733 10
10.571 -0.29300001 -1.715 10
11.519 -0.31299999 -1.696 14
7.6589999 -0.25 -1.768 12
8.1929998 -0.26300001 -1.763 9
8.7799997 -0.27599999 -1.752 10
9.4289999 -0.29100001 -1.737 10
10.198 -0.30899999 -1.723 10
11.06 -0.329 -1.701 10
7.473 -0.26499999 -1.777 18
7.948 -0.27700001 -1.765 9
8.5100002 -0.29100001 -1.757 10
9.1269999 -0.30700001 -1.743 10
9.8459997 -0.32499999 -1.729 9
10.657 -0.34599999 -1.71 10
7.302 -0.28 -1.7869999 9
7.7410002 -0.292 -1.772 9
8.2700005 -0.30700001 -1.763 10
8.8610001 -0.32300001 -1.752 9
9.5360003 -0.34200001 -1.739 10
10.3 -0.36300001 -1.722 10
7.0679998 -0.29300001 -1.779 13
7.5370002 -0.30700001 -1.777 9
8.0340004 -0.322 -1.768 9
8.5970001 -0.33899999 -1.757 10
9.2329998 -0.35800001 -1.744 10
9.9379997 -0.37900001 -1.727 10
6.9029999 -0.308 -1.786 9
7.3449998 -0.322 -1.7819999 9
7.816 -0.33700001 -1.772 10
8.3529997 -0.35499999 -1.763 10
8.9560003 -0.37400001 -1.751 10
9.6239996 -0.396 -1.735 10
6.7509999 -0.32300001 -1.793 9
7.1570001 -0.33700001 -1.785 9
7.6259999 -0.35299999 -1.78 10
8.1169996 -0.37 -1.767 10
8.6879997 -0.38999999 -1.755 10
9.3389997 -0.41299999 -1.743 10
6.5949998 -0.33700001 -1.7970001 10
6.9879999 -0.352 -1.79 9
7.4219999 -0.368 -1.7819999 24
7.8979998 -0.38600001 -1.771 10
8.4460001 -0.40599999 -1.762 10
9.0530005 -0.42899999 -1.748 10
6.434 -0.35100001 -1.7970001 9
6.803 -0.366 -1.788 10
7.2509999 -0.384 -1.79 9
7.6700001 -0.40000001 -1.771 14
8.2159996 -0.42300001 -1.767 10
8.7889996 -0.44600001 -1.7539999 10
6.2940001 -0.366 -1.8 10
6.645 -0.38100001 -1.7920001 12
7.027 -0.39700001 -1.781 16
7.4860001 -0.417 -1.777 15
7.9889998 -0.43900001 -1.77 10
8.5299997 -0.46200001 -1.757 10
6.151 -0.38 -1.802 10
6.506 -0.396 -1.798 10
6.8759999 -0.41299999 -1.788 20
7.3060002 -0.433 -1.7819999 11
7.783 -0.45500001 -1.775 10
8.309 -0.479 -1.7640001 10
6.0209999 -0.39500001 -1.804 10
6.3309999 -0.40900001 -1.7920001 21
6.7290001 -0.42899999 -1.794 18
7.1259999 -0.44800001 -1.784 11
7.599 -0.472 -1.7819999 10
8.0880003 -0.49599999 -1.7690001 10
5.8969998 -0.41 -1.807 9
6.2020001 -0.42500001 -1.7970001 21
6.5689998 -0.44400001 -1.794 10
6.9710002 -0.465 -1.791 10
7.4029999 -0.48800001 -1.783 10
7.8930001 -0.51300001 -1.776 10
5.7550001 -0.42300001 -1.802 15
6.0929999 -0.44100001 -1.8049999 15
6.4239998 -0.45899999 -1.7970001 12
6.796 -0.47999999 -1.79 10
7.2319999 -0.50400001 -1.7869999 11
7.658 -0.52700001 -1.771 14
5.6500001 -0.43799999 -1.807 18
5.96 -0.456 -1.806 10
6.29 -0.47499999 -1.8 10
6.658 -0.49599999 -1.796 11
7.0510001 -0.51899999 -1.7869999 11
7.4819999 -0.54400003 -1.777 22
5.5609999 -0.45500001 -1.816 18
5.8239999 -0.47 -1.803 15
6.1609998 -0.491 -1.803 10
6.5100002 -0.51200002 -1.7970001 10
6.8860002 -0.53500003 -1.789 22
7.309 -0.56099999 -1.781 12
5.454 -0.46900001 -1.818 10
5.7199998 -0.486 -1.808 11
6.052 -0.50700003 -1.8099999 12
6.3779998 -0.528 -1.801 10
6.7490001 -0.55199999 -1.795 20
7.1350002 -0.57700002 -1.7819999 11
5.3470001 -0.48300001 -1.817 11
5.612 -0.50099999 -1.8099999 12
5.9239998 -0.52200001 -1.809 12
6.2340002 -0.54299998 -1.799 23
6.592 -0.56699997 -1.794 11
6.9809999 -0.59399998 -1.7869999 11
5.243 -0.498 -1.817 10
5.5139999 -0.51700002 -1.814 11
5.816 -0.53799999 -1.813 11
6.131 -0.56099999 -1.808 19
6.415 -0.57999998 -1.785 14
6.8249998 -0.61000001 -1.788 11
5.1539998 -0.51300001 -1.8200001 10
5.4130001 -0.53200001 -1.816 10
5.6960001 -0.55299997 -1.812 12
6.0040002 -0.57599998 -1.808 10
6.3330002 -0.60100001 -1.801 11
6.6939998 -0.62800002 -1.794 10
5.0599999 -0.528 -1.819 10
5.3179998 -0.54699999 -1.817 10
5.5830002 -0.56699997 -1.811 22
5.8870001 -0.59100002 -1.809 11
6.1919999 -0.61500001 -1.798 17
6.5489998 -0.64300001 -1.794 12
4.9809999 -0.54299998 -1.823 11
5.223 -0.56199998 -1.818 10
5.4980001 -0.58499998 -1.817 17
5.7680001 -0.60600001 -1.807 20
6.092 -0.63300002 -1.8049999 12
6.4169998 -0.66000003 -1.795 10
4.8870001 -0.55699998 -1.8200001 9
5.1329999 -0.57700002 -1.819 11
5.3990002 -0.60000002 -1.818 12
5.658 -0.62099999 -1.807 13
5.9840002 -0.64999998 -1.809 11
6.309 -0.67799997 -1.802 19
4.8200002 -0.57300001 -1.826 11
5.0539999 -0.59299999 -1.823 20
5.3099999 -0.616 -1.8200001 11
5.572 -0.639 -1.813 11
5.8499999 -0.66299999 -1.803 12
6.1859999 -0.69400001 -1.802 23
4.7529998 -0.58899999 -1.831 10
4.974 -0.60900003 -1.825 19
5.2080002 -0.63 -1.817 14
5.4829998 -0.65600002 -1.816 10
5.7750001 -0.68300003 -1.813 12
6.0890002 -0.71200001 -1.809 15
4.678 -0.60399997 -1.832 10
4.9029999 -0.625 -1.829 17
5.1409998 -0.64700001 -1.825 11
5.3930001 -0.671 -1.818 11
5.6739998 -0.699 -1.814 16
5.9460001 -0.72500002 -1.8 12
4.6079998 -0.61900002 -1.8329999 10
4.8169999 -0.639 -1.826 11
5.0669999 -0.66399997 -1.829 11
5.3039999 -0.68699998 -1.819 11
5.5630002 -0.713 -1.811 22
5.848 -0.74199998 -1.803 11
4.5430002 -0.63499999 -1.836 10
4.7410002 -0.65399998 -1.826 10
4.98 -0.67900002 -1.827 11
5.2270002 -0.70499998 -1.824 12
5.4899998 -0.73199999 -1.818 15
5.756 -0.75999999 -1.807 16
4.474 -0.64999998 -1.835 9
4.677 -0.67000002 -1.83 11
4.9089999 -0.69499999 -1.83 10
5.1440001 -0.72000003 -1.824 17
5.3899999 -0.74699998 -1.816 12
5.652 -0.77499998 -1.806 11
4.4120002 -0.66500002 -1.837 10
4.6149998 -0.68699998 -1.834 11
4.8309999 -0.70999998 -1.829 11
5.0599999 -0.736 -1.823 20
5.309 -0.764 -1.818 11
5.5819998 -0.79500002 -1.813 13
4.3530002 -0.68000001 -1.839 9
4.552 -0.70300001 -1.835 10
4.7600002 -0.72600001 -1.83 11
4.9879999 -0.75199997 -1.825 18
5.237 -0.78100002 -1.822 12
5.4920001 -0.81099999 -1.814 11
4.296 -0.69599998 -1.841 9
4.4899998 -0.71799999 -1.837 10
4.6960001 -0.74199998 -1.832 11
4.914 -0.76800001 -1.825 18
5.1589999 -0.79799998 -1.823 11
5.408 -0.82800001 -1.814 11
4.2410002 -0.71200001 -1.8430001 9
4.4320002 -0.73400003 -1.839 10
4.638 -0.759 -1.835 10
4.849 -0.78500003 -1.8279999 11
5.0890002 -0.815 -1.825 11
5.3330002 -0.84500003 -1.817 11
4.184 -0.72600001 -1.8430001 9
4.3720002 -0.74900001 -1.839 10
4.5840001 -0.77600002 -1.839 11
4.79 -0.80199999 -1.831 10
5.0190001 -0.83200002 -1.826 10
5.2610002 -0.86299998 -1.8200001 11
4.1290002 -0.741 -1.842 9
4.3239999 -0.76599997 -1.8430001 10
4.5219998 -0.792 -1.839 10
4.7249999 -0.81800002 -1.832 10
4.961 -0.85000002 -1.831 11
5.1810002 -0.87900001 -1.818 15
4.073 -0.755 -1.841 9
4.2709999 -0.78200001 -1.844 10
4.4660001 -0.80800003 -1.84 10
4.6620002 -0.833 -1.831 10
4.9000001 -0.86699998 -1.8329999 15
5.1300001 -0.89899999 -1.826 17
4.0279999 -0.77100003 -1.8430001 8
4.2140002 -0.796 -1.8430001 10
4.4130001 -0.824 -1.842 10
4.6059999 -0.85000002 -1.834 11
4.829 -0.88200003 -1.831 11
5.0609999 -0.91500002 -1.826 13
3.984 -0.787 -1.846 9
4.165 -0.81199998 -1.844 10
4.3569999 -0.83899999 -1.842 10
4.5560002 -0.86799997 -1.837 10
4.7620001 -0.89700001 -1.829 11
4.9910002 -0.93099999 -1.825 10
3.9449999 -0.80400002 -1.85 8
4.118 -0.82800001 -1.846 9
4.3119998 -0.85699999 -1.846 10
4.507 -0.88599998 -1.84 10
4.7010002 -0.91399997 -1.829 11
4.934 -0.949 -1.8279999 10
3.891 -0.81699997 -1.846 8
4.0749998 -0.84500003 -1.848 10
4.2579999 -0.87199998 -1.844 9
4.4489999 -0.90100002 -1.839 11
4.6529999 -0.93199998 -1.8329999 10
4.8800001 -0.96799999 -1.83 11
3.8599999 -0.83499998 -1.852 9
4.0250001 -0.85900003 -1.846 9
4.2129998 -0.88800001 -1.846 10
4.4060001 -0.91900003 -1.842 10
4.592 -0.94700003 -1.831 10
4.8210001 -0.98500001 -1.83 10
3.822 -0.85100001 -1.854 8
3.98 -0.875 -1.847 10
4.1700001 -0.90499997 -1.848 10
4.3520002 -0.93400002 -1.84 10
4.5549998 -0.96700001 -1.837 9
4.7670002 -1.002 -1.831 10
3.7880001 -0.86699998 -1.858 8
3.9389999 -0.89099997 -1.848 8
4.1279998 -0.92199999 -1.85 9
4.316 -0.95300001 -1.846 10
4.507 -0.98400003 -1.8380001 10
4.7140002 -1.0190001 -1.832 10
3.744 -0.88200003 -1.8559999 8
3.895 -0.90499997 -1.846 9
4.0819998 -0.93699998 -1.848 10
4.2719998 -0.96899998 -1.847 10
4.461 -1.001 -1.839 10
4.6669998 -1.0369999 -1.8329999 9
3.7060001 -0.89700001 -1.8559999 8
3.865 -0.92299998 -1.851 9
4.0479999 -0.95499998 -1.852 9
4.2249999 -0.98500001 -1.845 9
4.421 -1.02 -1.8430001 10
4.6230001 -1.056 -1.836 9
3.675 -0.91399997 -1.86 8
3.835 -0.94 -1.855 9
4 -0.96899998 -1.849 9
4.1849999 -1.002 -1.847 10
4.3759999 -1.0369999 -1.842 9
4.579 -1.073 -1.837 9
3.638 -0.92799997 -1.859 8
3.796 -0.95599997 -1.854 9
3.97 -0.98699999 -1.853 10
4.152 -1.02 -1.85 9
4.3369999 -1.054 -1.844 10
4.539 -1.092 -1.84 10
3.6070001 -0.94400001 -1.86 8
3.7620001 -0.97100002 -1.855 8
3.924 -1.001 -1.849 9
4.1139998 -1.0369999 -1.851 9
4.2989998 -1.072 -1.845 10
4.4920001 -1.108 -1.8380001 9
3.576 -0.95999998 -1.8609999 8
3.7360001 -0.99000001 -1.859 9
3.8929999 -1.018 -1.851 9
4.0739999 -1.053 -1.85 10
4.263 -1.09 -1.847 9
4.4629998 -1.1289999 -1.8430001 10
3.546 -0.97600001 -1.862 8
3.704 -1.005 -1.86 9
3.8629999 -1.035 -1.853 9
4.0489998 -1.072 -1.855 8
4.2249999 -1.1059999 -1.847 9
4.4239998 -1.147 -1.844 10
3.517 -0.991 -1.863 8
3.671 -1.021 -1.859 8
3.826 -1.05 -1.851 9
4.0040002 -1.086 -1.85 8
4.1919999 -1.124 -1.848 9
4.3909998 -1.165 -1.845 10
3.493 -1.008 -1.8660001 8
3.6440001 -1.0369999 -1.8609999 9
3.8050001 -1.069 -1.8559999 9
3.9790001 -1.104 -1.853 8
4.1630001 -1.142 -1.85 9
4.3590002 -1.184 -1.847 9
3.467 -1.024 -1.867 8
3.618 -1.054 -1.862 9
3.7739999 -1.085 -1.8559999 8
3.95 -1.122 -1.855 9
4.1300001 -1.16 -1.85 9
4.3280001 -1.2029999 -1.848 9
3.437 -1.039 -1.865 8
3.5929999 -1.071 -1.864 8
3.7509999 -1.103 -1.859 9
3.9130001 -1.137 -1.852 9
4.1030002 -1.178 -1.852 10
4.2940001 -1.22 -1.848 9
3.4119999 -1.054 -1.8660001 8
3.566 -1.087 -1.864 9
3.723 -1.119 -1.859 8
3.8889999 -1.155 -1.853 9
4.073 -1.196 -1.852 9
4.2690001 -1.24 -1.851 9
3.3959999 -1.072 -1.87 7
3.5469999 -1.104 -1.867 8
3.7019999 -1.137 -1.8609999 7
3.8599999 -1.171 -1.853 9
4.0450001 -1.2130001 -1.852 9
4.237 -1.257 -1.85 9
3.3699999 -1.087 -1.869 7
3.5239999 -1.1210001 -1.868 8
3.6760001 -1.153 -1.86 8
3.842 -1.1900001 -1.857 8
4.02 -1.2309999 -1.853 9
4.21 -1.275 -1.85 9
3.3440001 -1.101 -1.867 8
3.5050001 -1.137 -1.87 8
3.6570001 -1.171 -1.863 9
3.8210001 -1.2079999 -1.858 8
3.9979999 -1.249 -1.854 9
4.1859999 -1.294 -1.851 9
3.3239999 -1.117 -1.868 7
3.48 -1.152 -1.868 8
3.6400001 -1.189 -1.8660001 8
3.7939999 -1.224 -1.8559999 8
3.98 -1.2690001 -1.857 9
4.1669998 -1.314 -1.853 9
3.312 -1.135 -1.872 7
3.46 -1.169 -1.868 9
3.619 -1.206 -1.8660001 8
3.773 -1.2410001 -1.8559999 8
3.9590001 -1.2869999 -1.858 9
4.1469998 -1.3329999 -1.855 9
3.29 -1.15 -1.8710001 7
3.4449999 -1.186 -1.8710001 8
3.605 -1.224 -1.869 8
3.76 -1.261 -1.86 8
3.938 -1.3049999 -1.858 9
4.1259999 -1.352 -1.855 10
3.2720001 -1.165 -1.8710001 7
3.428 -1.2029999 -1.8710001 8
3.5829999 -1.24 -1.867 9
3.7449999 -1.279 -1.862 9
3.9170001 -1.322 -1.857 9
4.1100001 -1.372 -1.857 9
3.257 -1.182 -1.872 7
3.4070001 -1.2180001 -1.87 8
3.5669999 -1.257 -1.868 8
3.723 -1.296 -1.86 9
3.8970001 -1.34 -1.8559999 9
4.0960002 -1.393 -1.859 10
3.243 -1.198 -1.873 7
3.3989999 -1.237 -1.874 8
3.5569999 -1.277 -1.872 8
3.711 -1.3150001 -1.862 8
3.888 -1.3609999 -1.86 9
4.0799999 -1.4119999 -1.86 9
3.23 -1.215 -1.875 7
3.378 -1.251 -1.8710001 7
3.5409999 -1.293 -1.8710001 8
3.6949999 -1.332 -1.862 8
3.8759999 -1.38 -1.862 9
4.066 -1.432 -1.86 9
3.217 -1.2309999 -1.875 7
3.3670001 -1.2690001 -1.873 8
3.526 -1.309 -1.87 8
3.6860001 -1.351 -1.865 8
3.8629999 -1.398 -1.862 8
4.052 -1.451 -1.8609999 9
3.207 -1.248 -1.877 8
3.3570001 -1.286 -1.874 8
3.5150001 -1.327 -1.8710001 9
3.674 -1.369 -1.865 9
3.846 -1.415 -1.86 8
4.0440001 -1.472 -1.862 9
3.198 -1.2640001 -1.878 7
3.3469999 -1.303 -1.875 8
3.5020001 -1.3430001 -1.8710001 9
3.661 -1.386 -1.864 8
3.839 -1.436 -1.862 9
4.0339999 -1.4910001 -1.863 10
3.1889999 -1.281 -1.88 7
3.336 -1.319 -1.875 8
3.4960001 -1.363 -1.873 8
3.658 -1.4069999 -1.868 8
3.826 -1.4529999 -1.8609999 8
4.026 -1.512 -1.864 8
3.174 -1.295 -1.876 7
3.326 -1.336 -1.875 8
3.4849999 -1.3789999 -1.872 8
3.645 -1.423 -1.8660001 9
3.8210001 -1.473 -1.862 8
4.0120001 -1.529 -1.8609999 9
3.1719999 -1.313 -1.88 7
3.325 -1.355 -1.8789999 8
3.4809999 -1.398 -1.874 8
3.641 -1.442 -1.868 7
3.8150001 -1.492 -1.863 8
4.0120001 -1.552 -1.864 9
3.1600001 -1.327 -1.878 7
3.316 -1.3710001 -1.877 8
3.4749999 -1.415 -1.875 8
3.6389999 -1.462 -1.87 7
3.8080001 -1.511 -1.862 8
4.007 -1.571 -1.864 8
3.1559999 -1.344 -1.8789999 7
3.3150001 -1.3890001 -1.88 8
3.4690001 -1.433 -1.874 8
3.6329999 -1.48 -1.869 7
3.8099999 -1.5319999 -1.865 9
4.0040002 -1.592 -1.865 9
3.152 -1.3609999 -1.88 7
3.3010001 -1.402 -1.875 8
3.4660001 -1.451 -1.875 7
3.631 -1.499 -1.87 8
3.8080001 -1.552 -1.8660001 9
4.0029998 -1.613 -1.865 9
3.151 -1.378 -1.882 7
3.306 -1.423 -1.88 9
3.4660001 -1.469 -1.877 8
3.6229999 -1.515 -1.867 8
3.796 -1.568 -1.8609999 8
3.997 -1.631 -1.863 9
3.148 -1.3940001 -1.881 7
3.3 -1.438 -1.878 7
3.461 -1.4859999 -1.875 8
3.628 -1.536 -1.87 8
3.802 -1.589 -1.864 8
3.997 -1.651 -1.862 9
3.148 -1.4119999 -1.883 7
3.299 -1.455 -1.878 7
3.4649999 -1.506 -1.877 8
3.628 -1.5549999 -1.87 8
3.8039999 -1.609 -1.865 8
4.0029998 -1.674 -1.864 9
3.141 -1.425 -1.8789999 7
3.302 -1.474 -1.88 8
3.4690001 -1.525 -1.8789999 8
3.6289999 -1.573 -1.87 8
3.8169999 -1.6339999 -1.869 9
4.0110002 -1.696 -1.8660001 8
3.1489999 -1.4450001 -1.8839999 7
3.3010001 -1.49 -1.8789999 8
3.4649999 -1.541 -1.876 8
3.6340001 -1.5930001 -1.87 8
3.8180001 -1.652 -1.868 8
4.0159998 -1.7180001 -1.8660001 9
3.148 -1.46 -1.882 7
3.3069999 -1.5089999 -1.88 8
3.471 -1.5599999 -1.877 7
3.6359999 -1.6109999 -1.869 8
3.825 -1.673 -1.869 9
4.0170002 -1.7359999 -1.863 8
3.152 -1.477 -1.883 8
3.3110001 -1.526 -1.881 8
3.4790001 -1.58 -1.8789999 8
3.6470001 -1.632 -1.872 8
3.8369999 -1.696 -1.8710001 9
4.0349998 -1.762 -1.868 8
3.158 -1.495 -1.8839999 7
3.322 -1.5470001 -1.8839999 8
3.4809999 -1.596 -1.877 8
3.652 -1.651 -1.8710001 8
3.8410001 -1.714 -1.869 9
4.0450001 -1.784 -1.868 9
3.158 -1.5089999 -1.882 8
3.322 -1.561 -1.881 8
3.4820001 -1.612 -1.874 8
3.6619999 -1.671 -1.872 8
3.855 -1.7359999 -1.8710001 9
4.052 -1.804 -1.8660001 9
3.1670001 -1.527 -1.883 7
3.3310001 -1.58 -1.882 8
3.494 -1.632 -1.875 8
3.6730001 -1.692 -1.872 9
3.8699999 -1.7589999 -1.872 8
4.066 -1.827 -1.8660001 8
3.1730001 -1.543 -1.882 8
3.3380001 -1.597 -1.881 8
3.5039999 -1.651 -1.875 8
3.6830001 -1.711 -1.8710001 8
3.8889999 -1.783 -1.875 9
4.0830002 -1.85 -1.8660001 8
3.1889999 -1.564 -1.886 7
3.355 -1.618 -1.885 8
3.5250001 -1.674 -1.881 8
3.6960001 -1.7309999 -1.8710001 8
3.8970001 -1.801 -1.8710001 10
4.098 -1.872 -1.865 9
3.198 -1.58 -1.886 7
3.358 -1.632 -1.88 7
3.529 -1.689 -1.876 8
3.7190001 -1.755 -1.876 8
3.9059999 -1.819 -1.868 9
4.1240001 -1.898 -1.868 8
3.21 -1.598 -1.886 7
3.3789999 -1.654 -1.8839999 7
3.5409999 -1.707 -1.874 8
3.723 -1.77 -1.869 8
3.9289999 -1.844 -1.87 8
4.145 -1.9220001 -1.869 9
3.223 -1.615 -1.886 7
3.392 -1.6720001 -1.8839999 8
3.562 -1.729 -1.877 8
3.753 -1.796 -1.876 8
3.9519999 -1.868 -1.8710001 9
4.164 -1.944 -1.867 9
3.244 -1.636 -1.891 8
3.4089999 -1.691 -1.885 8
3.585 -1.751 -1.88 8
3.7739999 -1.818 -1.876 8
3.974 -1.89 -1.872 9
4.1890001 -1.969 -1.867 9
3.2479999 -1.648 -1.883 7
3.418 -1.706 -1.88 8
3.599 -1.7690001 -1.877 8
3.7969999 -1.84 -1.877 8
4.0009999 -1.914 -1.873 8
4.2160001 -1.993 -1.867 9
3.267 -1.666 -1.885 7
3.438 -1.725 -1.881 8
3.6210001 -1.789 -1.878 8
3.813 -1.858 -1.874 8
4.0170002 -1.933 -1.869 8
4.2420001 -2.017 -1.8660001 9
3.2839999 -1.684 -1.8839999 7
3.4560001 -1.743 -1.88 8
3.6400001 -1.808 -1.876 8
3.8399999 -1.881 -1.875 8
4.0510001 -1.96 -1.872 8
4.2729998 -2.043 -1.8660001 9
3.312 -1.706 -1.8890001 8
3.48 -1.7640001 -1.881 8
3.6630001 -1.8279999 -1.876 8
3.8670001 -1.904 -1.875 9
4.0819998 -1.984 -1.872 9
4.303 -2.0669999 -1.865 9
3.3280001 -1.722 -1.886 7
3.5039999 -1.783 -1.881 8
3.6919999 -1.851 -1.878 9
3.9000001 -1.928 -1.877 8
4.1059999 -2.0050001 -1.869 9
4.3340001 -2.092 -1.864 9
3.352 -1.7410001 -1.887 8
3.5280001 -1.803 -1.881 8
3.7219999 -1.874 -1.8789999 8
3.9289999 -1.951 -1.877 8
4.1420002 -2.0309999 -1.87 8
4.3769999 -2.1210001 -1.8660001 9
3.3789999 -1.76 -1.888 8
3.5510001 -1.821 -1.8789999 9
3.7539999 -1.896 -1.88 8
3.9590001 -1.972 -1.875 7
4.1820002 -2.0569999 -1.872 8
4.4169998 -2.148 -1.8660001 9
3.3989999 -1.776 -1.885 7
3.5799999 -1.841 -1.88 9
3.7850001 -1.918 -1.88 8
3.994 -1.9960001 -1.876 8
4.2140002 -2.0799999 -1.869 9
4.4580002 -2.1760001 -1.8660001 9
3.431 -1.798 -1.887 7
3.6059999 -1.859 -1.877 8
3.8210001 -1.942 -1.882 9
4.0349998 -2.0220001 -1.878 8
4.2490001 -2.1040001 -1.867 9
4.507 -2.2060001 -1.868 9
3.4619999 -1.818 -1.888 8
3.6440001 -1.883 -1.88 8
3.859 -1.965 -1.883 9
4.0640001 -2.0420001 -1.874 9
4.2969999 -2.132 -1.87 9
4.5279999 -2.2219999 -1.858 9
3.487 -1.834 -1.885 7
3.677 -1.903 -1.88 9
3.888 -1.984 -1.8789999 8
4.1110001 -2.0699999 -1.877 9
4.3400002 -2.1589999 -1.869 9
4.5960002 -2.2609999 -1.865 9
3.517 -1.852 -1.8839999 8
3.7130001 -1.925 -1.88 8
3.9230001 -2.0050001 -1.877 9
4.1430001 -2.089 -1.872 9
4.3740001 -2.1789999 -1.864 8
4.6350002 -2.2839999 -1.86 9
3.546 -1.869 -1.88 8
3.744 -1.943 -1.877 8
3.967 -2.03 -1.8789999 8
4.21 -2.1259999 -1.882 8
4.434 -2.2119999 -1.868 8
4.6989999 -2.319 -1.863 9
3.5799999 -1.888 -1.88 8
3.7950001 -1.971 -1.883 8
4.007 -2.052 -1.877 8
4.237 -2.141 -1.873 9
4.493 -2.244 -1.8710001 8
4.756 -2.349 -1.863 8
3.618 -1.909 -1.88 7
3.8340001 -1.992 -1.882 8
4.0570002 -2.0780001 -1.88 9
4.2800002 -2.164 -1.87 9
4.5419998 -2.2690001 -1.869 9
4.8130002 -2.3789999 -1.862 8
3.661 -1.931 -1.881 8
3.8740001 -2.0120001 -1.881 9
4.0910001 -2.096 -1.874 8
4.3429999 -2.1960001 -1.875 8
4.6110001 -2.3050001 -1.874 8
4.9050002 -2.425 -1.873 13
3.7 -1.95 -1.88 8
3.9219999 -2.036 -1.882 9
4.1479998 -2.1240001 -1.877 9
4.3959999 -2.223 -1.874 8
4.665 -2.332 -1.872 9
4.9390001 -2.4419999 -1.8609999 15
3.74 -1.969 -1.8789999 8
3.9619999 -2.056 -1.8789999 9
4.1929998 -2.1459999 -1.874 8
4.4549999 -2.2509999 -1.875 8
4.7220001 -2.359 -1.87 9
5.0139999 -2.4779999 -1.863 9
3.793 -1.994 -1.882 8
4.0100002 -2.0780001 -1.878 9
4.257 -2.1760001 -1.8789999 9
4.5110002 -2.2780001 -1.874 8
4.7820001 -2.3870001 -1.867 8
5.1040001 -2.5209999 -1.869 9
3.839 -2.0150001 -1.882 8
4.0619998 -2.102 -1.878 9
4.2979999 -2.194 -1.872 9
4.5739999 -2.306 -1.874 9
4.8330002 -2.4100001 -1.86 10
5.1669998 -2.549 -1.864 14
3.8889999 -2.0369999 -1.883 8
4.1079998 -2.1210001 -1.874 8
4.3670001 -2.2249999 -1.876 9
4.6370001 -2.3340001 -1.873 9
4.9219999 -2.45 -1.8660001 15
5.2280002 -2.576 -1.857 10
3.9360001 -2.0569999 -1.88 8
4.1669998 -2.1470001 -1.876 8
4.427 -2.2509999 -1.876 9
4.6999998 -2.3610001 -1.8710001 7
4.9759998 -2.4719999 -1.859 12
5.3260002 -2.619 -1.862 8
3.99 -2.079 -1.88 8
4.2249999 -2.171 -1.875 9
4.494 -2.279 -1.877 9
4.7750001 -2.3929999 -1.873 8
5.0910001 -2.5239999 -1.872 9
5.4120002 -2.6559999 -1.8609999 8
4.0440001 -2.1010001 -1.8789999 8
4.2859998 -2.1960001 -1.875 9
4.5560002 -2.3039999 -1.874 9
4.8429999 -2.421 -1.87 9
5.1620002 -2.552 -1.867 14
5.5089998 -2.697 -1.863 14
4.0970001 -2.1210001 -1.876 8
4.355 -2.224 -1.877 9
4.6290002 -2.3340001 -1.875 8
4.9260001 -2.4549999 -1.872 16
5.23 -2.579 -1.8609999 10
5.5819998 -2.7249999 -1.855 15
4.1589999 -2.145 -1.877 8
4.415 -2.2460001 -1.874 9
4.6929998 -2.358 -1.8710001 8
4.9759998 -2.4719999 -1.86 13
5.3330002 -2.6210001 -1.865 9
5.7069998 -2.7780001 -1.863 10
4.2249999 -2.1700001 -1.878 8
4.4840002 -2.2720001 -1.874 9
4.7750001 -2.3900001 -1.874 8
5.0939999 -2.5209999 -1.873 9
5.4349999 -2.6619999 -1.868 8
5.7940001 -2.8110001 -1.857 11
4.2839999 -2.191 -1.875 8
4.5549998 -2.299 -1.873 9
4.8569999 -2.4219999 -1.874 9
5.1789999 -2.553 -1.8710001 14
5.526 -2.6960001 -1.865 16
5.908 -2.855 -1.858 8
4.3569999 -2.217 -1.876 9
4.6259999 -2.3239999 -1.872 8
4.9299998 -2.447 -1.8710001 17
5.2610002 -2.582 -1.868 9
5.6030002 -2.7219999 -1.857 15
6.0250001 -2.9000001 -1.858 9
4.4229999 -2.24 -1.874 9
4.7069998 -2.3529999 -1.873 9
5.0029998 -2.4719999 -1.8660001 11
5.348 -2.6129999 -1.865 8
5.7319999 -2.7720001 -1.864 9
6.1550002 -2.9489999 -1.86 17
4.4990001 -2.266 -1.875 8
4.7909999 -2.382 -1.874 9
5.1170001 -2.5150001 -1.874 9
5.454 -2.652 -1.8660001 9
5.842 -2.812 -1.863 9
6.2410002 -2.977 -1.848 17
4.5760002 -2.2920001 -1.875 9
4.8740001 -2.4100001 -1.873 12
5.197 -2.54 -1.869 9
5.5570002 -2.687 -1.8660001 18
5.9510002 -2.8499999 -1.86 9
6.4190001 -3.046 -1.8609999 9
4.6570001 -2.3180001 -1.875 8
4.9530001 -2.4349999 -1.87 18
5.2909999 -2.572 -1.868 9
5.6420002 -2.7130001 -1.858 17
6.0609999 -2.8870001 -1.8559999 9
6.539 -3.0869999 -1.855 10
4.7329998 -2.3410001 -1.872 8
5.0240002 -2.4549999 -1.862 17
5.3940001 -2.6059999 -1.868 8
5.7800002 -2.7639999 -1.8660001 9
6.2140002 -2.9419999 -1.863 17
6.6900001 -3.1400001 -1.8559999 30
4.822 -2.3699999 -1.873 9
5.131 -2.4909999 -1.8660001 9
5.5009999 -2.641 -1.868 8
5.8969998 -2.802 -1.865 9
6.3070002 -2.9679999 -1.85 18
6.79 -3.168 -1.841 38
4.9050002 -2.3929999 -1.87 10
5.2309999 -2.5220001 -1.8660001 8
5.6020002 -2.671 -1.865 16
6.0120001 -2.8380001 -1.862 9
6.4489999 -3.016 -1.851 10
6.9400001 -3.217 -1.839 29
5.0110002 -2.427 -1.875 18
5.3369999 -2.5550001 -1.867 9
5.7020001 -2.7 -1.86 20
6.152 -2.8840001 -1.865 8
6.6149998 -3.073 -1.8559999 8
7.073 -3.2579999 -1.83 17
5.0739999 -2.4400001 -1.863 18
5.4289999 -2.5799999 -1.862 9
5.8010001 -2.727 -1.853 16
6.2800002 -2.9230001 -1.862 13
6.79 -3.132 -1.862 28
7.1849999 -3.286 -1.813 10
5.165 -2.464 -1.859 14
5.539 -2.612 -1.8609999 9
5.9580002 -2.78 -1.863 9
6.3899999 -2.9530001 -1.853 16
6.8870001 -3.1530001 -1.844 42
7.3769999 -3.3499999 -1.816 9
5.2940001 -2.5050001 -1.868 8
5.6609998 -2.6489999 -1.863 11
6.0910001 -2.8199999 -1.864 11
6.559 -3.007 -1.859 9
7.0229998 -3.191 -1.836 38
7.6220002 -3.4349999 -1.829 7
5.4000001 -2.5339999 -1.867 8
5.7680001 -2.6760001 -1.858 17
6.184 -2.8399999 -1.851 18
6.7010002 -3.0480001 -1.8559999 14
7.1550002 -3.2249999 -1.825 29
7.6300001 -3.4119999 -1.783 4
5.5190001 -2.5669999 -1.869 14
5.8790002 -2.704 -1.854 10
6.3369999 -2.885 -1.854 9
6.8530002 -3.0910001 -1.853 26
7.277 -3.2539999 -1.8099999 28
7.467 -3.312 -1.699 7
5.5970001 -2.5799999 -1.857 13
6.0549998 -2.7609999 -1.869 8
6.4980001 -2.9330001 -1.858 8
7.013 -3.1359999 -1.851 37
7.3449998 -3.256 -1.78 39
7.3119998 -3.2160001 -1.618 7
5.7189999 -2.612 -1.857 10
6.1680002 -2.7869999 -1.8609999 12
6.6490002 -2.974 -1.857 9
7.1329999 -3.161 -1.836 42
7.401 -3.253 -1.747 29
7.447 -3.247 -1.601 26
5.855 -2.648 -1.86 9
6.2789998 -2.8099999 -1.852 23
6.802 -3.0139999 -1.855 9
7.2849998 -3.1989999 -1.8279999 38
7.9299998 -3.4530001 -1.821 7
7.4879999 -3.2349999 -1.563 14
5.9910002 -2.6830001 -1.8609999 9
6.3930001 -2.8329999 -1.842 18
6.954 -3.052 -1.85 17
7.4650002 -3.2460001 -1.825 20
8.2060003 -3.539 -1.8329999 7
7.6339998 -3.267 -1.5470001 17
6.1100001 -2.7079999 -1.8559999 9
6.585 -2.8889999 -1.853 8
7.1620002 -3.112 -1.859 26
7.7090001 -3.3199999 -1.835 8
8.4429998 -3.6059999 -1.8329999 7
7.7220001 -3.273 -1.518 17
6.237 -2.7349999 -1.852 12
6.7490001 -2.9300001 -1.854 18
7.277 -3.1289999 -1.841 44
7.914 -3.3729999 -1.834 8
8.6750002 -3.6670001 -1.829 7
7.8130002 -3.2780001 -1.488 27
6.4109998 -2.7820001 -1.86 8
6.869 -2.95 -1.841 24
7.4190001 -3.1559999 -1.829 51
8.1289997 -3.4289999 -1.8329999 7
8.6829996 -3.6329999 -1.778 5
7.5890002 -3.152 -1.4 10
6.552 -2.8110001 -1.857 8
7.0149999 -2.98 -1.835 16
7.592 -3.1949999 -1.824 42
8.3520002 -3.4849999 -1.831 7
8.349 -3.4560001 -1.659 13
7.651 -3.1440001 -1.365 11
6.7010002 -2.8429999 -1.854 8
7.2150002 -3.0309999 -1.841 9
7.7880001 -3.2420001 -1.821 19
8.5909996 -3.5450001 -1.83 8
7.9770002 -3.266 -1.536 39
8.0220003 -3.2609999 -1.3839999 33
6.868 -2.8800001 -1.855 15
7.415 -3.079 -1.844 27
8.052 -3.313 -1.8329999 8
8.1020002 -3.3050001 -1.676 8
7.697 -3.1159999 -1.436 5
8.2119999 -3.3 -1.368 1
7.0250001 -2.9100001 -1.851 10
7.5809999 -3.1099999 -1.837 41
8.2729998 -3.3640001 -1.831 8
8.6490002 -3.487 -1.737 7
8.2419996 -3.2969999 -1.488 3
8.1599998 -3.2409999 -1.312 30
7.1729999 -2.9349999 -1.8430001 9
7.7529998 -3.142 -1.829 53
8.1379995 -3.2679999 -1.751 11
8.6440001 -3.4419999 -1.683 4
8.2200003 -3.2490001 -1.436 22
8.3710003 -3.2850001 -1.2970001 16
7.3379998 -2.964 -1.839 9
7.9200001 -3.1689999 -1.818 40
8.5939999 -3.4089999 -1.796 9
8.2589998 -3.2490001 -1.559 8
8.4720001 -3.3069999 -1.4299999 1
11.839 -4.5890002 -1.766 13
7.5549998 -3.0120001 -1.844 13
8.1040001 -3.2 -1.8099999 29
8.7399998 -3.4219999 -1.773 8
8.3070002 -3.2249999 -1.518 5
8.5310001 -3.2869999 -1.39 14
8.2849998 -3.1700001 -1.188 2
7.7309999 -3.0409999 -1.8380001 9
8.3290005 -3.2449999 -1.809 21
8.4940004 -3.2809999 -1.6720001 40
8.533 -3.2690001 -1.5089999 47
11.322 -4.3060002 -1.78 8
12.646 -4.776 -1.743 12
7.9920001 -3.0999999 -1.85 27
8.6070004 -3.3080001 -1.816 8
9.1400003 -3.4820001 -1.744 6
10.477 -3.96 -1.7920001 8
11.698 -4.388 -1.772 9
13.109 -4.8839998 -1.733 12
8.1409998 -3.1129999 -1.834 38
8.8699999 -3.3610001 -1.818 8
9.7670002 -3.6689999 -1.806 7
10.796 -4.0240002 -1.784 6
12.068 -4.4640002 -1.76 24
13.575 -4.987 -1.7180001 12
8.3149996 -3.1329999 -1.822 42
9.1120005 -3.4030001 -1.813 7
10.037 -3.717 -1.798 6
11.146 -4.0949998 -1.778 7
12.324 -4.494 -1.728 24
14.07 -5.0970001 -1.705 12
8.5159998 -3.1619999 -1.8150001 40
9.3590002 -3.444 -1.808 7
10.335 -3.7709999 -1.7920001 7
11.492 -4.1609998 -1.7690001 7
12.834 -4.6129999 -1.729 12
14.564 -5.1989999 -1.687 12
8.7180004 -3.188 -1.807 34
9.6230001 -3.4879999 -1.803 7
10.651 -3.8280001 -1.7869999 7
11.909 -4.2470002 -1.768 17
13.338 -4.7220001 -1.725 11
15.122 -5.3179998 -1.671 8
8.9460001 -3.221 -1.801 13
9.8959999 -3.5309999 -1.7970001 7
10.977 -3.8840001 -1.78 6
12.226 -4.2919998 -1.747 31
13.781 -4.803 -1.709 7
15.789 -5.4660001 -1.661 9
9.2690001 -3.283 -1.813 7
10.179 -3.5739999 -1.791 7
11.289 -3.931 -1.768 6
12.624 -4.362 -1.7359999 33
14.282 -4.8979998 -1.6950001 8
16.448999 -5.6040001 -1.645 10
9.5170002 -3.316 -1.807 8
10.468 -3.615 -1.783 7
11.659 -3.993 -1.762 6
12.983 -4.4109998 -1.716 32
14.856 -5.0120001 -1.6849999 8
17.202 -5.7639999 -1.632 11
9.7869997 -3.352 -1.803 7
10.783 -3.661 -1.777 7
12.119 -4.0799999 -1.766 14
13.373 -4.4679999 -1.697 21
15.411 -5.1110001 -1.668 8
18.059999 -5.9499998 -1.622 31
10.058 -3.385 -1.7970001 7
11.102 -3.704 -1.77 6
12.481 -4.1300001 -1.7539999 27
13.887 -4.559 -1.6900001 7
16.049999 -5.2329998 -1.6569999 10
18.899 -6.1199999 -1.604 8
10.338 -3.418 -1.79 7
11.434 -3.7479999 -1.763 6
12.856 -4.1799998 -1.74 43
14.484 -4.6719999 -1.691 8
16.67 -5.3390002 -1.638 9
19.934999 -6.342 -1.596 8
10.625 -3.4489999 -1.784 7
11.772 -3.7880001 -1.7539999 6
13.228 -4.2220001 -1.723 52
14.988 -4.7480001 -1.675 8
17.424999 -5.48 -1.627 11
20.98 -6.5549998 -1.579 7
10.919 -3.4790001 -1.776 7
12.127 -3.829 -1.745 5
13.707 -4.2930002 -1.717 53
15.577 -4.842 -1.665 9
18.242001 -5.6300001 -1.6160001 11
22.118 -6.7800002 -1.5599999 5
11.24 -3.5120001 -1.771 7
12.482 -3.8670001 -1.733 6
14.163 -4.3520002 -1.704 55
16.222 -4.947 -1.656 8
19.143 -5.796 -1.6059999 9
23.332001 -7.0149999 -1.538 4
11.558 -3.54 -1.762 6
12.886 -3.9130001 -1.725 6
14.548 -4.381 -1.6799999 44
16.834999 -5.0310001 -1.638 11
20.08 -5.9580002 -1.591 7
24.974001 -7.3600001 -1.5319999 4
11.886 -3.5669999 -1.7539999 7
13.3 -3.957 -1.717 7
14.947 -4.4099998 -1.656 29
17.52 -5.1300001 -1.623 9
20.996 -6.1040001 -1.569 6
26.461 -7.6399999 -1.505 5
12.193 -3.5829999 -1.739 7
13.848 -4.033 -1.721 13
15.44 -4.461 -1.6390001 15
18.305 -5.2480001 -1.613 11
22.138 -6.302 -1.556 5
27.938999 -7.8990002 -1.4680001 4
12.547 -3.608 -1.73 6
14.257 -4.0650001 -1.707 24
16.136999 -4.5640001 -1.641 10
19.142 -5.3720002 -1.603 13
23.372999 -6.5120001 -1.541 4
30.063999 -8.3190002 -1.452 4
12.963 -3.6459999 -1.728 6
14.679 -4.0929999 -1.691 36
16.809 -4.6490002 -1.6339999 11
20.013 -5.493 -1.589 9
24.674 -6.7220001 -1.522 4
0 0 0 0
13.345 -3.6700001 -1.719 6
15.114 -4.1209998 -1.675 46
17.415001 -4.7090001 -1.618 11
20.945 -5.6199999 -1.575 8
26.333 -7.0139999 -1.516 5
35.655998 -9.4309998 -1.429 1
13.741 -3.691 -1.709 7
15.553 -4.1409998 -1.655 48
18.163 -4.796 -1.6109999 12
21.992001 -5.7620001 -1.562 6
27.598 -7.178 -1.477 4
0 0 0 0
14.142 -3.7079999 -1.698 7
16.049999 -4.1719999 -1.641 52
18.947001 -4.8839998 -1.602 13
19.003 -4.8610001 -1.273 11
18.802999 -4.7740002 -0.93199998 62
41.169998 -10.38 -1.327 14
14.543 -3.721 -1.6849999 8
16.562 -4.1989999 -1.625 57
19.77 -4.9699998 -1.592 14
18.903 -4.7140002 -1.191 56
18.688999 -4.6269999 -0.85399997 61
18.528 -4.5549998 -0.52700001 63
14.983 -3.7360001 -1.674 8
17.122 -4.2309999 -1.6109999 58
20.606001 -5.0469999 -1.5779999 10
18.934999 -4.6020002 -1.1210001 15
18.594 -4.4840002 -0.77899998 59
18.441 -4.4159999 -0.45500001 84
15.473 -3.757 -1.666 9
17.533001 -4.2189999 -1.581 40
18.886 -4.506 -1.374 12
18.544001 -4.388 -1.028 18
18.466999 -4.3369999 -0.70599997 74
18.499001 -4.3130002 -0.38999999 77
15.897 -3.757 -1.651 9
18.409 -4.3109999 -1.59 12
18.374001 -4.2659998 -1.2690001 32
18.528 -4.2670002 -0.95999998 8
18.474001 -4.2210002 -0.64099997 125
18.569 -4.211 -0.32699999 54
16.447001 -3.7780001 -1.645 10
18.341 -4.1760001 -1.517 24
18.403 -4.152 -1.204 255
18.393 -4.1160002 -0.88800001 32
18.5 -4.1079998 -0.57700002 45
0 0 0 0
16.958 -3.783 -1.633 10
18.372 -4.0609999 -1.4529999 36
18.690001 -4.0949998 -1.1569999 96
18.761 -4.0760002 -0.84100002 47
18.614 -4.0120001 -0.51800001 3
46.157001 -9.8730001 -0.50300002 14
17.417 -3.7709999 -1.6160001 11
20.753 -4.4510002 -1.569 14
19.101 -4.0599999 -1.117 28
19.018999 -4.0089998 -0.78899997 54
41.854 -8.7480001 -1.028 63
48.567001 -10.076 -0.375 2
17.978001 -3.773 -1.6059999 12
21.57 -4.4829998 -1.558 12
26.981001 -5.5570002 -1.489 6
0 0 0 0
42.008999 -8.507 -0.89899999 65
56.133999 -11.278 -0.257 18
18.532 -3.7650001 -1.5930001 13
22.386 -4.5029998 -1.543 9
28.231001 -5.6259999 -1.467 5
0 0 0 0
37.573002 -7.3600001 -0.68800002 10
56.735001 -11.026 -0.090000004 6
19.229 -3.777 -1.59 14
23.299 -4.5320001 -1.5319999 8
29.844 -5.7490001 -1.459 5
37.769001 -7.211 -1.212 1
37.431999 -7.085 -0.574 11
57.376999 -10.77 0.075999998 48
19.903 -3.7750001 -1.584 14
24.181 -4.5409999 -1.516 9
31.646 -5.8870001 -1.4529999 5
37.303001 -6.875 -1.0880001 44
43.060001 -7.8660002 -0.53799999 37
0 0 0 0
20.587999 -3.7650001 -1.576 15
25.145 -4.552 -1.503 7
33.327 -5.9759998 -1.4349999 10
37.136002 -6.598 -0.98000002 63
43.727001 -7.698 -0.42699999 11
58.465 -10.206 0.396 29
21.287001 -3.7509999 -1.569 16
26.216999 -4.5710001 -1.493 6
35.424 -6.1149998 -1.427 6
36.84 -6.2989998 -0.87199998 70
44.311001 -7.5079999 -0.31600001 52
81.603996 -13.704 0.764 41
21.995001 -3.7279999 -1.5599999 12
27.243 -4.5679998 -1.478 6
36.827999 -6.1100001 -1.387 30
36.728001 -6.033 -0.77499998 49
44.237999 -7.1989999 -0.204 64
78.027 -12.581 0.92500001 18
22.724001 -3.6960001 -1.551 14
28.294001 -4.552 -1.461 5
36.780998 -5.855 -1.291 40
36.754002 -5.7909999 -0.68400002 50
44.410999 -6.9299998 -0.096000001 57
129.896 -20.077999 1.849 30
23.485001 -3.658 -1.5420001 14
29.417999 -4.5300002 -1.4450001 5
36.374001 -5.5409999 -1.188 71
0 0 0 0
45.289001 -6.7589998 0.0070000002 46
146.493 -21.649 2.421 22
24.216999 -3.6040001 -1.531 9
30.674 -4.5120001 -1.434 5
36.172001 -5.2620001 -1.096 59
38.333 -5.5170002 -0.53399998 10
45.132 -6.428 0.108 73
152.41499 -21.486 2.852 31
24.764999 -3.516 -1.508 7
31.934 -4.48 -1.42 5
36.014 -4.994 -1.012 69
45.16 -6.1900001 -0.53100002 68
45.169998 -6.1240001 0.204 48
96.582001 -12.96 2.006 18
25.541 -3.4489999 -1.498 7
33.555 -4.4749999 -1.419 8
35.826 -4.7210002 -0.93099999 80
44.923 -5.8520002 -0.43599999 59
45.316002 -5.8390002 0.294 9
79.816002 -10.171 1.814 20
26.334 -3.3729999 -1.49 6
35.618999 -4.5050001 -1.434 20
35.634998 -4.4510002 -0.85500002 79
45.113998 -5.566 -0.34999999 68
86.665001 -10.57 0.72899997 47
125.875 -15.176 3.095 16
27.236 -3.3 -1.4859999 6
35.703999 -4.27 -1.369 38
35.556999 -4.1939998 -0.78600001 62
50.18 -5.8460002 -0.29800001 1
88.904999 -10.23 0.90700001 38
138.16701 -15.713 3.6370001 46
27.99 -3.198 -1.476 6
35.570999 -4.0079999 -1.3 45
35.487999 -3.9460001 -0.72299999 45
57.529999 -6.3119998 -0.244 5
88.987 -9.6400003 1.054 34
138.39 -14.796 3.868 25
28.655001 -3.073 -1.461 5
35.417 -3.743 -1.234 66
35.326 -3.6819999 -0.66100001 26
86.403 -8.8800001 -0.228 27
91.25 -9.25 1.225 15
0 0 0 0
29.621 -2.971 -1.462 6
35.306 -3.487 -1.174 68
35.474998 -3.45 -0.60900003 7
63.356998 -6.073 -0.071999997 5
82.065002 -7.7529998 1.221 26
81.934998 -7.6300001 2.5309999 3
30.228001 -2.819 -1.446 5
35.165001 -3.227 -1.118 58
35.924 -3.244 -0.56599998 1
91.206001 -8.1120005 0.021 21
0 0 0 0
140.04201 -12.069 4.5100002 14
31.056999 -2.6789999 -1.443 5
34.958 -2.964 -1.064 75
38.999001 -3.2509999 -0.56400001 56
39.355999 -3.227 0.059 46
163.599 -13.186 2.855 15
149.23801 -11.832 4.9829998 13
32.112999 -2.5439999 -1.451 6
34.872002 -2.7130001 -1.0190001 76
38.922001 -2.973 -0.51599997 54
38.965 -2.9230001 0.103 55
0 0 0 0
144.612 -10.471 4.9850001 36
32.494999 -2.3469999 -1.4299999 10
34.778 -2.464 -0.977 69
38.740002 -2.6889999 -0.472 53
38.783001 -2.6389999 0.14300001 50
145.63499 -9.7189999 2.8510001 21
144.84 -9.4779997 5.1350002 15
0 0 0 0
34.736 -2.2160001 -0.94099998 61
38.492001 -2.401 -0.43200001 53
38.633999 -2.3599999 0.178 53
39.908001 -2.3859999 0.81599998 1
142.145 -8.316 5.1609998 20
34.554001 -2.007 -1.454 30
34.595001 -1.9630001 -0.90700001 70
38.327 -2.1229999 -0.398 72
38.481998 -2.0829999 0.20900001 64
39.462002 -2.0829999 0.838 4
0 0 0 0
34.544998 -1.763 -1.426 30
34.495998 -1.716 -0.87800002 76
38.283001 -1.853 -0.37 59
38.446999 -1.813 0.235 66
39.360001 -1.804 0.86299998 1
0 0 0 0
34.523998 -1.5190001 -1.402 35
34.486 -1.472 -0.85600001 66
38.252998 -1.582 -0.34599999 58
38.435001 -1.5420001 0.25799999 65
142.86 -5.553 3.211 15
144.022 -5.4190001 5.506 57
34.469002 -1.274 -1.38 37
34.346001 -1.223 -0.83399999 74
38.381001 -1.319 -0.32800001 52
38.495998 -1.274 0.27599999 72
0 0 0 0
91.150002 -2.796 3.5220001 8
34.380001 -1.028 -1.362 32
34.349998 -0.98500001 -0.82099998 54
38.280998 -1.0470001 -0.31299999 64
38.584 -1.0089999 0.28999999 74
100.781 -2.513 2.3429999 7
91.137001 -2.161 3.55 4
34.337002 -0.78500003 -1.35 30
34.27 -0.74000001 -0.80900002 62
38.458 -0.78500003 -0.30399999 52
38.861 -0.74299997 0.30199999 74
59.02 -1.0599999 1.3839999 20
105.754 -1.772 4.1399999 6
34.334 -0.54400003 -1.3430001 34
34.216999 -0.5 -0.80199999 73
38.752998 -0.51700002 -0.301 53
39.201 -0.47799999 0.30899999 55
58.987999 -0.648 1.39 25
0 0 0 0
34.241001 -0.30000001 -1.337 36
34.125 -0.259 -0.79799998 63
39.077999 -0.25099999 -0.30199999 54
39.669998 -0.208 0.31299999 3
48.029999 -0.19499999 1.131 64
124.482 -0.34900001 4.8790002 15
34.113998 -0.057999998 -1.3329999 46
34.025002 -0.017000001 -0.79799998 66
47.389 0.028000001 -0.37 57
46.908001 0.082999997 0.366 59
47.209 0.138 1.1059999 65
48.814999 0.198 1.906 13
34.138 0.18000001 -1.34 48
33.988998 0.21699999 -0.80299997 76
46.889 0.354 -0.37599999 58
46.539001 0.405 0.35299999 60
46.794998 0.463 1.085 59
47.876999 0.52899998 1.858 72
34.071999 0.41999999 -1.347 34
33.922001 0.456 -0.81199998 73
38.013 0.55299997 -0.317 46
38.304001 0.60100001 0.27700001 28
46.480999 0.77999997 1.062 59
34.976002 0.62599999 1.344 2
34.006001 0.65499997 -1.358 36
33.868999 0.69 -0.82499999 72
37.665001 0.80800003 -0.33000001 50
37.727001 0.85299999 0.257 42
34.896 0.82800001 0.78100002 37
34.800999 0.86299998 1.321 78
33.985001 0.89399999 -1.375 35
33.830002 0.92699999 -0.84200001 80
34.894001 0.99400002 -0.32499999 50
37.34 1.105 0.233 63
34.709 1.066 0.75700003 23
34.632 1.102 1.294 69
33.868 1.131 -1.392 34
33.823002 1.164 -0.86400002 72
37.112999 1.316 -0.37 48
37.23 1.3609999 0.207 49
37.792999 1.42 0.79900002 51
46.393002 1.794 1.702 71
33.780998 1.365 -1.414 29
33.789001 1.4 -0.889 74
37.037998 1.574 -0.398 45
37.083 1.615 0.177 49
37.652 1.678 0.76499999 46
46.164001 2.1070001 1.656 55
33.619999 1.5930001 -1.437 28
33.808998 1.636 -0.92000002 57
36.890999 1.825 -0.43000001 48
36.953999 1.8660001 0.14300001 60
37.425999 1.929 0.72600001 41
45.979 2.4159999 1.608 58
33.479 1.821 -1.465 13
33.731998 1.868 -0.95099998 63
36.993999 2.085 -0.46799999 49
36.956001 2.119 0.106 48
37.318001 2.178 0.68699998 44
38.078999 2.2609999 1.293 2
0 0 0 0
33.716 2.1010001 -0.98900002 75
36.805 2.3310001 -0.50700003 49
36.991001 2.3770001 0.064000003 43
37.294998 2.4360001 0.64399999 49
38.174 2.5309999 1.252 8
30.162001 2.062 -1.391 4
33.73 2.336 -1.031 73
36.671001 2.575 -0.551 49
36.876999 2.6229999 0.017999999 48
37.188999 2.6819999 0.59600002 49
38.249001 2.799 1.207 11
29.541 2.2249999 -1.402 4
33.744999 2.572 -1.077 62
0 0 0 0
36.98 2.8859999 -0.030999999 45
37.209999 2.9400001 0.546 49
38.216999 3.056 1.155 6
28.875999 2.375 -1.413 5
33.858002 2.812 -1.13 60
33.794998 2.8369999 -0.60299999 18
36.964001 3.138 -0.085000001 47
37.301998 3.2019999 0.493 46
38.200001 3.3180001 1.098 3
28.329 2.5280001 -1.432 5
33.859001 3.0480001 -1.184 61
33.679001 3.0610001 -0.65399998 29
37.097 3.4059999 -0.14399999 49
37.334 3.4619999 0.43399999 41
38.401001 3.599 1.043 1
27.261999 2.622 -1.424 5
33.870998 3.2850001 -1.243 41
33.632 3.29 -0.71100003 60
37.145 3.665 -0.207 49
37.514 3.7349999 0.373 44
45.626999 4.586 1.1619999 55
26.409 2.721 -1.428 6
33.794998 3.5079999 -1.301 38
33.640999 3.5190001 -0.77100003 73
37.446999 3.9489999 -0.27599999 44
37.824001 4.0240002 0.308 44
45.692001 4.901 1.0829999 55
25.566999 2.8110001 -1.432 8
33.743 3.7360001 -1.365 30
33.737 3.7620001 -0.83899999 58
37.832001 4.2490001 -0.352 51
37.999001 4.3010001 0.236 1
45.797001 5.223 0.99699998 52
24.865999 2.9070001 -1.4450001 10
33.463001 3.9360001 -1.4220001 11
33.696999 3.987 -0.90600002 73
40.043999 4.77 -0.454 16
46.006001 5.5190001 0.19400001 57
45.952 5.5510001 0.90899998 53
24.156 2.9890001 -1.457 15
30.763 3.829 -1.374 5
33.791 4.23 -0.98199999 66
36.063999 4.5419998 -0.486 3
46.153 5.849 0.096000001 51
46.139 5.8870001 0.81400001 53
23.427999 3.0599999 -1.467 19
29.416 3.8599999 -1.381 4
33.776001 4.4559999 -1.058 53
0 0 0 0
46.530998 6.2119999 -0.0070000002 56
46.408001 6.2329998 0.71600002 56
22.681999 3.118 -1.475 19
28.063 3.875 -1.385 5
33.969002 4.7129998 -1.145 49
33.959 4.7340002 -0.61400002 40
38.801998 5.4390001 -0.096000001 40
39.169998 5.5209999 0.51300001 2
21.948 3.165 -1.482 18
26.9 3.8940001 -1.395 6
33.846001 4.921 -1.225 42
33.778 4.9359999 -0.69400001 41
38.390999 5.6389999 -0.189 43
38.594002 5.697 0.41100001 42
21.173 3.197 -1.4859999 17
25.851 3.918 -1.408 7
33.862999 5.1529999 -1.314 30
33.819 5.1669998 -0.78200001 61
38.145 5.8569999 -0.28600001 46
38.227001 5.8979998 0.31 39
20.393999 3.2190001 -1.488 15
24.837999 3.9330001 -1.4220001 10
33.632999 5.3429999 -1.396 20
33.848 5.3990002 -0.87400001 58
37.921001 6.0739999 -0.38600001 46
38.021 6.1199999 0.207 38
19.726 3.2460001 -1.4960001 15
23.868 3.9389999 -1.434 15
30.976999 5.1290002 -1.374 4
33.841 5.6220002 -0.96799999 64
37.75 6.296 -0.48899999 52
37.805 6.3319998 0.101 38
19.02 3.2579999 -1.5 14
22.927999 3.938 -1.446 19
29.190001 5.0289998 -1.381 4
33.966999 5.8699999 -1.071 54
34.001999 5.8969998 -0.53899997 10
37.84 6.5869999 -0.0060000001 35
18.334999 3.263 -1.503 13
22.031 3.9300001 -1.457 18
27.780001 4.9689999 -1.398 5
34.000999 6.1009998 -1.175 42
33.914001 6.1040001 -0.63800001 38
37.695 6.809 -0.118 44
17.705 3.2690001 -1.508 12
21.171 3.9170001 -1.467 17
26.318001 4.8800001 -1.4069999 5
34.069 6.3330002 -1.283 30
33.964001 6.3330002 -0.74400002 54
37.605999 7.0359998 -0.233 45
17.158001 3.2809999 -1.518 42
20.292 3.8870001 -1.473 15
25.030001 4.8039999 -1.419 7
33.698002 6.4850001 -1.377 8
34.039001 6.5679998 -0.85399997 54
37.646 7.2849998 -0.35100001 48
16.655001 3.2950001 -1.531 53
19.455999 3.8540001 -1.478 14
23.955999 4.7540002 -1.439 13
30.539 6.0739999 -1.35 9
34.243999 6.8270001 -0.972 44
37.636002 7.5240002 -0.47400001 51
16.226999 3.3169999 -1.549 79
18.635 3.8150001 -1.4809999 14
22.836 4.6810002 -1.451 19
28.68 5.8899999 -1.367 4
34.402 7.0799999 -1.0930001 44
0 0 0 0
15.737 3.3199999 -1.5599999 71
17.85 3.7690001 -1.483 12
21.728001 4.5939999 -1.4579999 17
26.996 5.7179999 -1.382 5
34.275002 7.2729998 -1.209 39
34.202999 7.276 -0.66600001 42
15.265 3.3210001 -1.571 77
17.187 3.7409999 -1.493 11
20.722 4.5139999 -1.467 16
25.674999 5.6020002 -1.408 7
34.220001 7.4809999 -1.331 15
34.201 7.493 -0.787 59
14.759 3.306 -1.577 82
16.525 3.7030001 -1.498 14
19.739 4.428 -1.473 15
24.202 5.434 -1.4170001 8
31.569 7.099 -1.345 8
34.313 7.7309999 -0.91600001 44
14.333 3.303 -1.5880001 76
15.982 3.684 -1.512 15
18.857 4.348 -1.479 14
22.988001 5.3070002 -1.434 12
28.922001 6.6859999 -1.341 4
34.48 7.9840002 -1.05 47
13.92 3.2969999 -1.6 74
15.426 3.654 -1.522 19
18.024 4.2709999 -1.4859999 12
21.933001 5.1999998 -1.455 18
27.320999 6.4850001 -1.374 5
34.613998 8.2290001 -1.187 27
13.519 3.289 -1.6109999 65
14.884 3.6210001 -1.531 27
17.329 4.2160001 -1.501 11
20.74 5.0479999 -1.461 16
25.701 6.2610002 -1.396 6
34.386002 8.3879995 -1.316 14
13.149 3.283 -1.624 53
14.412 3.5969999 -1.544 35
16.816 4.1960001 -1.526 27
19.695 4.9159999 -1.4680001 15
24.205999 6.046 -1.413 9
31.038 7.7610002 -1.314 3
12.792 3.2739999 -1.636 54
14.01 3.585 -1.562 38
16.135 4.1269999 -1.535 11
18.66 4.7740002 -1.471 13
22.795 5.835 -1.428 9
28.73 7.3610001 -1.337 3
12.426 3.2590001 -1.646 46
13.616 3.5680001 -1.579 51
15.486 4.0560002 -1.541 9
17.660999 4.6269999 -1.469 13
21.559999 5.6500001 -1.443 14
26.893999 7.053 -1.365 5
12.051 3.237 -1.653 60
13.223 3.5480001 -1.594 73
14.921 4 -1.552 8
16.955999 4.5450001 -1.4859999 54
20.43 5.4780002 -1.457 16
25.106001 6.7340002 -1.383 6
11.715 3.2190001 -1.6619999 58
12.829 3.5209999 -1.6059999 66
14.444 3.961 -1.569 10
16.336 4.4780002 -1.506 58
19.368999 5.3099999 -1.469 14
23.788 6.5229998 -1.416 9
11.402 3.204 -1.673 24
12.494 3.5050001 -1.624 70
13.94 3.9070001 -1.58 10
15.804 4.427 -1.53 79
18.275 5.118 -1.47 13
22.375 6.2670002 -1.433 9
10.999 3.158 -1.669 10
12.143 3.4809999 -1.638 60
13.482 3.8599999 -1.5930001 10
15.208 4.3509998 -1.545 79
17.466 4.9949999 -1.487 12
21.083 6.0289998 -1.448 15
10.705 3.138 -1.678 10
11.779 3.447 -1.647 63
13.081 3.823 -1.61 10
0 0 0 0
16.753 4.888 -1.5039999 11
19.812 5.7800002 -1.4529999 15
10.401 3.112 -1.684 11
11.524 3.441 -1.669 34
12.673 3.7780001 -1.622 10
14.259 4.2459998 -1.586 61
16 4.7600002 -1.513 10
18.726999 5.5700002 -1.462 14
10.13 3.0910001 -1.692 13
11.078 3.3729999 -1.6619999 11
12.278 3.7309999 -1.633 10
13.759 4.1760001 -1.599 33
15.177 4.6030002 -1.511 28
17.624001 5.342 -1.462 13
9.8570004 3.066 -1.7 10
10.749 3.336 -1.669 11
11.876 3.678 -1.641 9
13.29 4.1100001 -1.612 18
14.68 4.5349998 -1.535 43
16.976999 5.2420001 -1.492 38
9.5950003 3.0420001 -1.707 10
10.439 3.3010001 -1.676 11
11.508 3.631 -1.651 10
12.78 4.0250001 -1.6160001 10
14.313 4.5019999 -1.569 63
16.434 5.165 -1.527 31
9.3149996 3.007 -1.7079999 10
10.152 3.2679999 -1.6849999 12
11.149 3.5799999 -1.659 10
12.357 3.96 -1.627 10
0 0 0 0
15.639 5.0009999 -1.533 9
9.0799999 2.984 -1.716 10
9.8699999 3.234 -1.693 10
10.81 3.533 -1.6670001 10
11.954 3.898 -1.638 10
13.314 4.336 -1.599 68
14.935 4.8579998 -1.541 9
8.8430004 2.957 -1.722 10
9.5930004 3.197 -1.699 10
10.492 3.487 -1.676 10
11.567 3.836 -1.647 10
12.87 4.2600002 -1.613 68
14.395 4.7589998 -1.5599999 8
8.6009998 2.924 -1.724 9
9.3260002 3.1600001 -1.705 10
10.191 3.444 -1.684 11
11.191 3.773 -1.656 10
12.483 4.1999998 -1.633 61
13.701 4.6030002 -1.559 15
8.3730001 2.8940001 -1.728 9
9.0710001 3.1240001 -1.711 10
9.8970003 3.398 -1.692 10
10.848 3.7149999 -1.665 10
12.188 4.1659999 -1.661 33
13.268 4.527 -1.581 40
8.1490002 2.8629999 -1.7309999 9
8.8179998 3.086 -1.715 10
9.6239996 3.3570001 -1.701 10
10.509 3.655 -1.673 10
11.651 4.0430002 -1.653 14
12.885 4.4640002 -1.6059999 54
7.9499998 2.8369999 -1.737 10
8.5909996 3.053 -1.722 9
9.3500004 3.312 -1.707 10
10.195 3.5999999 -1.681 11
11.203 3.9460001 -1.652 9
12.473 4.3839998 -1.624 58
7.7589998 2.8099999 -1.743 11
8.3549995 3.0139999 -1.725 10
9.0830002 3.2650001 -1.711 10
9.9110003 3.5510001 -1.692 11
10.857 3.8800001 -1.663 9
12.044 4.2940001 -1.635 63
7.553 2.777 -1.743 9
8.1370001 2.9779999 -1.729 10
8.8269997 3.2179999 -1.716 10
9.6339998 3.5009999 -1.701 11
10.519 3.812 -1.6720001 9
11.656 4.2129998 -1.649 63
7.3730001 2.7490001 -1.748 10
7.928 2.9430001 -1.733 10
8.5869999 3.175 -1.721 9
9.342 3.4419999 -1.704 10
10.207 3.7490001 -1.681 9
11.328 4.1500001 -1.666 23
7.1939998 2.721 -1.751 9
7.723 2.9059999 -1.7359999 9
8.3640003 3.1340001 -1.727 9
9.0830002 3.391 -1.711 10
9.9099998 3.688 -1.6900001 10
10.865 4.033 -1.661 9
7.0370002 2.697 -1.758 9
7.5419998 2.8770001 -1.743 9
8.1300001 3.0869999 -1.728 10
8.8210001 3.336 -1.715 10
9.6309996 3.631 -1.699 9
10.516 3.9519999 -1.669 9
6.8720002 2.6689999 -1.761 9
7.348 2.839 -1.744 9
7.927 3.049 -1.734 9
8.5760002 3.2850001 -1.719 9
9.3400002 3.5650001 -1.7029999 10
10.201 3.882 -1.679 9
6.711 2.6400001 -1.7640001 8
7.1760001 2.8080001 -1.75 9
7.7210002 3.0079999 -1.738 9
8.3479996 3.2379999 -1.725 9
