# .PCD v0.7 - Point Cloud Data file format
VERSION 0.7
FIELDS x y z intensity
SIZE 4 4 4 4
TYPE F F F F
COUNT 1 1 1 1
WIDTH 1717
HEIGHT 1
VIEWPOINT 0 0 0 1 0 0 0
POINTS 1717
DATA ascii
6.599 -0.56599998 -1.801 10
6.961 -0.59200001 -1.7869999 23
7.4190001 -0.62599999 -1.786 9
7.8899999 -0.66000003 -1.775 10
8.3970003 -0.69700003 -1.7589999 14
9.0050001 -0.74199998 -1.747 11
6.4489999 -0.58200002 -1.8 10
6.8239999 -0.61000001 -1.794 13
7.2480001 -0.64200002 -1.789 11
7.6880002 -0.676 -1.776 15
8.1829996 -0.71399999 -1.762 18
8.7700005 -0.75999999 -1.7539999 11
6.3119998 -0.59799999 -1.802 10
6.677 -0.62699997 -1.7970001 10
7.0819998 -0.65899998 -1.791 10
7.5159998 -0.69400001 -1.7819999 25
7.9990001 -0.73299998 -1.77 10
8.566 -0.77999997 -1.763 12
6.1849999 -0.61400002 -1.804 10
6.539 -0.64399999 -1.8 10
6.9109998 -0.67500001 -1.79 11
7.3639998 -0.71399999 -1.79 11
7.8239999 -0.75300002 -1.778 10
8.342 -0.79699999 -1.766 12
6.0650001 -0.63099998 -1.806 10
6.4000001 -0.66000003 -1.801 11
6.7859998 -0.69400001 -1.799 13
7.165 -0.72799999 -1.784 14
7.6529999 -0.77100003 -1.784 10
8.132 -0.81400001 -1.7690001 25
5.954 -0.64899999 -1.8099999 10
6.2690001 -0.67699999 -1.802 10
6.6259999 -0.70999998 -1.796 11
7.0159998 -0.745 -1.788 23
7.454 -0.78600001 -1.781 11
7.954 -0.833 -1.776 12
5.8540001 -0.667 -1.816 9
6.1570001 -0.69499999 -1.807 11
6.5100002 -0.72899997 -1.803 11
6.8829999 -0.764 -1.794 12
7.2989998 -0.80400002 -1.786 11
7.7270002 -0.84600002 -1.768 18
5.744 -0.68300003 -1.817 10
6.0489998 -0.713 -1.811 11
6.3800001 -0.74599999 -1.804 11
6.7280002 -0.77999997 -1.793 10
7.1539998 -0.82300001 -1.791 11
7.5760002 -0.866 -1.776 21
5.6389999 -0.699 -1.817 11
5.928 -0.72899997 -1.8099999 10
6.2540002 -0.76200002 -1.8049999 11
6.6160002 -0.80000001 -1.801 10
7 -0.83999997 -1.7920001 21
7.4190001 -0.884 -1.781 11
5.5320001 -0.71499997 -1.816 10
5.8249998 -0.74599999 -1.813 10
6.1479998 -0.78100002 -1.8099999 10
6.4990001 -0.81900001 -1.806 11
6.8769999 -0.86000001 -1.799 18
7.2589998 -0.90100002 -1.7819999 10
5.448 -0.73299998 -1.821 9
5.7319999 -0.764 -1.817 10
6.039 -0.79799998 -1.812 10
6.3730001 -0.83600003 -1.806 11
6.7329998 -0.87599999 -1.799 11
7.1209998 -0.92000002 -1.7869999 11
5.3660002 -0.75099999 -1.825 10
5.6290002 -0.78100002 -1.817 9
5.9369998 -0.81599998 -1.8150001 10
6.2649999 -0.85399997 -1.811 10
6.6059999 -0.89399999 -1.801 11
6.9860001 -0.93900001 -1.791 10
5.283 -0.76800001 -1.827 10
5.5300002 -0.79699999 -1.817 11
5.8390002 -0.83399999 -1.818 11
6.1440001 -0.87099999 -1.8099999 12
6.4860001 -0.912 -1.803 11
6.8579998 -0.958 -1.795 10
5.191 -0.78299999 -1.826 10
5.4520001 -0.81599998 -1.822 11
5.7470002 -0.852 -1.821 10
6.0469999 -0.889 -1.813 10
6.3800001 -0.93099999 -1.807 10
6.7480001 -0.97799999 -1.801 11
5.1139998 -0.80000001 -1.827 10
5.368 -0.83200002 -1.823 11
5.6469998 -0.86799997 -1.8200001 11
5.948 -0.90700001 -1.816 10
6.27 -0.949 -1.809 11
6.6149998 -0.99400002 -1.799 11
5.039 -0.81699997 -1.829 10
5.2950001 -0.85100001 -1.8279999 10
5.5630002 -0.88700002 -1.823 11
5.8559999 -0.926 -1.818 9
6.1620002 -0.96700001 -1.809 10
6.5110002 -1.0140001 -1.804 10
4.9710002 -0.83499998 -1.8329999 9
5.2150002 -0.86799997 -1.829 10
5.4770002 -0.90399998 -1.825 10
5.7649999 -0.94400001 -1.821 11
6.0619998 -0.986 -1.812 10
6.402 -1.033 -1.806 10
4.8850002 -0.85000002 -1.8279999 9
5.1420002 -0.88700002 -1.832 10
5.3930001 -0.92199999 -1.825 11
5.6659999 -0.96100003 -1.819 10
5.973 -1.005 -1.816 10
6.2930002 -1.052 -1.808 11
4.8319998 -0.87 -1.835 10
5.0710001 -0.90499997 -1.834 11
5.3210001 -0.94099998 -1.829 11
5.5780001 -0.97799999 -1.8200001 12
5.8730001 -1.022 -1.8150001 10
6.1869998 -1.069 -1.808 11
4.7639999 -0.88700002 -1.836 10
4.994 -0.921 -1.8329999 10
5.243 -0.95899999 -1.83 10
5.5050001 -0.99800003 -1.824 10
5.7919998 -1.0420001 -1.819 11
6.0949998 -1.089 -1.811 10
4.698 -0.90399998 -1.836 9
4.9250002 -0.93800002 -1.8329999 10
5.171 -0.977 -1.831 12
5.4349999 -1.018 -1.8279999 10
5.7129998 -1.062 -1.822 11
6.0019999 -1.108 -1.812 11
4.645 -0.92199999 -1.84 9
4.8579998 -0.95599997 -1.8329999 10
5.1040001 -0.995 -1.8329999 11
5.3540001 -1.035 -1.827 11
5.6409998 -1.082 -1.826 10
5.921 -1.128 -1.8150001 10
4.5869999 -0.94 -1.841 9
4.8010001 -0.97399998 -1.837 10
5.0419998 -1.0140001 -1.836 11
5.29 -1.0549999 -1.831 9
5.5609999 -1.1 -1.826 10
5.8340001 -1.146 -1.8150001 11
4.539 -0.958 -1.845 9
4.7420001 -0.99199998 -1.8380001 9
4.987 -1.034 -1.84 10
5.2189999 -1.073 -1.831 10
5.4829998 -1.118 -1.826 10
5.7589998 -1.166 -1.818 10
4.4780002 -0.97399998 -1.8430001 8
4.6849999 -1.01 -1.839 10
4.915 -1.05 -1.8380001 11
5.158 -1.092 -1.834 10
5.415 -1.138 -1.8279999 11
5.6789999 -1.184 -1.818 11
4.441 -0.995 -1.851 9
4.6279998 -1.027 -1.84 10
4.8649998 -1.0700001 -1.842 11
5.0960002 -1.1109999 -1.836 10
5.3460002 -1.156 -1.829 11
5.6079998 -1.204 -1.8200001 11
4.381 -1.011 -1.848 9
4.5819998 -1.046 -1.8430001 10
4.8039999 -1.087 -1.842 11
5.0339999 -1.13 -1.836 10
5.2529998 -1.169 -1.821 10
5.54 -1.224 -1.822 10
4.3330002 -1.028 -1.849 9
4.539 -1.067 -1.848 10
4.744 -1.105 -1.84 11
4.9780002 -1.149 -1.8380001 11
5.2160001 -1.194 -1.83 11
5.4689999 -1.243 -1.822 10
4.2969999 -1.048 -1.854 9
4.4879999 -1.084 -1.848 10
4.6900001 -1.123 -1.841 10
4.927 -1.169 -1.841 10
5.1339998 -1.2079999 -1.824 10
5.3899999 -1.2589999 -1.818 10
4.2449999 -1.0650001 -1.852 9
4.441 -1.103 -1.849 10
4.6430001 -1.142 -1.8430001 11
4.8759999 -1.189 -1.8430001 11
5.1079998 -1.235 -1.836 11
5.3410001 -1.2819999 -1.823 10
4.2080002 -1.084 -1.8559999 9
4.395 -1.1210001 -1.85 10
4.6009998 -1.1619999 -1.847 10
4.8130002 -1.205 -1.84 10
5.0560002 -1.255 -1.8380001 10
5.3060002 -1.307 -1.832 11
4.1599998 -1.1 -1.854 9
4.3530002 -1.1390001 -1.852 9
4.552 -1.1799999 -1.847 11
4.7709999 -1.226 -1.8430001 10
5.0050001 -1.275 -1.839 10
5.2329998 -1.323 -1.827 10
4.1149998 -1.117 -1.853 8
4.3109999 -1.158 -1.853 10
4.5079999 -1.199 -1.848 10
4.7249999 -1.245 -1.845 10
4.9580002 -1.296 -1.842 10
5.197 -1.348 -1.834 11
4.079 -1.135 -1.854 8
4.2690001 -1.176 -1.853 9
4.4759998 -1.221 -1.853 10
4.677 -1.2640001 -1.845 10
4.8990002 -1.313 -1.839 10
5.1459999 -1.368 -1.835 11
4.039 -1.153 -1.854 8
4.2329998 -1.1950001 -1.855 9
4.4330001 -1.239 -1.853 9
4.6339998 -1.283 -1.845 10
4.8670001 -1.337 -1.845 10
5.0970001 -1.3890001 -1.836 10
4.006 -1.171 -1.8559999 9
4.1999998 -1.215 -1.858 10
4.3870001 -1.256 -1.851 10
4.5929999 -1.303 -1.847 9
4.8189998 -1.355 -1.844 10
5.0570002 -1.411 -1.839 10
3.971 -1.189 -1.8559999 8
4.1620002 -1.232 -1.857 9
4.3559999 -1.277 -1.854 10
4.5479999 -1.3200001 -1.845 10
4.7740002 -1.374 -1.844 10
5.0120001 -1.431 -1.84 10
3.9349999 -1.206 -1.855 9
4.1279998 -1.251 -1.858 9
4.316 -1.295 -1.854 10
4.5159998 -1.342 -1.848 9
4.7360001 -1.395 -1.845 10
4.974 -1.4529999 -1.842 10
3.9059999 -1.225 -1.857 8
4.0939999 -1.2690001 -1.859 8
4.2940001 -1.318 -1.86 9
4.4889998 -1.365 -1.853 9
4.7010002 -1.4170001 -1.847 9
4.9289999 -1.473 -1.842 10
3.8759999 -1.243 -1.858 8
4.0630002 -1.288 -1.86 9
4.2589998 -1.337 -1.86 9
4.4489999 -1.383 -1.851 9
4.658 -1.4349999 -1.846 9
4.8969998 -1.497 -1.845 10
3.848 -1.261 -1.86 8
4.0300002 -1.306 -1.859 8
4.2280002 -1.3559999 -1.8609999 9
4.415 -1.403 -1.852 9
4.6240001 -1.456 -1.846 10
4.8530002 -1.516 -1.8430001 10
3.8210001 -1.28 -1.86 8
4.0040002 -1.326 -1.8609999 8
4.1890001 -1.373 -1.858 9
4.3920002 -1.426 -1.8559999 9
4.599 -1.479 -1.85 10
4.822 -1.538 -1.845 10
3.793 -1.298 -1.8609999 8
3.9809999 -1.347 -1.865 9
4.1700001 -1.396 -1.863 9
4.3610001 -1.446 -1.8559999 9
4.5630002 -1.499 -1.849 9
4.796 -1.562 -1.848 10
3.77 -1.318 -1.863 8
3.9389999 -1.3609999 -1.858 8
4.1399999 -1.415 -1.862 9
4.3379998 -1.4680001 -1.859 9
4.5370002 -1.521 -1.852 9
4.7470002 -1.5779999 -1.842 9
3.7409999 -1.334 -1.8609999 8
3.9189999 -1.382 -1.8609999 10
4.1129999 -1.434 -1.862 9
4.3070002 -1.487 -1.858 9
4.5110002 -1.543 -1.853 9
4.7350001 -1.6059999 -1.85 10
3.7190001 -1.353 -1.862 8
3.9000001 -1.402 -1.864 9
4.0869999 -1.454 -1.862 9
4.277 -1.506 -1.857 9
4.4759998 -1.561 -1.85 10
4.7010002 -1.625 -1.847 10
3.701 -1.373 -1.864 8
3.885 -1.424 -1.867 10
4.0669999 -1.474 -1.864 8
4.2550001 -1.527 -1.859 9
4.4580002 -1.584 -1.853 9
4.6729999 -1.647 -1.847 9
3.684 -1.393 -1.867 8
3.8599999 -1.442 -1.8660001 8
4.0450001 -1.494 -1.865 9
4.23 -1.5470001 -1.858 9
4.4359999 -1.6059999 -1.854 9
4.6550002 -1.671 -1.85 10
3.6659999 -1.413 -1.868 8
3.8329999 -1.459 -1.864 9
4.0289998 -1.516 -1.868 9
4.217 -1.5700001 -1.862 9
4.4130001 -1.628 -1.854 9
4.6339998 -1.694 -1.851 9
3.6429999 -1.429 -1.8660001 7
3.8139999 -1.478 -1.864 8
4.013 -1.5369999 -1.869 8
4.1950002 -1.591 -1.8609999 9
4.3990002 -1.652 -1.857 9
4.619 -1.719 -1.854 9
3.6370001 -1.4529999 -1.873 8
3.8 -1.499 -1.8660001 9
3.9849999 -1.554 -1.865 9
4.178 -1.612 -1.863 9
4.3740001 -1.671 -1.855 9
4.5960002 -1.74 -1.853 10
3.619 -1.471 -1.873 7
3.7809999 -1.518 -1.8660001 9
3.97 -1.575 -1.867 9
4.1550002 -1.631 -1.86 8
4.3569999 -1.693 -1.8559999 9
4.579 -1.763 -1.854 10
3.602 -1.489 -1.872 8
3.767 -1.538 -1.867 9
3.954 -1.595 -1.867 8
4.1469998 -1.655 -1.864 8
4.3410001 -1.715 -1.8559999 9
4.5650001 -1.7869999 -1.854 10
3.5969999 -1.512 -1.877 8
3.75 -1.556 -1.8660001 9
3.944 -1.617 -1.869 9
4.1350002 -1.677 -1.8660001 8
4.336 -1.7410001 -1.8609999 9
4.552 -1.811 -1.8559999 9
3.5780001 -1.529 -1.875 8
3.737 -1.576 -1.8660001 8
3.9289999 -1.637 -1.869 9
4.1220002 -1.699 -1.8660001 9
4.3179998 -1.762 -1.859 10
4.5370002 -1.834 -1.855 9
3.566 -1.548 -1.875 7
3.73 -1.598 -1.869 8
3.921 -1.66 -1.8710001 8
4.1100001 -1.721 -1.8660001 9
4.3080001 -1.785 -1.86 10
4.5300002 -1.86 -1.857 9
3.5550001 -1.567 -1.875 7
3.7160001 -1.617 -1.868 8
3.911 -1.681 -1.872 8
4.098 -1.742 -1.8660001 8
4.302 -1.809 -1.862 9
4.5219998 -1.8839999 -1.858 9
3.5450001 -1.586 -1.876 7
3.7049999 -1.636 -1.867 8
3.9000001 -1.701 -1.8710001 8
4.0960002 -1.766 -1.869 9
4.2979999 -1.835 -1.864 9
4.5139999 -1.908 -1.858 9
3.5350001 -1.605 -1.875 7
3.7 -1.6569999 -1.869 8
3.892 -1.722 -1.8710001 9
4.086 -1.788 -1.868 8
4.289 -1.857 -1.863 9
4.507 -1.933 -1.859 10
3.5339999 -1.628 -1.8789999 8
3.6930001 -1.678 -1.87 8
3.891 -1.7460001 -1.875 8
4.0840001 -1.812 -1.8710001 9
4.2859998 -1.881 -1.865 9
4.4910002 -1.9529999 -1.854 8
3.5250001 -1.646 -1.878 8
3.691 -1.7 -1.872 9
3.882 -1.766 -1.873 9
4.0780001 -1.834 -1.8710001 9
4.2820001 -1.905 -1.865 9
4.5029998 -1.984 -1.8609999 10
3.523 -1.6670001 -1.88 8
3.6849999 -1.72 -1.872 9
3.8770001 -1.7869999 -1.873 9
4.0739999 -1.8559999 -1.87 8
4.283 -1.9299999 -1.867 9
4.5009999 -2.0090001 -1.8609999 9
3.52 -1.687 -1.881 7
3.6789999 -1.739 -1.87 8
3.881 -1.812 -1.876 8
4.0760002 -1.88 -1.872 8
4.283 -1.955 -1.868 9
4.5019999 -2.0339999 -1.8609999 9
3.5139999 -1.706 -1.88 8
3.684 -1.763 -1.875 8
3.882 -1.834 -1.878 9
4.0760002 -1.904 -1.873 9
4.2519999 -1.964 -1.854 8
4.494 -2.056 -1.857 9
3.507 -1.723 -1.878 8
3.6830001 -1.784 -1.875 8
3.8770001 -1.854 -1.876 9
4.0760002 -1.926 -1.872 8
4.2839999 -2.003 -1.867 9
4.5110002 -2.0880001 -1.863 9
3.5109999 -1.745 -1.88 8
3.6830001 -1.8049999 -1.875 8
3.8789999 -1.877 -1.876 9
4.0809999 -1.951 -1.874 9
4.2859998 -2.027 -1.867 9
4.5209999 -2.1159999 -1.8660001 9
3.51 -1.7640001 -1.8789999 8
3.6830001 -1.826 -1.874 8
3.8870001 -1.902 -1.8789999 9
4.0830002 -1.973 -1.873 8
4.2930002 -2.052 -1.867 9
4.5159998 -2.1370001 -1.8609999 9
3.513 -1.785 -1.88 7
3.6900001 -1.849 -1.876 8
3.8840001 -1.92 -1.875 8
4.0900002 -1.998 -1.874 8
4.3070002 -2.0810001 -1.87 9
4.5349998 -2.1689999 -1.865 9
3.5139999 -1.804 -1.8789999 9
3.6919999 -1.869 -1.876 7
3.8889999 -1.943 -1.875 9
4.098 -2.023 -1.874 8
4.3080001 -2.1029999 -1.867 9
4.5370002 -2.1919999 -1.862 8
3.5179999 -1.824 -1.8789999 7
3.7019999 -1.893 -1.878 8
3.8989999 -1.967 -1.877 9
4.1059999 -2.0469999 -1.874 9
4.2979999 -2.118 -1.858 8
4.5469999 -2.2179999 -1.8609999 8
3.5250001 -1.845 -1.88 8
3.7119999 -1.916 -1.8789999 9
3.9059999 -1.989 -1.877 9
4.1139998 -2.0699999 -1.874 9
4.3319998 -2.155 -1.869 9
4.566 -2.2490001 -1.863 8
3.5339999 -1.867 -1.881 8
3.7149999 -1.9349999 -1.877 8
3.9230001 -2.016 -1.88 9
4.1279998 -2.096 -1.875 8
4.3520002 -2.1849999 -1.8710001 9
4.573 -2.2720001 -1.859 9
3.536 -1.885 -1.878 7
3.73 -1.959 -1.88 9
3.9289999 -2.0369999 -1.877 9
4.145 -2.122 -1.876 7
4.3730001 -2.214 -1.873 9
4.5999999 -2.3050001 -1.863 9
3.5480001 -1.9069999 -1.88 7
3.7479999 -1.985 -1.8839999 8
3.9449999 -2.062 -1.8789999 8
4.1599998 -2.1470001 -1.876 8
4.3889999 -2.2409999 -1.873 8
4.6339998 -2.342 -1.868 8
3.563 -1.9299999 -1.881 7
3.757 -2.006 -1.882 8
3.967 -2.0899999 -1.883 9
4.1849999 -2.177 -1.88 8
4.4050002 -2.266 -1.8710001 9
4.6500001 -2.368 -1.8660001 8
3.573 -1.95 -1.881 8
3.766 -2.0250001 -1.8789999 9
3.9760001 -2.109 -1.8789999 8
4.197 -2.1989999 -1.877 9
4.4380002 -2.3 -1.877 8
4.6820002 -2.401 -1.869 8
3.5880001 -1.971 -1.881 8
3.7880001 -2.0510001 -1.882 8
3.9979999 -2.1359999 -1.881 8
4.2220001 -2.2279999 -1.8789999 8
4.454 -2.3239999 -1.873 8
4.698 -2.4260001 -1.865 8
3.5999999 -1.9910001 -1.88 8
3.803 -2.073 -1.881 8
4.0170002 -2.161 -1.881 8
4.237 -2.2509999 -1.876 8
4.48 -2.3529999 -1.874 7
4.7290001 -2.4579999 -1.8660001 8
3.6159999 -2.013 -1.8789999 7
3.822 -2.0969999 -1.881 8
4.0359998 -2.184 -1.88 8
4.2639999 -2.279 -1.877 8
4.5019999 -2.3789999 -1.872 8
4.7600002 -2.49 -1.8660001 8
3.6389999 -2.0369999 -1.882 8
3.8410001 -2.119 -1.88 8
4.0580001 -2.2079999 -1.8789999 9
4.2969999 -2.3099999 -1.88 8
4.5450001 -2.4159999 -1.877 8
4.8070002 -2.529 -1.8710001 8
3.6600001 -2.0599999 -1.882 8
3.8740001 -2.148 -1.885 8
4.092 -2.2390001 -1.883 8
4.3189998 -2.3340001 -1.878 8
4.573 -2.4430001 -1.875 8
4.835 -2.5569999 -1.868 9
3.6800001 -2.0810001 -1.881 7
3.892 -2.1689999 -1.883 8
4.1100001 -2.26 -1.8789999 9
4.3530002 -2.3640001 -1.8789999 8
4.6030002 -2.4719999 -1.874 8
4.8740001 -2.5910001 -1.868 8
3.704 -2.1040001 -1.882 8
3.9130001 -2.191 -1.88 8
4.1430001 -2.2880001 -1.881 9
4.388 -2.3940001 -1.88 8
4.6409998 -2.5039999 -1.874 8
4.915 -2.6240001 -1.868 8
3.72 -2.122 -1.877 8
3.9419999 -2.2160001 -1.881 9
4.1700001 -2.313 -1.8789999 8
4.4159999 -2.4200001 -1.877 8
4.6799998 -2.5350001 -1.875 8
4.9619999 -2.661 -1.87 8
3.7520001 -2.148 -1.88 7
3.9779999 -2.244 -1.8839999 9
4.21 -2.3440001 -1.882 8
4.4510002 -2.448 -1.877 8
4.7189999 -2.566 -1.874 8
5.0100002 -2.697 -1.87 8
3.7909999 -2.177 -1.885 8
4.0110002 -2.27 -1.8839999 9
4.2449999 -2.3710001 -1.882 8
4.4959998 -2.4809999 -1.8789999 8
4.763 -2.599 -1.874 8
5.0609999 -2.733 -1.8710001 8
3.8169999 -2.198 -1.883 8
4.0380001 -2.2920001 -1.881 8
4.2849998 -2.401 -1.883 7
4.5419998 -2.5139999 -1.881 7
4.816 -2.635 -1.876 7
5.1199999 -2.7739999 -1.873 9
3.849 -2.2219999 -1.883 8
4.085 -2.325 -1.887 8
4.3179998 -2.425 -1.88 8
4.5879998 -2.546 -1.882 8
4.8660002 -2.6700001 -1.876 8
5.1700001 -2.8080001 -1.8710001 8
3.885 -2.247 -1.8839999 8
4.1220002 -2.3510001 -1.886 8
4.368 -2.4579999 -1.8839999 8
4.6259999 -2.572 -1.878 7
4.9169998 -2.704 -1.876 8
5.2179999 -2.8410001 -1.867 8
3.924 -2.273 -1.885 8
4.1500001 -2.3710001 -1.881 9
4.4089999 -2.4860001 -1.883 8
4.6760001 -2.605 -1.878 8
4.9720001 -2.7390001 -1.876 8
5.2820001 -2.881 -1.868 9
3.9590001 -2.296 -1.8839999 7
4.197 -2.401 -1.883 8
4.454 -2.5150001 -1.882 8
4.7290001 -2.638 -1.878 8
5.0320001 -2.777 -1.876 8
5.3520002 -2.9230001 -1.869 8
4.0040002 -2.3239999 -1.886 8
4.2319999 -2.4230001 -1.8789999 9
4.5019999 -2.5439999 -1.881 8
4.789 -2.674 -1.88 8
5.0939999 -2.813 -1.877 8
5.428 -2.9690001 -1.872 9
4.039 -2.345 -1.882 8
4.2810001 -2.4519999 -1.88 8
4.552 -2.5739999 -1.881 7
4.8410001 -2.7049999 -1.8789999 8
5.164 -2.8540001 -1.878 8
5.5 -3.01 -1.8710001 9
4.0879998 -2.3740001 -1.8839999 8
4.336 -2.483 -1.882 8
4.6020002 -2.602 -1.8789999 7
4.9050002 -2.7409999 -1.88 8
5.2249999 -2.8889999 -1.876 8
5.5710001 -3.05 -1.87 9
4.1360002 -2.401 -1.885 8
4.3829999 -2.5090001 -1.881 7
4.664 -2.6370001 -1.881 7
4.967 -2.776 -1.8789999 8
5.2880001 -2.924 -1.873 8
5.6529999 -3.096 -1.87 9
4.1820002 -2.4260001 -1.8839999 8
4.4310002 -2.5350001 -1.878 7
4.7179999 -2.6659999 -1.878 7
5.0419998 -2.816 -1.883 8
5.3660002 -2.9660001 -1.874 9
5.7319999 -3.1370001 -1.869 10
4.2360001 -2.454 -1.885 8
4.487 -2.5650001 -1.878 8
4.7880001 -2.7030001 -1.882 8
5.0999999 -2.846 -1.878 9
5.4439998 -3.006 -1.874 9
5.8400002 -3.194 -1.875 24
4.2870002 -2.48 -1.8839999 8
4.5430002 -2.5940001 -1.877 7
4.8449998 -2.7320001 -1.878 8
5.1760001 -2.885 -1.8789999 9
5.5279999 -3.05 -1.875 9
5.8979998 -3.223 -1.864 33
4.3449998 -2.5090001 -1.8839999 8
4.6009998 -2.622 -1.875 7
4.9200001 -2.7690001 -1.881 8
5.2470002 -2.9200001 -1.877 9
5.6110001 -3.0910001 -1.874 8
5.9860001 -3.266 -1.8609999 30
4.408 -2.54 -1.886 8
4.6659999 -2.6530001 -1.875 7
4.9889998 -2.803 -1.8789999 8
5.3299999 -2.961 -1.878 9
5.7049999 -3.1370001 -1.874 10
6.0609999 -3.3010001 -1.852 22
4.4629998 -2.5650001 -1.8839999 8
4.744 -2.691 -1.8789999 8
5.066 -2.839 -1.88 8
5.4089999 -2.9979999 -1.876 9
5.8140001 -3.1900001 -1.8789999 24
6.2189999 -3.381 -1.868 8
4.5250001 -2.5929999 -1.883 8
4.802 -2.7160001 -1.875 8
5.1409998 -2.8740001 -1.878 9
5.5 -3.04 -1.877 9
5.8769999 -3.217 -1.867 35
6.3260002 -3.4300001 -1.8660001 8
4.5900002 -2.622 -1.882 7
4.8829999 -2.753 -1.877 8
5.2189999 -2.908 -1.877 9
5.5929999 -3.0829999 -1.877 8
5.9679999 -3.257 -1.863 34
6.441 -3.483 -1.865 8
4.6570001 -2.6500001 -1.88 7
4.9549999 -2.7839999 -1.875 8
5.3060002 -2.9460001 -1.877 9
5.6859999 -3.1240001 -1.875 10
6.0409999 -3.286 -1.852 26
6.5580001 -3.5350001 -1.862 8
4.737 -2.6849999 -1.883 8
5.0430002 -2.823 -1.877 8
5.3899999 -2.9820001 -1.875 9
5.7930002 -3.171 -1.877 19
6.1609998 -3.3399999 -1.854 12
6.6750002 -3.586 -1.858 8
4.8070002 -2.7130001 -1.882 8
5.1160002 -2.8510001 -1.874 8
5.4850001 -3.0220001 -1.875 9
5.8740001 -3.2030001 -1.869 33
6.3179998 -3.4119999 -1.865 8
6.8109999 -3.645 -1.858 8
4.8899999 -2.747 -1.883 8
5.2129998 -2.8929999 -1.877 8
5.585 -3.0639999 -1.876 9
5.9679999 -3.24 -1.864 35
6.4429998 -3.4649999 -1.865 8
6.9439998 -3.701 -1.855 8
4.9629998 -2.7739999 -1.8789999 8
5.2979999 -2.925 -1.874 9
5.6900001 -3.1070001 -1.876 9
6.0570002 -3.273 -1.8559999 33
6.5609999 -3.5120001 -1.8609999 8
7.0840001 -3.7590001 -1.851 7
5.0489998 -2.8069999 -1.878 8
5.3899999 -2.961 -1.873 9
5.8070002 -3.155 -1.8789999 10
6.151 -3.3069999 -1.847 20
6.6880002 -3.563 -1.857 8
7.2350001 -3.8210001 -1.849 7
5.1409998 -2.842 -1.88 7
5.4860001 -2.997 -1.8710001 9
5.9089999 -3.1930001 -1.875 28
6.348 -3.3959999 -1.868 8
6.8330002 -3.6210001 -1.857 8
7.3909998 -3.8840001 -1.846 7
5.2309999 -2.875 -1.878 8
5.592 -3.0369999 -1.872 9
5.9910002 -3.2190001 -1.865 53
6.461 -3.437 -1.863 8
6.9689999 -3.6730001 -1.853 8
7.5570002 -3.95 -1.844 8
5.3270001 -2.9089999 -1.878 8
5.6960001 -3.075 -1.8710001 8
6.098 -3.257 -1.86 47
6.5900002 -3.4849999 -1.86 8
7.1220002 -3.7320001 -1.851 7
7.7350001 -4.02 -1.842 8
5.4190001 -2.9400001 -1.874 9
5.7979999 -3.1099999 -1.867 10
6.1929998 -3.2869999 -1.85 30
6.723 -3.533 -1.8559999 8
7.2839999 -3.793 -1.85 8
7.9200001 -4.0910001 -1.84 8
5.5279999 -2.9790001 -1.876 9
5.947 -3.168 -1.877 17
6.3379998 -3.3410001 -1.854 11
6.8730001 -3.5880001 -1.8559999 7
7.4460001 -3.8540001 -1.846 8
8.1090002 -4.1630001 -1.836 9
5.6290002 -3.0109999 -1.873 9
6.04 -3.1949999 -1.867 33
6.5089998 -3.4070001 -1.863 8
7.0279999 -3.6440001 -1.854 7
7.6269999 -3.921 -1.845 8
8.309 -4.237 -1.832 8
5.7379999 -3.0469999 -1.8710001 9
6.1329999 -3.22 -1.8559999 42
6.6399999 -3.451 -1.859 8
7.178 -3.6949999 -1.85 8
7.7979999 -3.98 -1.84 8
8.5200005 -4.3140001 -1.829 9
5.8540001 -3.0840001 -1.87 9
6.2529998 -3.2579999 -1.853 34
6.7800002 -3.497 -1.8559999 8
7.3369999 -3.75 -1.846 8
7.9860001 -4.0469999 -1.837 8
8.7390003 -4.3940001 -1.825 9
5.9949999 -3.1329999 -1.876 8
6.3590002 -3.2880001 -1.844 25
6.9250002 -3.5450001 -1.852 8
7.5 -3.803 -1.842 7
8.1809998 -4.1129999 -1.8329999 8
8.9799995 -4.4809999 -1.823 11
6.1279998 -3.1760001 -1.878 20
6.5190001 -3.342 -1.848 11
7.086 -3.598 -1.851 8
7.6799998 -3.8640001 -1.839 8
8.3929996 -4.1869998 -1.83 9
9.2229996 -4.566 -1.818 13
6.2220001 -3.1960001 -1.8660001 29
6.698 -3.405 -1.857 9
7.2519999 -3.651 -1.849 8
7.8779998 -3.9300001 -1.8380001 8
8.6140003 -4.2620001 -1.827 9
9.4949999 -4.6620002 -1.816 15
6.3239999 -3.22 -1.855 32
6.842 -3.447 -1.853 8
7.415 -3.7 -1.845 8
8.0699997 -3.9909999 -1.834 8
8.8439999 -4.3379998 -1.823 9
9.7580004 -4.75 -1.8099999 14
6.4390001 -3.2479999 -1.846 31
6.9920001 -3.4909999 -1.849 8
7.585 -3.7509999 -1.84 8
8.276 -4.0570002 -1.831 9
9.0819998 -4.4159999 -1.819 10
10.04 -4.8449998 -1.804 16
6.5650001 -3.279 -1.84 23
7.1560001 -3.539 -1.847 8
7.7820001 -3.812 -1.84 8
8.4899998 -4.1230001 -1.827 8
9.3400002 -4.5 -1.8150001 11
10.274 -4.9130001 -1.786 17
6.744 -3.336 -1.846 11
7.3239999 -3.5869999 -1.845 7
7.9790001 -3.872 -1.8380001 8
8.7150002 -4.1919999 -1.823 8
9.6079998 -4.5840001 -1.811 12
10.387 -4.9200001 -1.7460001 19
6.9359999 -3.3959999 -1.854 8
7.4959998 -3.6340001 -1.84 8
8.1719999 -3.925 -1.832 8
8.9449997 -4.2600002 -1.818 9
9.8730001 -4.665 -1.803 13
10.488 -4.9200001 -1.7029999 20
7.086 -3.4330001 -1.849 8
7.677 -3.6830001 -1.837 8
8.3870001 -3.987 -1.829 8
9.2040005 -4.3379998 -1.8150001 10
10.198 -4.7690001 -1.803 14
10.63 -4.9359999 -1.665 20
7.2540002 -3.477 -1.847 8
7.8769999 -3.7390001 -1.836 8
8.6149998 -4.052 -1.827 8
9.4680004 -4.4159999 -1.811 11
10.507 -4.8629999 -1.7970001 15
10.861 -4.9910002 -1.64 16
7.4260001 -3.52 -1.844 8
8.0620003 -3.7839999 -1.83 7
8.8339996 -4.1100001 -1.8200001 8
9.75 -4.4990001 -1.809 11
10.709 -4.9029999 -1.77 17
11.22 -5.1020002 -1.631 13
7.6020002 -3.562 -1.84 8
8.2609997 -3.8340001 -1.825 7
9.0749998 -4.1750002 -1.816 8
10.043 -4.5819998 -1.8049999 13
10.829 -4.9039998 -1.729 19
11.587 -5.211 -1.62 14
7.7870002 -3.6070001 -1.837 8
8.4849997 -3.8929999 -1.824 8
9.3129997 -4.2360001 -1.809 9
10.323 -4.6570001 -1.796 12
10.951 -4.9039998 -1.687 20
11.967 -5.322 -1.608 15
7.987 -3.655 -1.835 7
8.7069998 -3.947 -1.819 8
9.5979996 -4.3140001 -1.809 9
10.657 -4.7509999 -1.793 14
11.117 -4.9190001 -1.649 19
12.253 -5.3860002 -1.579 21
8.1829996 -3.6989999 -1.83 7
8.9469995 -4.007 -1.816 8
9.8809996 -4.388 -1.8049999 12
10.956 -4.8270001 -1.7819999 16
11.396 -4.9829998 -1.6289999 17
12.745 -5.5349998 -1.573 17
8.3920002 -3.7460001 -1.827 7
9.1660004 -4.0539999 -1.807 9
10.186 -4.467 -1.803 11
11.213 -4.8779998 -1.762 18
11.774 -5.086 -1.619 14
13.018 -5.585 -1.538 15
8.6190004 -3.7969999 -1.825 8
9.4280005 -4.1160002 -1.8049999 8
7.7189999 -3.3410001 -1.322 0
11.374 -4.8850002 -1.724 19
12.177 -5.1919999 -1.608 16
8.1239996 -3.441 -0.91600001 33
8.2510004 -3.5869999 -1.699 5
7.6799998 -3.309 -1.426 10
7.7620001 -3.316 -1.286 29
11.525 -4.8850002 -1.683 20
8.2069998 -3.454 -1.039 9
8.0889997 -3.382 -0.87 37
7.6919999 -3.299 -1.539 13
7.7800002 -3.306 -1.4 0
7.8340001 -3.302 -1.255 28
8.3520002 -3.493 -1.175 0
8.0959997 -3.362 -0.98299998 12
8.085 -3.335 -0.82800001 39
7.921 -3.349 -1.54 11
7.915 -3.3169999 -1.38 6
8.2629995 -3.4349999 -1.279 30
8.3030005 -3.425 -1.124 44
8.0559998 -3.3 -0.93599999 46
8.0629997 -3.2809999 -0.78399998 46
8.0310001 -3.348 -1.516 19
8.217 -3.395 -1.388 14
8.3559999 -3.425 -1.249 26
8.1730003 -3.3239999 -1.063 150
8.0719995 -3.26 -0.89700001 54
8.0760002 -3.24 -0.745 47
8.1940002 -3.3659999 -1.501 25
8.0690002 -3.286 -1.3200001 33
8.3280001 -3.3640001 -1.2 53
8.2539997 -3.309 -1.031 10
8.0909996 -3.2219999 -0.85799998 48
8.0810003 -3.197 -0.70499998 46
8.1499996 -3.2980001 -1.448 38
8.1599998 -3.2739999 -1.291 5
8.2530003 -3.2839999 -1.146 11
8.1429996 -3.2160001 -0.97600001 18
8.1059999 -3.1789999 -0.81900001 45
8.1079998 -3.1600001 -0.667 46
8.2320004 -3.2809999 -1.419 38
8.1800003 -3.2320001 -1.251 0
12.4 -4.8600001 -1.658 22
8.1459999 -3.1689999 -0.935 43
8.1230001 -3.138 -0.77999997 51
8.1780005 -3.1389999 -0.63300002 42
8.1619997 -3.2019999 -1.363 5
8.2600002 -3.2119999 -1.22 1
8.3669996 -3.2279999 -1.077 32
8.1700001 -3.128 -0.89700001 44
8.2119999 -3.1229999 -0.74900001 52
8.2469997 -3.1159999 -0.60000002 31
8.1490002 -3.145 -1.318 6
8.302 -3.177 -1.184 45
8.3070002 -3.154 -1.028 41
8.2119999 -3.095 -0.86199999 46
14.106 -5.2800002 -1.22 3
8.2629995 -3.073 -0.56199998 38
8.2480001 -3.132 -1.2920001 29
8.3389997 -3.1389999 -1.148 54
8.3599997 -3.1229999 -0.99400002 33
8.7819996 -3.256 -0.88 0
8.3629999 -3.079 -0.68400002 10
8.3699999 -3.062 -0.53100002 27
8.5030003 -3.174 -1.289 39
8.3990002 -3.109 -1.114 29
8.4809999 -3.1140001 -0.96700001 1
14.402 -5.25 -1.376 28
8.3859997 -3.036 -0.64700001 34
24.974001 -8.9849997 -1.474 4
8.8120003 -3.233 -1.2920001 23
8.5360003 -3.1059999 -1.092 25
13.835 -4.994 -1.512 32
8.5360003 -3.059 -0.77600002 10
8.5159998 -3.0309999 -0.61799997 9
26.503 -9.3730001 -1.447 4
9.0719995 -3.27 -1.286 15
8.8219995 -3.1530001 -1.086 1
14.207 -5.0370002 -1.4859999 23
8.5810003 -3.02 -0.741 30
21.863001 -7.6440001 -1.492 19
28.07 -9.7519999 -1.409 3
12.724 -4.5029998 -1.743 13
8.9499998 -3.141 -1.0599999 0
14.869 -5.178 -1.489 18
19.188999 -6.6329999 -1.572 14
23.280001 -7.993 -1.487 5
29.775 -10.158 -1.368 4
13.091 -4.5479999 -1.733 12
14.228 -4.901 -1.6210001 19
15.838 -5.414 -1.515 15
20.122999 -6.829 -1.561 15
24.757999 -8.3439999 -1.475 4
0 0 0 0
13.458 -4.5879998 -1.72 13
14.638 -4.948 -1.603 16
0 0 0 0
21.033001 -7.0019999 -1.5420001 23
26.143 -8.6440001 -1.449 4
0 0 0 0
13.862 -4.6329999 -1.71 13
15.564 -5.1589999 -1.637 12
18.184 -5.9809999 -1.584 13
21.857 -7.1360002 -1.512 7
27.764 -9.0030003 -1.427 4
38.108002 -12.28 -1.285 1
14.292 -4.6830001 -1.701 14
16.186001 -5.2589998 -1.633 13
18.974001 -6.1170001 -1.574 14
22.957001 -7.3470001 -1.495 5
29.34 -9.3249998 -1.391 4
0 0 0 0
14.723 -4.7249999 -1.689 14
16.709 -5.3169999 -1.6160001 11
20.031 -6.3249998 -1.579 17
24.207001 -7.5869999 -1.479 4
31.325001 -9.75 -1.3609999 3
0 0 0 0
15.115 -4.7490001 -1.67 12
17.27 -5.381 -1.599 11
20.384001 -6.3010001 -1.526 23
25.705999 -7.888 -1.471 4
33.907001 -10.332 -1.345 1
0 0 0 0
15.584 -4.7909999 -1.659 9
17.951 -5.473 -1.592 10
21.464001 -6.493 -1.524 7
27.106001 -8.1389999 -1.448 4
0 0 0 0
0 0 0 0
16.066999 -4.8299999 -1.647 10
18.573 -5.5359998 -1.574 13
22.466999 -6.6440001 -1.5089999 5
28.438999 -8.3470001 -1.414 5
39.493999 -11.511 -1.276 1
0 0 0 0
16.554001 -4.8629999 -1.632 10
19.236 -5.6030002 -1.557 10
23.415001 -6.7659998 -1.4859999 5
30.059999 -8.6199999 -1.385 3
41.448002 -11.803 -1.193 1
50.855999 -14.389 -0.58999997 159
17.072001 -4.8979998 -1.619 11
19.941999 -5.6729999 -1.5420001 10
24.459999 -6.9029999 -1.465 4
31.945999 -8.948 -1.36 11
0 0 0 0
51.192001 -14.144 -0.421 37
17.615 -4.9330001 -1.6059999 8
20.74 -5.7589998 -1.53 7
25.702 -7.079 -1.45 4
0 0 0 0
0 0 0 0
76.223 -20.552 -0.38100001 13
18.216 -4.9770002 -1.596 9
21.542 -5.8340001 -1.515 8
27.091999 -7.2779999 -1.438 5
35.955002 -9.585 -1.291 1
46.997002 -12.439 -0.88599998 57
64.956001 -17.076 -0.119 7
18.761999 -4.9949999 -1.58 11
22.382 -5.9089999 -1.499 6
28.608 -7.4910002 -1.425 5
0 0 0 0
44.981998 -11.604 -0.708 62
65.356003 -16.747 0.077 51
19.296 -5.0040002 -1.561 11
23.304001 -5.9920001 -1.4859999 6
29.805 -7.6009998 -1.391 5
40.869999 -10.343 -1.2130001 1
43.812 -11.005 -0.55800003 23
47.265999 -11.79 0.19499999 30
19.986 -5.0450001 -1.553 10
24.153 -6.0450001 -1.465 5
31.143999 -7.73 -1.359 5
43.577999 -10.728 -1.163 35
45.560001 -11.134 -0.44800001 15
45.533001 -11.049 0.317 5
20.708 -5.0830002 -1.545 10
25.237 -6.1409998 -1.454 5
33.181999 -8.0059996 -1.349 1
43.025002 -10.299 -1.025 70
44.438999 -10.557 -0.31099999 23
44.118999 -10.408 0.428 22
21.384001 -5.0999999 -1.5319999 11
26.337 -6.2249999 -1.441 5
0 0 0 0
42.890999 -9.9720001 -0.90399998 62
44.618999 -10.296 -0.19400001 8
125.249 -28.691 1.546 37
22.084 -5.1139998 -1.5190001 9
27.445999 -6.2989998 -1.426 5
20.127001 -4.579 -0.70700002 25
20.517 -4.6300001 -0.37799999 0
55.105 -12.34 -0.096000001 25
54.631001 -12.145 0.81099999 92
20.285999 -4.5570002 -1.34 0
20.275999 -4.5120001 -0.99900001 78
19.915001 -4.3940001 -0.648 64
19.797001 -4.3309999 -0.31400001 58
19.921 -4.323 0.014 1
111.089 -23.929001 1.9220001 9
20.171 -4.3889999 -1.279 5
19.941999 -4.2989998 -0.93099999 29
19.775 -4.223 -0.59299999 98
19.841 -4.2020001 -0.266 63
56.771 -11.93 0.175 3
97.911003 -20.416 1.921 10
19.687 -4.145 -1.198 141
19.834 -4.1370001 -0.87699997 12
19.667999 -4.0650001 -0.54400003 32
19.962 -4.0900002 -0.221 21
57.495998 -11.687 0.30899999 52
102.557 -20.673 2.2409999 31
19.704 -4.0089998 -1.152 127
19.679001 -3.9660001 -0.824 6
19.954 -3.984 -0.50599998 64
44.082001 -8.7259998 -0.391 2
58.151001 -11.414 0.43900001 27
112.05 -21.816 2.6860001 24
20.306 -3.9879999 -1.14 16
20.15 -3.9189999 -0.79900002 52
20.478001 -3.9449999 -0.47400001 11
47.757999 -9.1190004 -0.322 14
58.882 -11.146 0.56699997 12
0 0 0 0
20.438 -3.8699999 -1.102 20
20.330999 -3.8110001 -0.76200002 48
39.439999 -7.3239999 -0.833 45
47.683998 -8.7740002 -0.226 3
0 0 0 0
94.866997 -17.15 2.6459999 33
27.541 -5.02 -1.429 6
0 0 0 0
39.210999 -7.006 -0.75199997 56
52.551998 -9.302 -0.15000001 7
60.144001 -10.551 0.80599999 13
94.660004 -16.462 2.809 27
28.641001 -5.02 -1.4299999 6
39.068001 -6.7740002 -1.313 14
38.951 -6.6880002 -0.67500001 65
46.368 -7.882 -0.050000001 34
60.693001 -10.224 0.91900003 6
94.667 -15.804 2.9690001 17
29.155001 -4.9029999 -1.403 6
39.021 -6.4920001 -1.243 41
38.814999 -6.3909998 -0.60600001 56
46.297001 -7.5469999 0.027000001 52
131.491 -21.236 2.2060001 13
79.787003 -12.766 2.628 33
29.969999 -4.8270001 -1.39 5
38.702 -6.164 -1.168 54
38.827 -6.1199999 -0.54299998 54
46.271 -7.2179999 0.1 49
0 0 0 0
137.55901 -21.049 4.7340002 14
30.625999 -4.7150002 -1.3710001 4
38.689999 -5.8899999 -1.107 54
39.181999 -5.8969998 -0.48899999 23
46.568001 -6.9369998 0.168 9
0 0 0 0
137.105 -20.014999 4.9070001 36
31.895 -4.6820002 -1.38 9
38.268002 -5.552 -1.039 56
39.118999 -5.6100001 -0.43399999 8
47.07 -6.6760001 0.234 59
98.352997 -13.802 2.0680001 7
0 0 0 0
32.743999 -4.5710001 -1.3710001 12
38.035 -5.2459998 -0.98199999 59
40.671001 -5.5440001 -0.39899999 4
47.060001 -6.3460002 0.292 48
98.512001 -13.133 2.188 18
81.916 -10.803 3.1300001 36
33.257 -4.4060001 -1.351 2
37.833 -4.9510002 -0.93199998 76
41.176998 -5.323 -0.35600001 1
47.130001 -6.0209999 0.345 22
161.323 -20.372999 3.7590001 150
81.203003 -10.136 3.187 37
0 0 0 0
37.643002 -4.6589999 -0.88599998 66
46.957001 -5.7389998 -0.35699999 57
47.368 -5.7179999 0.39399999 1
127.996 -15.27 3.1040001 48
140.966 -16.620001 5.6630001 39
34.720001 -4.1079998 -1.337 5
37.48 -4.3730001 -0.84600002 70
47.57 -5.48 -0.317 7
90.704002 -10.314 0.83700001 42
139.92799 -15.716 3.5139999 14
141.123 -15.649 5.7839999 20
0 0 0 0
37.362 -4.0960002 -0.81099999 75
46.881001 -5.0689998 -0.27399999 4
88.202003 -9.408 0.88200003 45
140.42 -14.778 3.631 20
140.718 -14.623 5.868 58
37.269001 -3.8789999 -1.372 15
37.191002 -3.8150001 -0.77999997 78
54.451 -5.5050001 -0.28 6
88.334 -8.7989998 0.94199997 19
83.980003 -8.2480001 2.224 14
141.27499 -13.689 5.9749999 15
37.171001 -3.605 -1.344 26
37.046001 -3.5380001 -0.75400001 75
55.252998 -5.1960001 -0.252 8
92.723999 -8.592 1.04 58
142.298 -12.988 3.842 12
0 0 0 0
37.120998 -3.3369999 -1.322 28
36.972 -3.2690001 -0.73400003 71
56.328999 -4.8990002 -0.23 22
93.313004 -7.9850001 1.0880001 9
146.125 -12.311 4.0050001 12
0 0 0 0
37.002998 -3.0639999 -1.302 35
36.897999 -3.0009999 -0.71799999 67
40.985001 -3.273 -0.153 58
41.465 -3.2539999 0.49700001 1
145.853 -11.257 4.0409999 44
146.625 -11.124 6.368 28
36.912998 -2.7920001 -1.2869999 35
36.737 -2.7260001 -0.704 72
40.821999 -2.974 -0.142 59
41.182999 -2.944 0.50199997 60
145.408 -10.209 4.0560002 40
146.60699 -10.103 6.3909998 22
36.820999 -2.5280001 -1.277 37
36.779999 -2.471 -0.69999999 48
40.493999 -2.665 -0.13600001 58
40.834999 -2.6340001 0.50199997 60
144.98599 -9.1630001 4.0549998 21
146.896 -9.0950003 6.4099998 37
36.662998 -2.257 -1.2690001 48
36.636002 -2.204 -0.69499999 48
40.313999 -2.369 -0.13500001 71
40.634998 -2.3340001 0.49900001 59
144.61301 -8.1199999 4.039 39
145.455 -7.9819999 6.3369999 21
36.638 -1.994 -1.271 45
36.495998 -1.937 -0.69499999 59
40.245998 -2.0840001 -0.138 57
40.555 -2.0469999 0.493 58
144.26199 -7.1040001 4.0079999 27
146.541 -7.0320001 6.3590002 16
36.521999 -1.73 -1.273 35
36.398998 -1.677 -0.70099998 57
40.181999 -1.799 -0.147 57
40.502998 -1.761 0.48199999 59
145.05299 -6.1300001 3.9909999 55
93.067001 -3.8169999 4.0120001 8
36.417 -1.471 -1.279 38
36.297001 -1.419 -0.70999998 67
40.182999 -1.5190001 -0.16 58
40.521999 -1.48 0.46900001 59
102.687 -3.628 2.7869999 42
98.203003 -3.3440001 4.1939998 9
36.397999 -1.212 -1.294 33
36.258999 -1.1619999 -0.72500002 63
40.216999 -1.238 -0.178 58
40.584999 -1.197 0.44999999 59
102.741 -2.9089999 2.7379999 36
93.049004 -2.5179999 3.927 8
36.277 -0.95099998 -1.309 31
36.210999 -0.90399998 -0.74400002 41
40.321999 -0.95599997 -0.20200001 53
40.758999 -0.91600001 0.428 59
60.98 -1.3 1.5880001 6
107.73 -2.1630001 4.4790001 6
36.162998 -0.69300002 -1.3279999 25
36.117001 -0.64899999 -0.76599997 77
40.542 -0.67900002 -0.23100001 58
41.022999 -0.639 0.40200001 60
60.903 -0.87599999 1.543 20
126.272 -1.6720001 5.1599998 9
36.071999 -0.44 -1.352 22
36.055 -0.396 -0.79299998 67
40.938999 -0.40200001 -0.26499999 60
41.41 -0.359 0.373 15
50.116001 -0.37400001 1.228 63
126.494 -0.796 5.0619998 12
35.938999 -0.18700001 -1.3789999 15
35.966999 -0.14399999 -0.82300001 69
42.507 -0.12 -0.31400001 7
48.870998 -0.081 0.39500001 58
49.137001 -0.027000001 1.158 57
50.804001 0.032000002 1.984 13
35.806999 0.064999998 -1.41 12
35.903 0.106 -0.85799998 81
42.417 0.17299999 -0.35699999 11
48.521 0.25299999 0.34099999 59
48.681999 0.31 1.096 66
49.659 0.373 1.887 58
0 0 0 0
36.025002 0.35499999 -0.90200001 47
40.005001 0.44100001 -0.38299999 48
40.161999 0.48800001 0.236 52
48.331001 0.63999999 1.0319999 60
36.917 0.52999997 1.359 5
32.228001 0.50599998 -1.346 3
35.834999 0.60399997 -0.94199997 72
39.424 0.70700002 -0.42699999 55
39.521 0.75400001 0.182 44
36.821999 0.741 0.73900002 6
36.737 0.78100002 1.3049999 76
31.191999 0.70599997 -1.345 6
35.851002 0.85000002 -0.991 73
36.858002 0.912 -0.449 46
39.255001 1.0140001 0.127 47
39.679001 1.069 0.74199998 56
36.556 1.026 1.248 88
30.552 0.90200001 -1.362 6
35.808998 1.096 -1.043 69
36.099998 1.141 -0.493 12
39.125 1.278 0.068999998 53
39.404999 1.3279999 0.67799997 55
48.053001 1.671 1.5700001 56
29.440001 1.071 -1.36 5
35.794998 1.339 -1.1 59
35.889999 1.381 -0.54799998 34
38.904999 1.538 0.0060000001 49
39.268002 1.5930001 0.61199999 45
40.061001 1.668 1.243 10
28.686001 1.242 -1.374 6
35.933998 1.59 -1.166 46
35.848999 1.622 -0.60900003 44
38.841999 1.7970001 -0.059999999 53
39.092999 1.849 0.54299998 52
39.783001 1.925 1.166 35
27.704 1.39 -1.378 6
35.759998 1.827 -1.226 36
35.629002 1.854 -0.67000002 58
38.780998 2.059 -0.131 49
39.009998 2.108 0.47099999 48
39.703999 2.1849999 1.092 54
26.902 1.531 -1.39 7
35.705002 2.0669999 -1.293 38
35.631001 2.0969999 -0.74000001 62
38.763 2.3169999 -0.205 53
38.873001 2.362 0.39399999 54
39.515999 2.4400001 1.011 55
26.070999 1.661 -1.401 9
35.445 2.29 -1.3559999 36
35.608002 2.332 -0.81099999 66
38.84 2.5810001 -0.285 54
38.880001 2.6229999 0.315 53
39.479 2.7030001 0.92900002 52
25.372 1.789 -1.419 12
32.362999 2.309 -1.309 3
35.702 2.5799999 -0.89099997 69
38.942001 2.848 -0.36899999 54
38.945999 2.885 0.23199999 46
39.521 2.9649999 0.84600002 51
24.518 1.892 -1.427 16
31.094 2.425 -1.3279999 4
35.806 2.8239999 -0.97399998 46
38.985001 3.109 -0.458 55
39.026001 3.151 0.14399999 50
39.480999 3.2249999 0.755 55
23.718 1.989 -1.438 19
29.486 2.4979999 -1.33 4
35.737 3.0580001 -1.058 46
35.644001 3.0810001 -0.50400001 13
39.155998 3.4219999 0.050999999 54
39.591 3.493 0.66399997 44
22.924 2.0769999 -1.448 19
28.299999 2.586 -1.348 6
35.769001 3.2980001 -1.149 46
35.623001 3.3139999 -0.59200001 40
39.193001 3.681 -0.045000002 54
39.743999 3.767 0.56900001 48
22.150999 2.154 -1.4579999 17
26.937 2.641 -1.354 7
35.771 3.5350001 -1.243 39
35.577999 3.5450001 -0.68400002 65
39.460999 3.9649999 -0.147 55
40.098 4.0640001 0.47 41
21.326 2.2160001 -1.4630001 16
25.962999 2.7149999 -1.376 9
35.594002 3.75 -1.3329999 20
35.636002 3.783 -0.78100002 62
40.096001 4.2909999 -0.25799999 40
47.673 5.1420002 0.43200001 51
20.577999 2.2739999 -1.47 16
24.993 2.779 -1.396 12
0 0 0 0
35.633999 4.0149999 -0.88200003 70
42.019001 4.7680001 -0.38699999 15
47.922001 5.4780002 0.30000001 58
19.805 2.319 -1.475 15
23.962999 2.8210001 -1.41 15
30.483 3.6099999 -1.318 3
35.730999 4.257 -0.98799998 54
36.382999 4.3629999 -0.44100001 5
48.147999 5.8119998 0.163 50
18.882999 2.332 -1.464 54
22.958 2.8510001 -1.421 19
28.851 3.6010001 -1.335 5
35.73 4.4850001 -1.096 46
35.867001 4.5310001 -0.542 32
48.507999 6.1669998 0.018999999 53
18.423 2.3959999 -1.488 73
22.023001 2.8770001 -1.433 17
27.444 3.602 -1.3559999 6
35.808998 4.7249999 -1.21 36
35.761002 4.743 -0.65100002 46
40.66 5.4239998 -0.108 46
17.853001 2.4360001 -1.5 65
21.089001 2.8889999 -1.441 17
26.117001 3.5940001 -1.376 8
35.646 4.9299998 -1.3200001 21
35.754002 4.9710002 -0.76599997 61
40.229 5.6230001 -0.236 52
17.273001 2.4679999 -1.512 62
20.202 2.898 -1.45 15
24.969999 3.596 -1.4 13
0 0 0 0
35.778999 5.198 -0.88499999 58
40.084999 5.8540001 -0.36700001 53
16.879 2.5209999 -1.5369999 83
19.417 2.9100001 -1.462 14
23.573 3.5450001 -1.404 16
30.033001 4.533 -1.317 4
35.817001 5.4289999 -1.01 62
36.053001 5.4899998 -0.454 3
16.417 2.5569999 -1.556 75
18.709999 2.9219999 -1.477 13
22.525999 3.529 -1.423 18
28.275999 4.4460001 -1.341 5
35.959 5.6750002 -1.14 47
35.841 5.6789999 -0.57499999 34
15.898 2.575 -1.566 63
18.084999 2.937 -1.495 12
21.413 3.487 -1.431 17
26.681999 4.3590002 -1.362 6
35.848 5.8759999 -1.266 22
35.875 5.9050002 -0.70499998 49
15.337 2.5810001 -1.5700001 57
17.438 2.941 -1.508 11
20.368 3.444 -1.439 15
25.233 4.2779999 -1.383 8
32.502998 5.5279999 -1.268 1
35.902 6.1269999 -0.838 64
14.796 2.5810001 -1.573 42
16.843 2.944 -1.522 10
19.240999 3.3699999 -1.433 34
23.927 4.2010002 -1.403 13
30.573999 5.3829999 -1.309 4
35.966 6.3540001 -0.97399998 43
14.303 2.5829999 -1.58 37
16.278 2.9449999 -1.5369999 10
18.552 3.3629999 -1.456 63
22.599001 4.1059999 -1.414 16
28.332001 5.1609998 -1.325 5
36.186001 6.6110001 -1.1210001 32
13.858 2.5880001 -1.589 35
15.722 2.9400001 -1.549 9
17.966999 3.365 -1.483 70
21.351999 4.007 -1.423 17
26.802999 5.0440001 -1.3609999 6
36.063 6.8039999 -1.26 21
13.543 2.6129999 -1.6109999 20
15.195 2.934 -1.562 8
17.426001 3.369 -1.512 78
20.305 3.9330001 -1.437 16
25.157 4.882 -1.38 7
0 0 0 0
13.201 2.6259999 -1.628 10
14.729 2.9319999 -1.5779999 8
16.743999 3.3380001 -1.525 86
19.403999 3.8740001 -1.456 14
23.739 4.7480001 -1.403 9
30.052999 6.0240002 -1.298 5
12.79 2.622 -1.636 10
14.251 2.9230001 -1.591 10
16.167 3.3180001 -1.544 86
18.541 3.8099999 -1.472 13
22.302999 4.5900002 -1.413 14
28.018999 5.7779999 -1.33 5
12.431 2.622 -1.647 10
13.831 2.918 -1.607 10
15.6 3.2939999 -1.559 78
17.794001 3.7609999 -1.4910001 12
21.059 4.4569998 -1.427 16
26.171 5.5489998 -1.3559999 6
12.077 2.619 -1.658 10
13.378 2.902 -1.617 10
15.109 3.2780001 -1.58 61
16.899 3.6689999 -1.494 11
19.915001 4.329 -1.439 15
24.556 5.3449998 -1.381 8
11.742 2.6159999 -1.669 10
12.946 2.8829999 -1.626 9
14.644 3.2620001 -1.6 55
16.16 3.602 -1.503 29
19.013 4.2420001 -1.461 40
23.049 5.1490002 -1.401 10
11.388 2.6029999 -1.674 9
12.53 2.8640001 -1.635 10
14.121 3.227 -1.6109999 53
15.578 3.5610001 -1.523 38
18.305 4.1880002 -1.493 28
21.577 4.9419999 -1.413 17
11.049 2.5910001 -1.681 10
12.147 2.8469999 -1.646 10
13.672 3.2030001 -1.628 60
15.12 3.543 -1.553 62
17.431999 4.0869999 -1.506 12
20.278 4.7589998 -1.424 15
10.719 2.575 -1.686 10
11.79 2.8299999 -1.658 10
13.154 3.1570001 -1.632 19
14.652 3.516 -1.577 63
16.604 3.9860001 -1.516 10
19.007 4.566 -1.427 44
10.405 2.5599999 -1.692 10
11.422 2.8069999 -1.666 10
12.649 3.1059999 -1.6339999 10
14.178 3.4809999 -1.597 61
15.956 3.918 -1.536 10
18.202 4.4720001 -1.456 59
10.101 2.5420001 -1.696 10
11.076 2.7839999 -1.674 10
12.238 3.073 -1.6440001 10
13.723 3.444 -1.6160001 58
15.353 3.8529999 -1.556 9
17.533001 4.402 -1.489 77
9.8140001 2.5239999 -1.701 11
10.738 2.7579999 -1.6799999 10
11.87 3.046 -1.6569999 11
13.224 3.391 -1.626 21
14.788 3.7909999 -1.574 8
16.787001 4.3049998 -1.512 77
9.5509996 2.51 -1.709 10
10.407 2.73 -1.684 10
11.494 3.0109999 -1.666 10
12.702 3.325 -1.6289999 10
14.247 3.7290001 -1.591 8
16.240999 4.2509999 -1.546 55
9.2779999 2.4890001 -1.712 10
10.114 2.7079999 -1.693 10
11.115 2.9719999 -1.6720001 10
12.283 3.2809999 -1.642 10
13.682 3.6530001 -1.601 9
15.555 4.151 -1.562 32
9.0340004 2.474 -1.719 10
9.8079996 2.6800001 -1.698 11
10.772 2.938 -1.681 10
11.873 3.2349999 -1.652 10
13.214 3.5969999 -1.617 9
14.912 4.0570002 -1.577 13
8.7869997 2.4530001 -1.724 11
9.5299997 2.654 -1.704 11
10.426 2.8989999 -1.686 10
11.498 3.1919999 -1.664 9
12.728 3.53 -1.628 10
14.259 3.9530001 -1.586 10
8.552 2.4330001 -1.728 10
9.2559996 2.6270001 -1.709 10
10.105 2.862 -1.691 10
11.12 3.1440001 -1.6720001 10
12.292 3.471 -1.64 10
13.743 3.878 -1.603 8
8.3219995 2.4119999 -1.732 10
8.9969997 2.5999999 -1.715 10
9.8050003 2.8280001 -1.699 11
10.758 3.0969999 -1.679 10
11.878 3.415 -1.652 10
13.21 3.793 -1.614 9
8.1079998 2.392 -1.737 10
8.7410002 2.5710001 -1.7180001 11
9.5109997 2.7909999 -1.7029999 10
10.418 3.0510001 -1.686 10
11.495 3.3610001 -1.664 9
12.718 3.714 -1.625 11
7.8930001 2.369 -1.74 10
8.5109997 2.5469999 -1.725 11
9.2440004 2.7590001 -1.711 10
10.084 3.003 -1.691 10
11.102 3.3010001 -1.671 10
12.283 3.6470001 -1.64 10
7.7030001 2.352 -1.7460001 10
8.2849998 2.5209999 -1.73 11
8.9700003 2.721 -1.714 10
9.7720003 2.957 -1.696 10
10.741 3.2449999 -1.679 10
11.847 3.573 -1.65 11
7.5170002 2.332 -1.752 10
8.059 2.4920001 -1.733 10
8.7229996 2.6889999 -1.721 10
9.4910002 2.9189999 -1.705 10
10.376 3.184 -1.684 10
11.46 3.51 -1.6619999 10
7.3200002 2.3080001 -1.753 9
7.8579998 2.4679999 -1.739 10
8.4870005 2.6570001 -1.727 10
9.2089996 2.875 -1.711 10
10.057 3.1329999 -1.692 10
11.066 3.441 -1.671 10
7.1570001 2.2920001 -1.761 10
7.6609998 2.4430001 -1.745 10
8.2489996 2.622 -1.729 10
8.9359999 2.832 -1.714 10
9.7539997 3.0829999 -1.7 10
10.686 3.3710001 -1.677 10
6.941 2.256 -1.753 12
7.4629998 2.415 -1.748 10
8.0310001 2.5899999 -1.734 11
8.6820002 2.7909999 -1.72 9
9.448 3.03 -1.704 10
10.338 3.3080001 -1.6849999 10
6.7659998 2.2309999 -1.755 15
7.2810001 2.391 -1.753 10
7.8280001 2.5610001 -1.7410001 10
8.448 2.7539999 -1.726 10
9.1709995 2.9809999 -1.711 10
10.004 3.244 -1.691 9
6.6020002 2.2079999 -1.756 19
7.1079998 2.3659999 -1.758 10
7.6209998 2.527 -1.744 10
8.21 2.7119999 -1.729 10
8.8990002 2.9319999 -1.715 10
9.7030001 3.1889999 -1.699 9
6.46 2.191 -1.763 22
6.8940001 2.3269999 -1.751 10
7.4250002 2.4949999 -1.748 10
7.9860001 2.674 -1.734 10
8.6549997 2.8889999 -1.723 10
9.401 3.1300001 -1.705 9
6.3060002 2.1670001 -1.7640001 21
6.7729998 2.316 -1.766 9
7.244 2.4660001 -1.753 10
7.7810001 2.6389999 -1.74 10
8.3900003 2.836 -1.724 9
9.1269999 3.076 -1.712 9
6.1719999 2.1489999 -1.77 19
6.566 2.2739999 -1.757 9
7.0700002 2.438 -1.758 9
7.5890002 2.6059999 -1.7460001 10
8.1719999 2.796 -1.7309999 10
8.8520002 3.0190001 -1.716 10
6.02 2.1229999 -1.768 19
6.421 2.2520001 -1.762 10
6.9000001 2.408 -1.762 9
7.3860002 2.5669999 -1.748 9
7.9549999 2.7539999 -1.737 9
8.5939999 2.9660001 -1.721 9
5.8959999 2.105 -1.774 19
6.2470002 2.2179999 -1.758 17
6.7129998 2.3710001 -1.76 10
7.211 2.5350001 -1.755 9
7.7360001 2.7090001 -1.739 10
8.3570004 2.9159999 -1.727 9
5.7690001 2.0840001 -1.777 17
6.0929999 2.188 -1.757 27
6.546 2.3380001 -1.761 11
7.0310001 2.5 -1.758 9
7.5489998 2.6730001 -1.747 9
8.1289997 2.868 -1.732 10
5.645 2.063 -1.78 18
5.9749999 2.1700001 -1.765 31
6.402 2.313 -1.766 10
6.8470001 2.461 -1.758 11
7.3530002 2.631 -1.75 9
7.8969998 2.816 -1.734 9
5.5320001 2.0450001 -1.785 15
5.8470001 2.1470001 -1.7690001 29
6.2610002 2.2869999 -1.771 10
6.6859999 2.4289999 -1.762 11
7.1690001 2.592 -1.7539999 9
7.698 2.7720001 -1.7410001 9
5.4260001 2.027 -1.79 13
5.7210002 2.1229999 -1.772 29
6.1069999 2.2539999 -1.77 10
6.527 2.3959999 -1.765 10
6.9980001 2.556 -1.7589999 9
7.5050001 2.73 -1.7460001 9
5.302 2.0020001 -1.789 9
5.6059999 2.102 -1.777 23
5.9450002 2.2160001 -1.765 14
6.368 2.3599999 -1.766 9
6.8379998 2.5220001 -1.765 9
7.3179998 2.687 -1.751 10
5.1919999 1.9809999 -1.79 10
5.4770002 2.075 -1.775 21
5.8099999 2.187 -1.766 25
6.224 2.329 -1.768 10
6.6880002 2.4890001 -1.771 9
7.1409998 2.6459999 -1.755 9
5.0929999 1.962 -1.793 9
5.3720002 2.0539999 -1.78 20
5.697 2.164 -1.771 35
6.085 2.2980001 -1.771 10
6.4910002 2.438 -1.762 10
6.9699998 2.605 -1.7589999 9
4.9949999 1.943 -1.7970001 9
5.2610002 2.0309999 -1.7819999 18
5.5910001 2.1429999 -1.779 23
5.9510002 2.267 -1.773 10
6.342 2.4030001 -1.765 10
6.7729998 2.553 -1.755 9
4.8899999 1.92 -1.796 9
5.1729999 2.0150001 -1.79 13
5.4619999 2.112 -1.777 20
5.8140001 2.234 -1.773 10
6.2049999 2.3710001 -1.77 10
6.6209998 2.516 -1.76 10
4.8039999 1.903 -1.801 9
5.0679998 1.9910001 -1.7920001 9
5.3460002 2.085 -1.778 20
5.6659999 2.1949999 -1.768 16
6.0689998 2.3369999 -1.773 10
6.4520001 2.471 -1.7589999 10
4.704 1.8789999 -1.799 9
4.9770002 1.972 -1.796 9
5.2459998 2.063 -1.783 21
5.566 2.174 -1.776 22
5.9239998 2.299 -1.771 10
6.3189998 2.438 -1.765 10
4.599 1.853 -1.795 11
4.8730001 1.947 -1.795 10
5.1479998 2.04 -1.786 20
5.454 2.1459999 -1.779 20
5.7930002 2.2650001 -1.772 10
6.1760001 2.4000001 -1.766 10
4.5149999 1.834 -1.7970001 14
4.7800002 1.925 -1.796 10
5.0630002 2.0220001 -1.793 16
5.3369999 2.1159999 -1.778 19
5.6719999 2.233 -1.774 10
6.0440001 2.365 -1.7690001 10
4.4390001 1.817 -1.8 14
4.6810002 1.898 -1.793 10
4.9699998 1.999 -1.796 10
5.2309999 2.0880001 -1.779 18
5.5500002 2.2 -1.774 13
5.9029999 2.325 -1.767 11
4.3610001 1.798 -1.802 14
4.6020002 1.88 -1.798 10
4.8790002 1.976 -1.799 9
5.1300001 2.0610001 -1.7819999 19
5.4289999 2.165 -1.772 19
5.7800002 2.29 -1.77 9
4.2800002 1.777 -1.802 14
4.5120001 1.8559999 -1.7970001 13
4.7800002 1.948 -1.7970001 10
5.0430002 2.039 -1.7869999 18
5.3319998 2.1400001 -1.777 19
5.665 2.2579999 -1.772 11
4.2129998 1.761 -1.806 14
4.4310002 1.834 -1.7970001 16
4.6929998 1.925 -1.798 9
4.9679999 2.02 -1.795 14
5.2309999 2.112 -1.78 19
5.5489998 2.224 -1.773 11
4.1360002 1.74 -1.8049999 14
4.3610001 1.817 -1.801 17
4.6059999 1.9 -1.798 10
4.8740001 1.994 -1.796 10
5.131 2.082 -1.781 18
5.4400001 2.1919999 -1.775 14
4.0700002 1.723 -1.808 14
4.2820001 1.794 -1.801 17
4.5250001 1.878 -1.799 10
4.7909999 1.97 -1.799 10
5.0409999 2.056 -1.784 18
5.3309999 2.158 -1.775 17
4.0009999 1.704 -1.808 14
4.2179999 1.777 -1.8049999 16
4.4380002 1.851 -1.796 13
4.6960001 1.941 -1.796 10
4.9549999 2.0309999 -1.7869999 18
5.2329998 2.128 -1.777 17
3.947 1.6900001 -1.814 13
4.1529999 1.7589999 -1.808 16
4.3730001 1.8329999 -1.802 17
4.619 1.918 -1.799 10
4.8889999 2.013 -1.796 14
5.1370001 2.098 -1.778 17
3.8900001 1.674 -1.817 10
4.0770001 1.735 -1.8049999 16
4.2940001 1.809 -1.8 18
4.5450001 1.896 -1.801 9
4.7919998 1.9809999 -1.793 9
5.0609999 2.075 -1.785 16
3.822 1.653 -1.814 9
4.013 1.716 -1.806 16
4.2270002 1.788 -1.801 17
4.4640002 1.869 -1.8 9
4.7179999 1.9579999 -1.7970001 9
4.9650002 2.043 -1.783 17
3.757 1.633 -1.812 9
3.947 1.6950001 -1.8049999 17
4.1659999 1.7690001 -1.8049999 17
4.3709998 1.837 -1.793 14
4.6339998 1.9299999 -1.796 9
4.9039998 2.0250001 -1.793 16
3.707 1.618 -1.816 9
3.904 1.683 -1.814 13
4.0939999 1.745 -1.802 17
4.3150001 1.8200001 -1.799 17
4.5609999 1.906 -1.798 9
4.8150001 1.994 -1.7920001 10
3.6500001 1.6 -1.8150001 9
3.8410001 1.6619999 -1.812 10
4.0370002 1.727 -1.8049999 16
4.2529998 1.8 -1.801 17
4.4879999 1.88 -1.798 9
4.737 1.967 -1.7920001 9
3.608 1.587 -1.821 9
3.783 1.642 -1.812 10
3.9760001 1.706 -1.806 18
4.1869998 1.777 -1.801 16
4.4039998 1.85 -1.793 11
4.6589999 1.939 -1.7920001 9
3.5580001 1.5700001 -1.822 9
