# .PCD v0.7 - Point Cloud Data file format
VERSION 0.7
FIELDS x y z intensity
SIZE 4 4 4 4
TYPE F F F F
COUNT 1 1 1 1
WIDTH 1762
HEIGHT 1
VIEWPOINT 0 0 0 1 0 0 0
POINTS 1762
DATA ascii
3.4289999 -1.086 -1.862 7
3.6129999 -1.131 -1.862 8
0 0 0 0
2.974 -0.98699999 -1.87 6
3.1340001 -1.025 -1.8710001 6
3.3010001 -1.064 -1.87 7
3.464 -1.103 -1.863 7
3.6429999 -1.147 -1.86 7
1.492 -0.50599998 -0.97899997 1
3.003 -1.001 -1.87 6
3.1600001 -1.038 -1.868 7
3.3329999 -1.079 -1.87 8
3.497 -1.119 -1.862 8
3.6800001 -1.164 -1.859 7
0 0 0 0
3.0309999 -1.0140001 -1.87 7
3.1930001 -1.052 -1.869 7
3.362 -1.0930001 -1.868 7
3.536 -1.136 -1.864 8
3.72 -1.182 -1.859 8
2.915 -0.99400002 -1.876 6
3.0610001 -1.028 -1.869 7
3.227 -1.067 -1.87 7
3.3970001 -1.109 -1.868 7
3.569 -1.151 -1.8609999 8
3.7590001 -1.199 -1.859 8
2.941 -1.006 -1.873 6
3.0910001 -1.04 -1.868 7
3.266 -1.0829999 -1.872 7
3.4300001 -1.123 -1.8660001 7
3.605 -1.166 -1.859 8
3.799 -1.216 -1.857 8
2.9779999 -1.02 -1.876 6
3.1340001 -1.057 -1.873 7
3.2980001 -1.097 -1.87 7
3.4679999 -1.1390001 -1.865 7
3.6530001 -1.186 -1.862 8
3.8429999 -1.234 -1.8559999 8
3.0090001 -1.033 -1.875 6
3.165 -1.0700001 -1.8710001 8
3.3399999 -1.113 -1.872 8
3.516 -1.1569999 -1.869 7
3.6900001 -1.2 -1.859 8
3.8929999 -1.2539999 -1.858 8
3.04 -1.045 -1.873 6
3.201 -1.084 -1.8710001 7
3.375 -1.128 -1.87 8
3.5550001 -1.173 -1.867 8
3.7309999 -1.217 -1.857 8
3.9389999 -1.271 -1.8559999 9
3.072 -1.057 -1.8710001 6
3.247 -1.101 -1.875 7
3.4170001 -1.143 -1.8710001 7
3.599 -1.189 -1.867 8
3.7809999 -1.235 -1.858 8
3.9960001 -1.2920001 -1.859 8
3.109 -1.071 -1.87 6
3.2850001 -1.115 -1.873 8
3.4619999 -1.16 -1.872 7
3.638 -1.204 -1.864 8
3.8299999 -1.253 -1.858 9
4.052 -1.313 -1.86 9
3.1500001 -1.085 -1.8710001 6
3.322 -1.128 -1.8710001 8
3.506 -1.175 -1.8710001 7
3.6830001 -1.219 -1.862 8
3.882 -1.271 -1.858 8
4.0999999 -1.33 -1.857 9
3.1949999 -1.101 -1.874 7
3.362 -1.142 -1.87 7
3.543 -1.188 -1.867 8
3.7320001 -1.237 -1.862 8
3.9430001 -1.293 -1.862 8
4.1609998 -1.351 -1.858 9
3.2379999 -1.115 -1.875 7
3.4100001 -1.158 -1.8710001 8
3.5940001 -1.205 -1.868 8
3.7820001 -1.253 -1.8609999 8
3.9920001 -1.309 -1.859 8
4.2199998 -1.3710001 -1.857 10
3.2750001 -1.127 -1.8710001 7
3.4489999 -1.171 -1.867 8
3.641 -1.22 -1.867 8
3.8380001 -1.272 -1.862 8
4.0560002 -1.33 -1.8609999 9
4.2810001 -1.391 -1.8559999 9
3.3239999 -1.142 -1.873 7
3.507 -1.189 -1.872 8
3.691 -1.2359999 -1.865 8
3.8900001 -1.288 -1.86 8
4.1110001 -1.348 -1.858 8
4.3439999 -1.411 -1.854 9
3.3729999 -1.1569999 -1.874 8
3.5550001 -1.204 -1.8710001 9
3.7460001 -1.253 -1.8660001 8
3.9549999 -1.309 -1.863 8
4.1739998 -1.367 -1.858 9
4.415 -1.433 -1.8559999 9
3.421 -1.1720001 -1.874 7
3.6029999 -1.2180001 -1.869 8
3.802 -1.27 -1.8660001 9
4.0110002 -1.325 -1.8609999 9
4.2449999 -1.3890001 -1.8609999 8
4.4829998 -1.454 -1.854 9
3.4660001 -1.1849999 -1.8710001 8
3.661 -1.235 -1.8710001 8
3.8529999 -1.285 -1.863 8
4.0749998 -1.345 -1.862 9
4.303 -1.406 -1.8559999 9
4.5469999 -1.473 -1.85 9
3.523 -1.201 -1.874 8
3.7090001 -1.249 -1.867 8
3.918 -1.304 -1.865 9
4.1430001 -1.365 -1.863 8
4.3769999 -1.428 -1.857 9
4.6279998 -1.497 -1.851 9
3.5780001 -1.216 -1.874 8
3.763 -1.263 -1.865 8
3.9779999 -1.321 -1.864 9
4.2140002 -1.385 -1.864 9
4.4520001 -1.449 -1.858 9
4.7140002 -1.521 -1.853 10
3.632 -1.23 -1.873 8
3.8239999 -1.28 -1.865 8
4.052 -1.341 -1.868 10
4.276 -1.401 -1.86 9
4.5190001 -1.467 -1.853 10
4.7979999 -1.545 -1.852 10
3.6900001 -1.2460001 -1.872 8
3.8900001 -1.298 -1.8660001 9
4.1170001 -1.359 -1.8660001 9
4.3410001 -1.418 -1.8559999 9
4.6040001 -1.4910001 -1.8559999 10
4.8769999 -1.566 -1.849 9
3.7449999 -1.26 -1.87 8
3.9549999 -1.3150001 -1.867 9
4.1820002 -1.376 -1.864 9
4.4180002 -1.439 -1.857 9
4.6859999 -1.513 -1.855 10
4.954 -1.586 -1.8430001 9
3.796 -1.271 -1.864 8
4.0209999 -1.331 -1.8660001 10
4.2519999 -1.393 -1.863 9
4.4959998 -1.459 -1.857 9
4.763 -1.5319999 -1.851 10
5.0539999 -1.612 -1.845 9
3.8670001 -1.289 -1.867 8
4.085 -1.347 -1.864 9
4.3249998 -1.411 -1.862 9
4.5830002 -1.4809999 -1.859 10
4.8590002 -1.557 -1.854 10
5.1409998 -1.6339999 -1.841 9
3.9289999 -1.304 -1.8660001 8
4.1570001 -1.364 -1.864 9
4.4000001 -1.429 -1.86 9
4.6589999 -1.499 -1.855 10
4.9499998 -1.579 -1.852 10
5.2459998 -1.661 -1.842 9
3.9990001 -1.3200001 -1.8660001 8
4.2280002 -1.38 -1.862 9
4.4809999 -1.448 -1.86 10
4.75 -1.522 -1.8559999 10
5.046 -1.603 -1.852 10
5.3530002 -1.687 -1.841 9
4.072 -1.337 -1.867 9
4.3039999 -1.398 -1.862 9
4.5619998 -1.467 -1.859 10
4.8429999 -1.543 -1.8559999 9
5.1469998 -1.627 -1.851 9
5.4660001 -1.715 -1.841 9
4.1440001 -1.353 -1.8660001 8
4.3829999 -1.415 -1.8609999 9
4.6469998 -1.4859999 -1.858 10
4.9439998 -1.567 -1.858 9
5.237 -1.646 -1.846 9
5.585 -1.743 -1.842 9
4.2319999 -1.373 -1.8710001 9
4.4640002 -1.433 -1.86 10
4.7340002 -1.505 -1.8559999 9
5.0310001 -1.586 -1.853 8
5.3639998 -1.677 -1.852 9
5.697 -1.768 -1.8380001 9
4.2909999 -1.382 -1.862 9
4.546 -1.45 -1.858 9
4.8280001 -1.526 -1.8559999 9
5.1329999 -1.608 -1.852 9
5.4619999 -1.698 -1.845 9
5.8260002 -1.798 -1.8380001 9
4.3720002 -1.399 -1.8609999 8
4.6269999 -1.466 -1.855 10
4.9299998 -1.5470001 -1.857 9
5.23 -1.627 -1.847 8
5.5869999 -1.725 -1.846 10
5.9510002 -1.825 -1.835 10
4.4569998 -1.416 -1.8609999 9
4.7290001 -1.488 -1.858 9
5.027 -1.567 -1.855 9
5.355 -1.655 -1.852 9
5.6950002 -1.747 -1.841 9
6.0900002 -1.855 -1.835 10
4.5419998 -1.433 -1.86 9
4.8140001 -1.503 -1.854 10
5.1259999 -1.586 -1.852 9
5.4580002 -1.675 -1.847 9
5.8280001 -1.775 -1.841 9
6.2319999 -1.885 -1.8329999 9
4.619 -1.4450001 -1.854 9
4.9099998 -1.522 -1.852 10
5.23 -1.6059999 -1.85 10
5.5739999 -1.698 -1.845 9
5.948 -1.798 -1.836 9
6.3790002 -1.915 -1.831 9
4.7220001 -1.465 -1.857 9
5.0180001 -1.5420001 -1.853 10
5.3429999 -1.628 -1.849 9
5.6999998 -1.723 -1.844 9
6.099 -1.83 -1.839 9
6.5380001 -1.948 -1.83 10
4.8189998 -1.482 -1.857 9
5.1230001 -1.561 -1.852 9
5.4619999 -1.65 -1.849 9
5.8270001 -1.747 -1.842 10
6.2379999 -1.8559999 -1.836 9
6.6859999 -1.976 -1.825 9
4.9180002 -1.499 -1.855 9
5.2249999 -1.5779999 -1.849 8
5.5830002 -1.6720001 -1.848 9
5.9460001 -1.767 -1.836 9
6.3569999 -1.875 -1.825 15
6.855 -2.0090001 -1.822 9
5.0209999 -1.516 -1.854 9
5.3319998 -1.596 -1.846 9
5.6960001 -1.691 -1.8430001 9
6.0910001 -1.794 -1.836 9
6.5240002 -1.908 -1.827 11
7.0489998 -2.0480001 -1.826 9
5.1350002 -1.536 -1.8559999 9
5.454 -1.617 -1.846 9
5.822 -1.711 -1.84 10
6.2340002 -1.819 -1.834 9
6.6989999 -1.941 -1.8279999 9
7.2360001 -2.0829999 -1.823 9
5.2249999 -1.5470001 -1.848 9
5.573 -1.636 -1.844 9
5.96 -1.735 -1.84 10
6.3940001 -1.847 -1.835 19
6.8660002 -1.97 -1.825 10
7.4039998 -2.1110001 -1.814 9
5.3439999 -1.566 -1.848 10
5.6929998 -1.653 -1.841 10
6.0939999 -1.756 -1.836 9
6.5180001 -1.864 -1.824 23
7.0240002 -1.995 -1.817 21
7.6030002 -2.1459999 -1.811 9
5.4569998 -1.582 -1.846 9
5.8210001 -1.673 -1.839 10
6.243 -1.78 -1.836 10
6.671 -1.887 -1.819 14
7.1890001 -2.02 -1.8099999 13
7.8109999 -2.181 -1.807 10
5.5900002 -1.602 -1.847 9
5.9499998 -1.691 -1.835 10
6.3979998 -1.803 -1.834 10
6.9039998 -1.931 -1.8329999 9
7.4190001 -2.062 -1.816 9
8.026 -2.217 -1.802 9
5.7140002 -1.618 -1.845 9
6.0929999 -1.711 -1.834 10
6.5770001 -1.8329999 -1.8380001 14
7.0770001 -1.9579999 -1.829 16
7.6220002 -2.0940001 -1.813 22
8.2360001 -2.2490001 -1.793 18
5.836 -1.633 -1.84 9
6.237 -1.7309999 -1.831 9
6.697 -1.844 -1.824 11
7.23 -1.976 -1.818 20
7.7950001 -2.1159999 -1.801 23
8.4659996 -2.2850001 -1.7869999 10
5.967 -1.649 -1.837 10
6.3870001 -1.75 -1.829 12
6.8909998 -1.874 -1.8279999 9
7.4190001 -2.003 -1.8150001 9
8.0369997 -2.1559999 -1.802 9
8.7919998 -2.3440001 -1.7970001 13
6.1090002 -1.6670001 -1.836 10
6.526 -1.766 -1.822 12
7.0689998 -1.898 -1.825 9
7.6230001 -2.0320001 -1.811 9
8.3280001 -2.2049999 -1.811 15
8.9960003 -2.368 -1.778 18
6.2550001 -1.684 -1.8329999 10
6.743 -1.8 -1.834 9
7.2470002 -1.92 -1.8200001 9
7.8330002 -2.0599999 -1.807 9
8.5010004 -2.221 -1.791 13
9.3240004 -2.421 -1.781 8
6.4109998 -1.701 -1.832 17
6.8829999 -1.812 -1.822 12
7.4310002 -1.941 -1.814 9
8.0530005 -2.089 -1.803 10
8.7629995 -2.2579999 -1.788 9
9.6280003 -2.467 -1.777 8
6.559 -1.715 -1.827 19
7.0479999 -1.829 -1.816 24
7.6199999 -1.962 -1.808 21
8.2530003 -2.1099999 -1.793 19
9.0190001 -2.2909999 -1.781 8
9.941 -2.5109999 -1.77 8
6.6869998 -1.723 -1.816 12
7.1999998 -1.841 -1.806 21
7.7909999 -1.977 -1.796 22
8.4770002 -2.1359999 -1.786 11
9.316 -2.3329999 -1.78 9
10.285 -2.5599999 -1.766 8
6.902 -1.751 -1.825 8
7.4260001 -1.869 -1.812 9
8.0489998 -2.0109999 -1.802 9
8.809 -2.1860001 -1.7970001 15
9.6149998 -2.3699999 -1.774 9
10.648 -2.609 -1.76 7
7.0749998 -1.767 -1.821 9
7.6300001 -1.891 -1.809 9
8.2989998 -2.0409999 -1.802 11
9.0439997 -2.2079999 -1.785 19
9.9440002 -2.4119999 -1.771 8
11 -2.6530001 -1.749 8
7.2480001 -1.78 -1.816 9
7.8299999 -1.908 -1.804 10
8.5080004 -2.0580001 -1.791 9
9.3140001 -2.237 -1.779 9
10.283 -2.454 -1.766 8
11.419 -2.7079999 -1.744 7
7.4580002 -1.801 -1.817 10
8.0640001 -1.932 -1.803 11
8.7729998 -2.086 -1.789 11
9.6099997 -2.2690001 -1.773 9
10.63 -2.493 -1.758 8
11.82 -2.756 -1.732 7
7.6360002 -1.811 -1.808 21
8.276 -1.947 -1.796 25
9 -2.102 -1.777 15
9.9289999 -2.303 -1.7690001 8
11.003 -2.5350001 -1.751 8
12.266 -2.8099999 -1.723 7
7.8179998 -1.821 -1.8 18
8.4659996 -1.956 -1.7819999 17
9.2980003 -2.132 -1.777 9
10.261 -2.336 -1.7640001 9
11.387 -2.576 -1.743 8
12.735 -2.8629999 -1.711 7
8.0609999 -1.842 -1.802 10
8.7399998 -1.9809999 -1.783 10
9.5970001 -2.1589999 -1.773 9
10.603 -2.368 -1.757 8
11.79 -2.6159999 -1.732 7
13.248 -2.9219999 -1.701 6
8.2679996 -1.852 -1.795 11
9.0089998 -2.0009999 -1.78 9
9.9209995 -2.187 -1.771 9
10.98 -2.404 -1.752 8
12.224 -2.6589999 -1.722 7
13.772 -2.977 -1.686 7
8.4870005 -1.862 -1.7869999 11
9.2810001 -2.02 -1.776 10
10.241 -2.2130001 -1.765 8
11.341 -2.4319999 -1.7410001 8
12.669 -2.6989999 -1.71 7
14.415 -3.052 -1.681 9
8.7720003 -1.8839999 -1.7920001 12
9.5629997 -2.0380001 -1.77 10
10.56 -2.233 -1.755 9
11.729 -2.4619999 -1.7309999 7
13.149 -2.7420001 -1.698 6
15.058 -3.1210001 -1.669 30
9.0089998 -1.893 -1.784 13
9.8520002 -2.0539999 -1.7640001 10
10.907 -2.256 -1.748 8
12.149 -2.4949999 -1.721 7
13.646 -2.7839999 -1.683 6
15.676 -3.178 -1.649 54
9.2609997 -1.902 -1.777 9
10.175 -2.073 -1.761 9
11.272 -2.279 -1.74 9
12.59 -2.5280001 -1.712 7
14.216 -2.835 -1.673 7
16.176001 -3.2060001 -1.612 52
9.5349998 -1.913 -1.773 10
10.5 -2.089 -1.755 9
11.633 -2.2969999 -1.729 8
13.037 -2.556 -1.699 6
14.8 -2.882 -1.659 8
16.976 -3.2839999 -1.599 58
9.8319998 -1.925 -1.77 9
10.835 -2.1040001 -1.748 9
12.036 -2.319 -1.72 8
13.421 -2.5669999 -1.673 23
15.411 -2.927 -1.643 8
17.777 -3.3540001 -1.5779999 62
10.124 -1.933 -1.763 10
11.161 -2.1129999 -1.737 8
12.451 -2.339 -1.71 7
13.845 -2.5810001 -1.65 16
16.087 -2.9779999 -1.628 9
18.489 -3.4000001 -1.5420001 52
10.447 -1.943 -1.7589999 9
11.523 -2.125 -1.729 8
12.907 -2.3599999 -1.701 9
14.58 -2.6470001 -1.658 7
16.948999 -3.0539999 -1.625 19
19.320999 -3.4579999 -1.51 14
10.76 -1.946 -1.751 10
11.901 -2.135 -1.719 9
13.538 -2.408 -1.71 48
15.142 -2.6730001 -1.641 8
17.677 -3.098 -1.602 41
20.865999 -3.632 -1.523 13
11.096 -1.951 -1.745 9
12.295 -2.1440001 -1.71 8
13.861 -2.3970001 -1.678 90
15.786 -2.7079999 -1.6289999 9
18.379999 -3.1300001 -1.571 58
22.218 -3.757 -1.5089999 8
11.425 -1.951 -1.734 9
12.712 -2.151 -1.7 8
14.381 -2.4130001 -1.665 89
16.443001 -2.737 -1.613 10
18.933001 -3.128 -1.523 43
23.653999 -3.8800001 -1.489 10
11.787 -1.951 -1.726 9
13.252 -2.174 -1.702 27
14.93 -2.428 -1.651 99
17.181 -2.77 -1.596 11
20.299 -3.2479999 -1.531 15
25.257 -4.0110002 -1.464 7
12.15 -1.946 -1.714 9
13.778 -2.187 -1.698 42
15.476 -2.4349999 -1.6339999 101
17.945 -2.8 -1.579 11
21.5 -3.329 -1.517 16
26.875999 -4.1300001 -1.429 6
12.541 -1.943 -1.706 9
14.24 -2.1849999 -1.684 51
0 0 0 0
18.747 -2.8269999 -1.557 13
22.841 -3.415 -1.501 11
28.971001 -4.2979999 -1.403 5
12.945 -1.9349999 -1.6950001 9
14.725 -2.1800001 -1.6670001 58
16.674999 -2.4460001 -1.596 85
19.681999 -2.862 -1.54 14
24.35 -3.5120001 -1.485 9
31.445999 -4.4980001 -1.376 5
13.387 -1.928 -1.686 9
15.259 -2.1760001 -1.653 60
17.378 -2.454 -1.579 81
20.736 -2.9030001 -1.525 16
25.746 -3.573 -1.449 7
34.016998 -4.6820002 -1.3329999 1
13.812 -1.913 -1.6720001 10
15.799 -2.1670001 -1.637 66
17.959 -2.4389999 -1.548 63
21.886999 -2.9449999 -1.5089999 17
27.323 -3.6429999 -1.414 5
37.483002 -4.9530001 -1.3 23
14.287 -1.899 -1.661 9
16.396999 -2.1559999 -1.62 65
18.677 -2.4319999 -1.523 59
23.167 -2.9879999 -1.4910001 11
29.569 -3.779 -1.399 5
37.299999 -4.723 -1.13 58
14.768 -1.88 -1.648 8
16.999001 -2.1400001 -1.602 54
19.635 -2.4460001 -1.512 15
24.558001 -3.029 -1.472 8
31.705999 -3.8729999 -1.36 4
37.137001 -4.4949999 -0.96499997 70
15.267 -1.8559999 -1.6339999 8
17.649 -2.122 -1.584 57
20.927999 -2.49 -1.521 16
25.969999 -3.0569999 -1.443 7
35.092999 -4.0900002 -1.3559999 6
36.946999 -4.2649999 -0.80500001 73
15.801 -1.83 -1.62 9
18.389999 -2.1059999 -1.5700001 55
22.061001 -2.4979999 -1.508 17
27.645 -3.0969999 -1.42 5
37.044998 -4.1059999 -1.277 37
36.919998 -4.0500002 -0.65100002 38
16.351999 -1.8 -1.6059999 9
18.981001 -2.0639999 -1.54 13
23.207001 -2.493 -1.488 14
29.705 -3.155 -1.402 5
36.914001 -3.878 -1.122 52
36.945999 -3.8399999 -0.50300002 3
16.93 -1.7640001 -1.59 10
19.809999 -2.0380001 -1.524 14
24.559999 -2.4960001 -1.474 11
32.123001 -3.2260001 -1.387 3
36.723 -3.6459999 -0.97000003 70
54.401001 -5.336 -0.52499998 7
17.562 -1.726 -1.576 11
20.775 -2.0150001 -1.513 15
25.863001 -2.4760001 -1.448 8
0 0 0 0
36.537998 -3.4130001 -0.82300001 78
54.987999 -5.0770001 -0.324 11
18.173 -1.679 -1.558 12
21.746 -1.9809999 -1.498 17
27.204 -2.4449999 -1.418 6
36.668999 -3.2509999 -1.298 37
36.576 -3.1989999 -0.68400002 47
56.268002 -4.8569999 -0.118 19
18.886999 -1.63 -1.544 13
22.854 -1.943 -1.485 16
28.962 -2.428 -1.398 4
36.494999 -3.017 -1.155 62
36.525002 -2.977 -0.54900002 12
40.639999 -3.2690001 0.059999999 51
19.283001 -1.549 -1.5039999 14
23.931 -1.891 -1.466 11
30.693001 -2.388 -1.368 4
36.359001 -2.7850001 -1.017 70
40.328999 -3.0439999 -0.46200001 58
40.439999 -3.007 0.204 65
20.487 -1.52 -1.521 15
25.089001 -1.83 -1.4450001 10
33.299 -2.3889999 -1.365 4
36.262001 -2.5599999 -0.88800001 66
40.207001 -2.793 -0.31999999 53
40.310001 -2.753 0.34200001 68
21.375 -1.454 -1.51 17
26.228001 -1.752 -1.418 7
36.176998 -2.375 -1.358 27
36.216999 -2.335 -0.76200002 52
39.970001 -2.5309999 -0.183 57
40.257999 -2.506 0.47499999 59
22.311001 -1.38 -1.498 18
27.641001 -1.677 -1.399 6
36.256001 -2.155 -1.237 46
36.078999 -2.1029999 -0.639 39
39.905998 -2.2809999 -0.052000001 56
40.34 -2.26 0.60699999 68
23.298 -1.295 -1.485 17
29.208 -1.589 -1.381 6
36.063 -1.92 -1.113 65
36.383999 -1.896 -0.52700001 4
39.799999 -2.029 0.074000001 64
40.466 -2.017 0.736 48
24.326 -1.201 -1.472 12
31.042999 -1.494 -1.368 4
35.969002 -1.689 -0.99599999 78
39.694 -1.818 -0.44999999 46
39.834 -1.779 0.197 67
40.685001 -1.772 0.86400002 17
25.358 -1.09 -1.4529999 12
33.388 -1.3940001 -1.3660001 8
35.889999 -1.457 -0.88300002 73
39.710999 -1.566 -0.329 68
39.894001 -1.528 0.317 59
92.550003 -3.447 2.2390001 51
26.371 -0.96499997 -1.4299999 8
35.771999 -1.267 -1.357 27
35.791 -1.227 -0.77499998 75
39.702999 -1.3150001 -0.214 56
40.058998 -1.2819999 0.433 77
102.912 -3.1789999 2.7820001 54
27.412001 -0.82700002 -1.406 6
35.848 -1.04 -1.256 53
36.138 -1.007 -0.67900002 47
39.804001 -1.062 -0.102 69
40.393002 -1.034 0.54900002 65
102.236 -2.5079999 3.0420001 147
28.976 -0.68699998 -1.404 6
35.761002 -0.80500001 -1.152 70
35.91 -0.76999998 -0.57700002 22
39.990002 -0.81300002 0.0040000002 61
40.882999 -0.78299999 0.66500002 30
126.236 -2.2839999 4.0879998 69
30.000999 -0.51599997 -1.3710001 5
35.702999 -0.57300001 -1.0549999 81
38.071999 -0.56900001 -0.51099998 15
40.313999 -0.55800003 0.108 61
49.928001 -0.63499999 0.93900001 43
0 0 0 0
31.826 -0.34 -1.372 5
35.620998 -0.34200001 -0.96200001 77
38.577999 -0.32499999 -0.41999999 0
40.948002 -0.29899999 0.212 40
49.126999 -0.30399999 1.045 57
149.903 -0.76999998 5.5960002 16
0 0 0 0
35.506001 -0.107 -0.87199998 74
42.056999 -0.079999998 -0.35699999 10
48.379002 -0.037999999 0.36500001 54
48.630001 0.013 1.147 68
50.282001 0.068999998 1.993 13
35.488998 0.090999998 -1.3559999 30
35.431 0.12800001 -0.78600001 79
42.035999 0.199 -0.259 1
48.021 0.27900001 0.472 51
48.338001 0.33399999 1.25 60
49.631001 0.396 2.0769999 36
35.575001 0.32499999 -1.279 34
35.387001 0.36199999 -0.70599997 68
39.546001 0.447 -0.15700001 55
39.978001 0.49700001 0.47999999 2
48.140999 0.65200001 1.347 56
49.412998 0.722 2.1719999 60
35.504002 0.56300002 -1.2 52
35.370998 0.59899998 -0.63099998 45
39.137001 0.70599997 -0.072999999 47
39.442001 0.75199997 0.55400002 50
36.348999 0.73299998 1.091 78
36.284 0.76999998 1.6670001 2
35.412998 0.79799998 -1.124 70
35.883999 0.84899998 -0.56699997 52
36.345001 0.89899999 0.003 142
39.185001 1.011 0.62699997 54
36.141998 0.972 1.154 84
49.068001 1.373 2.349 46
35.416 1.039 -1.056 67
37.672001 1.147 -0.52399999 56
38.658001 1.216 0.075000003 53
39.013 1.27 0.69599998 54
47.702999 1.602 1.61 60
48.891998 1.698 2.428 31
35.311001 1.278 -0.98799998 66
38.287998 1.424 -0.46399999 54
38.573002 1.474 0.14300001 47
39.023998 1.533 0.764 54
47.598999 1.921 1.688 63
48.974998 2.033 2.5150001 19
35.313999 1.518 -0.92799997 63
38.400002 1.692 -0.40099999 52
38.477001 1.734 0.206 52
38.922001 1.796 0.82599998 47
47.563 2.2460001 1.763 65
49.025002 2.369 2.595 11
35.213001 1.757 -0.86900002 62
38.455002 1.957 -0.34200001 53
38.414001 1.995 0.26499999 57
39.02 2.066 0.88599998 52
47.528999 2.5699999 1.8329999 58
49.831001 2.7490001 2.711 6
35.157001 1.9960001 -0.81599998 81
38.277 2.2119999 -0.285 52
38.498001 2.263 0.31999999 47
39.000999 2.3329999 0.94099998 54
47.583 2.898 1.9 62
226 14 12.603 30
35.181 2.24 -0.76899999 69
38.347 2.4779999 -0.235 52
38.505001 2.5280001 0.37099999 44
39.109001 2.6059999 0.99299997 55
47.563 3.22 1.96 64
129.093 8.8870001 7.362 34
35.187 2.484 -0.72600001 72
38.362 2.744 -0.18799999 52
38.598 2.802 0.41800001 46
39.342999 2.895 1.046 55
47.674999 3.556 2.02 70
116.145 8.79 6.756 27
35.146999 2.7249999 -0.68599999 67
38.442001 3.0179999 -0.146 50
38.696999 3.0769999 0.461 53
39.591999 3.1900001 1.096 16
47.787998 3.8989999 2.076 79
105.274 8.7040005 6.2340002 8
35.125 2.97 -0.64899999 55
38.550999 3.2969999 -0.108 53
38.786999 3.3540001 0.5 54
47.117001 4.1220002 1.349 72
47.935001 4.244 2.1270001 63
105.43 9.4429998 6.3410001 32
35.132999 3.217 -0.61799997 44
38.638 3.575 -0.074000001 62
39.113998 3.6570001 0.53799999 54
47.206001 4.461 1.392 60
48.146999 4.5999999 2.177 71
100.876 9.7460003 6.152 19
35.126999 3.467 -0.58999997 44
38.912998 3.875 -0.044 51
39.652 3.987 0.57599998 33
47.356998 4.809 1.431 63
48.401001 4.9619999 2.224 67
99.112 10.268 6.1149998 27
35.167 3.717 -0.56800002 28
39.473 4.21 -0.018999999 55
47.201 5.079 0.71600002 53
47.506001 5.1589999 1.466 65
48.798 5.3470001 2.273 38
98.834 10.936 6.1589999 26
35.231998 3.977 -0.54900002 24
47.443001 5.3979998 0.001 64
47.332001 5.427 0.74299997 65
47.779999 5.5250001 1.499 69
49.117001 5.7270002 2.312 15
98.586998 11.596 6.1919999 25
35.351002 4.2399998 -0.53600001 17
47.652 5.7550001 0.021 65
47.641998 5.7950001 0.76700002 65
48.117001 5.901 1.53 65
49.938 6.1750002 2.372 5
98.766998 12.318 6.244 39
35.233002 4.4780002 -0.523 15
48.025002 6.145 0.037 65
47.903999 6.1729999 0.78600001 57
48.611 6.309 1.5599999 54
120.086 15.71 5.7399998 19
99.191002 13.08 6.3000002 23
35.575001 4.7789998 -0.52100003 20
40.334999 5.4510002 0.039000001 54
40.728001 5.54 0.67699999 14
49.581001 6.7909999 1.6 39
104.923 14.47 5.0339999 11
105.794 14.7 6.7379999 18
35.408001 5.0079999 -0.51499999 14
39.757999 5.6570001 0.041000001 49
40.138 5.7480001 0.67000002 48
130.58099 18.820999 4.2270002 10
125.962 18.273001 6.0539999 30
102.091 14.915 6.5100002 31
35.596001 5.2940001 -0.51899999 14
39.423 5.895 0.039999999 56
39.724998 5.973 0.662 51
0 0 0 0
114.606 17.452 5.5050001 13
112.394 17.225 7.165 17
35.598 5.552 -0.52399999 11
39.410999 6.178 0.035 57
39.48 6.2220001 0.65200001 53
40.604 6.4359999 1.307 1
0 0 0 0
107.382 17.232 6.8299999 33
35.464001 5.79 -0.53100002 28
39.365002 6.4580002 0.025 43
39.335999 6.4850001 0.63999999 56
40.310001 6.6799998 1.2869999 5
114.373 19.061001 5.448 10
0 0 0 0
35.360001 6.0320001 -0.542 25
39.198002 6.7160001 0.0099999998 56
39.299 6.7659998 0.625 51
40.234001 6.961 1.27 11
105.146 18.291 4.9689999 19
104.473 18.278 6.579 21
35.484001 6.3140001 -0.56199998 26
39.076 6.9809999 -0.0080000004 56
39.264999 7.0440001 0.60600001 56
40.207001 7.2480001 1.25 21
104.07 18.855 4.8699999 11
103.707 18.886999 6.4850001 25
35.556 6.585 -0.58499998 29
39.174999 7.2810001 -0.032000002 56
39.299999 7.3340001 0.583 56
40.296001 7.5539999 1.229 11
0 0 0 0
101.838 19.282 6.3099999 36
35.598999 6.8530002 -0.611 33
39.193001 7.572 -0.059999999 52
39.389999 7.6389999 0.55599999 53
40.195999 7.8280001 1.198 1
0 0 0 0
101.798 20.01 6.2360001 25
35.657001 7.1259999 -0.64300001 46
39.450001 7.9099998 -0.092 57
39.636002 7.9749999 0.528 58
116.299 23.495001 3.375 25
0 0 0 0
101.332 20.656 6.1279998 28
35.701 7.3979998 -0.67699999 56
39.633999 8.2399998 -0.13 58
40.007999 8.342 0.495 55
111.076 23.253 3.1210001 31
0 0 0 0
101.19 21.360001 6.0300002 11
35.747002 7.6700001 -0.71600002 63
40.242001 8.6590004 -0.175 43
85.188004 18.389 0.96499997 22
125.975 27.289 3.4070001 22
103.62 22.537001 4.4359999 14
100.474 21.945999 5.8850002 20
35.905998 7.9699998 -0.76200002 51
53.831001 11.98 -0.29800001 9
54.116001 12.079 0.55000001 44
0 0 0 0
129.48599 29.098 5.3969998 13
99.980003 22.562 5.7459998 7
36.005001 8.2589998 -0.81099999 49
53.006001 12.188 -0.361 8
53.528 12.339 0.47799999 50
54.342999 12.566 1.341 10
113.622 26.364 4.5960002 22
0 0 0 0
36.171001 8.5620003 -0.866 47
40.196999 9.5340004 -0.329 1
53.215 12.656 0.403 54
53.826 12.838 1.256 50
0 0 0 0
100.254 24.077 5.506 14
36.293999 8.8590002 -0.92400002 41
39.303001 9.6120005 -0.38100001 9
46.328999 11.357 0.28099999 5
53.587002 13.169 1.1720001 53
79.363998 19.563999 2.99 25
79.470001 19.658001 4.2540002 11
36.307999 9.1309996 -0.98400003 49
36.659 9.2360001 -0.41499999 5
45.372002 11.454 0.20299999 49
46.036999 11.651 0.93400002 12
79.514999 20.179001 2.8729999 27
80.217003 20.424 4.1690001 13
36.613998 9.4770002 -1.056 42
36.868999 9.5559998 -0.47999999 52
44.889999 11.661 0.126 53
45.423 11.827 0.84600002 50
0 0 0 0
97.954002 25.649 4.9320002 21
36.657001 9.7580004 -1.125 38
36.563999 9.7469997 -0.54299998 49
44.640999 11.922 0.043000001 49
44.988998 12.039 0.75800002 57
108.081 29.002001 3.5380001 9
97.311996 26.188999 4.73 13
36.693001 10.04 -1.199 23
36.720001 10.058 -0.616 51
44.407001 12.184 -0.041000001 52
44.706001 12.291 0.66799998 49
162.73 44.854 5.0219998 29
104.162 28.785999 4.8730001 30
36.658001 10.301 -1.274 10
36.735001 10.33 -0.69199997 58
44.353001 12.493 -0.13 51
44.498001 12.555 0.57800001 53
45.596001 12.894 1.318 5
98.698997 27.979 4.427 18
33.108002 9.5459995 -1.223 0
36.916 10.652 -0.77499998 52
44.327999 12.807 -0.22400001 50
44.507999 12.881 0.48300001 43
45.264999 13.13 1.214 13
0 0 0 0
0 0 0 0
37.064999 10.968 -0.86199999 52
0 0 0 0
44.487999 13.196 0.38699999 46
45.278 13.456 1.117 13
0 0 0 0
30.423 9.2180004 -1.267 4
37.344002 11.32 -0.95700002 54
37.43 11.357 -0.36000001 5
44.639 13.562 0.285 35
45.361 13.808 1.017 8
76.785004 23.421 2.9519999 57
29.375 9.1149998 -1.296 4
37.456001 11.628 -1.052 20
37.393002 11.616 -0.449 20
44.921001 13.972 0.17900001 52
76.366997 23.792 1.53 58
76.310997 23.823999 2.7520001 56
28.118999 8.9300003 -1.3150001 5
37.539001 11.925 -1.152 6
37.527 11.932 -0.54699999 44
55.988998 17.822001 0.082000002 3
75.926003 24.200001 1.334 54
75.853996 24.223 2.5510001 50
26.895 8.7390003 -1.331 5
0 0 0 0
42.129002 13.698 -0.72600001 55
46.598999 15.164 -0.050999999 1
75.461998 24.59 1.131 56
75.401001 24.610001 2.346 51
25.877001 8.5970001 -1.353 6
33.013 10.968 -1.193 1
41.938999 13.939 -0.83700001 69
45.943001 15.28 -0.17399999 5
75.025002 24.983 0.92500001 54
74.960999 25.003 2.1329999 53
24.868 8.4429998 -1.374 6
31.294001 10.621 -1.22 3
41.785999 14.185 -0.95300001 36
41.674 14.157 -0.27500001 6
74.606003 25.375 0.71399999 54
74.540001 25.391001 1.919 55
23.917999 8.2950001 -1.395 6
29.957001 10.385 -1.2589999 4
41.464001 14.376 -1.068 19
41.611 14.433 -0.39500001 38
74.171997 25.750999 0.49700001 61
74.109001 25.771 1.696 58
22.878 8.1009998 -1.406 5
28.419001 10.058 -1.283 4
0 0 0 0
41.450001 14.674 -0.51899999 59
73.765999 26.132 0.27700001 60
73.686996 26.136999 1.473 56
21.870001 7.901 -1.415 8
26.893999 9.71 -1.299 5
37.209 13.432 -1.189 1
40.888 14.761 -0.63800001 52
73.353996 26.507 0.048999999 41
73.304001 26.514999 1.245 59
20.969 7.7280002 -1.427 7
25.735001 9.4759998 -1.3279999 5
0 0 0 0
40.706001 14.985 -0.76599997 59
46.294998 17.049999 -0.113 4
72.917 26.881001 1.011 53
20.125 7.5609999 -1.439 14
24.506001 9.1969995 -1.348 5
0 0 0 0
40.487999 15.19 -0.89499998 15
0 0 0 0
72.509003 27.235001 0.77399999 56
19.205 7.3530002 -1.441 15
23.509001 8.9919996 -1.375 5
29.743 11.368 -1.248 3
40.866001 15.615 -1.04 17
40.625 15.529 -0.368 28
72.130997 27.587999 0.53100002 59
18.493999 7.211 -1.455 27
22.348 8.7049999 -1.387 5
27.993999 10.896 -1.273 5
39.618 15.416 -1.147 1
41.048 15.975 -0.51200002 51
71.753998 27.938 0.287 62
18.023001 7.1570001 -1.4859999 42
21.391001 8.4829998 -1.4069999 9
26.586 10.534 -1.307 5
0 0 0 0
41.846001 16.573999 -0.66799998 53
71.345001 28.267 0.039000001 47
17.476 7.0640001 -1.508 23
20.379 8.2259998 -1.418 8
25.17 10.15 -1.331 5
33.488998 13.495 -1.2130001 0
43.271999 17.434999 -0.84899998 37
45.312 18.263 -0.13699999 3
16.830999 6.9229999 -1.5190001 12
19.459 7.9910002 -1.429 12
23.892 9.8000002 -1.354 5
0 0 0 0
44.238998 18.125999 -1.031 1
44.944 18.417999 -0.30199999 23
16.054001 6.7150002 -1.5140001 11
18.681 7.8010001 -1.446 14
22.700001 9.467 -1.375 5
28.771 11.989 -1.26 4
39.317001 16.375 -1.064 1
0 0 0 0
15.407 6.553 -1.517 17
17.667 7.4990001 -1.439 22
21.74 9.2139997 -1.403 6
26.959999 11.415 -1.286 4
0 0 0 0
0 0 0 0
14.923 6.4510002 -1.5319999 35
17.046 7.3530002 -1.459 47
20.679001 8.9049997 -1.419 8
25.462 10.954 -1.318 4
0 0 0 0
0 0 0 0
14.558 6.3940001 -1.557 47
16.559999 7.2579999 -1.488 61
19.643999 8.5939999 -1.431 12
24.023001 10.496 -1.341 4
30.756001 13.425 -1.197 1
0 0 0 0
14.227 6.3460002 -1.585 68
16.117001 7.1729999 -1.518 51
18.521999 8.2279997 -1.427 26
22.603001 10.026 -1.357 4
28.653999 12.698 -1.235 4
40.673 18.014 -1.0650001 1
13.823 6.2610002 -1.602 68
15.673 7.0799999 -1.545 33
18.089001 8.1540003 -1.471 37
21.671 9.7530003 -1.392 6
26.885 12.087 -1.27 4
35.658001 16.023001 -1.08 1
13.495 6.2030001 -1.625 55
15.175 6.9559999 -1.563 10
17.500999 8.0050001 -1.501 13
20.539 9.3780003 -1.409 8
25.381001 11.575 -1.308 4
0 0 0 0
13.056 6.0890002 -1.633 32
14.523 6.7550001 -1.563 9
16.406 7.6129999 -1.482 12
19.535999 9.0469999 -1.427 9
23.936001 11.07 -1.3380001 4
30.322001 14.011 -1.178 1
12.638 5.9790001 -1.641 13
13.932 6.572 -1.564 12
15.747 7.4089999 -1.494 35
18.379 8.6300001 -1.425 15
22.655001 10.622 -1.367 5
28.445999 13.322 -1.228 3
12.203 5.8540001 -1.643 8
13.455 6.434 -1.575 34
15.3 7.2969999 -1.522 52
17.556999 8.3549995 -1.441 42
21.302999 10.121 -1.38 7
26.683001 12.662 -1.27 4
11.822 5.7490001 -1.65 8
13.146 6.3709998 -1.602 60
14.973 7.2360001 -1.5599999 65
17.058001 8.2250004 -1.479 55
20.27 9.7559996 -1.406 8
25.018999 12.025 -1.303 4
11.486 5.6599998 -1.66 8
12.91 6.3379998 -1.635 49
14.51 7.1030002 -1.581 44
16.597 8.1049995 -1.517 37
19.294001 9.4020004 -1.426 10
23.374001 11.374 -1.323 4
11.166 5.573 -1.67 9
12.451 6.191 -1.6390001 12
14.075 6.9759998 -1.602 18
15.955 7.8870001 -1.533 12
18.455 9.1040001 -1.451 9
22.184999 10.928 -1.358 5
10.852 5.4850001 -1.677 8
12.008 6.0450001 -1.6390001 7
13.487 6.7670002 -1.6 8
15.138 7.5749998 -1.527 10
17.509001 8.7410002 -1.459 13
21 10.465 -1.382 7
10.558 5.401 -1.686 8
11.636 5.9289999 -1.647 8
12.975 6.5879998 -1.603 7
14.539 7.3610001 -1.5369999 36
16.625999 8.3979998 -1.465 29
20.051001 10.109 -1.415 10
10.262 5.3140001 -1.693 8
11.296 5.8249998 -1.6569999 8
12.618 6.4819999 -1.623 7
14.229 7.2880001 -1.575 59
16.09 8.2200003 -1.4960001 50
18.968 9.6700001 -1.428 49
9.9650002 5.2210002 -1.696 8
10.98 5.7280002 -1.668 8
12.208 6.3439999 -1.632 6
13.844 7.1700001 -1.601 56
15.698 8.1079998 -1.536 40
18.464001 9.5159998 -1.4809999 16
9.6920004 5.1350002 -1.701 8
10.676 5.631 -1.677 8
11.86 6.2319999 -1.646 7
13.404 7.0190001 -1.618 29
15.155 7.9130001 -1.558 11
17.374001 9.0500002 -1.477 10
9.4250002 5.0489998 -1.705 8
10.368 5.5289998 -1.683 8
11.492 6.1030002 -1.655 7
12.853 6.8010001 -1.617 7
14.485 7.6409998 -1.561 9
16.535999 8.7010002 -1.487 12
9.1709995 4.9660001 -1.709 9
10.08 5.4320002 -1.6900001 9
11.164 5.9899998 -1.665 8
12.425 6.6420002 -1.625 7
13.805 7.3559999 -1.556 32
15.743 8.3669996 -1.493 30
8.8830004 4.8610001 -1.7029999 15
9.8079996 5.3400002 -1.696 8
10.857 5.8839998 -1.676 7
12.031 6.4959998 -1.637 6
13.537 7.2839999 -1.596 57
15.272 8.1960001 -1.525 48
8.6800003 4.7989998 -1.7130001 27
9.5319996 5.2420001 -1.7 9
10.539 5.7680001 -1.683 8
11.677 6.3649998 -1.648 6
13.162 7.1500001 -1.618 57
14.924 8.0830002 -1.5650001 31
8.5010004 4.7459998 -1.725 29
9.2690001 5.1469998 -1.704 8
10.227 5.651 -1.687 8
11.341 6.2399998 -1.66 7
12.759 6.9949999 -1.635 28
14.397 7.869 -1.5829999 10
8.3319998 4.697 -1.737 23
9.0190001 5.0549998 -1.707 9
9.9420004 5.5440001 -1.693 8
11.013 6.1149998 -1.671 7
12.254 6.777 -1.632 7
13.676 7.539 -1.573 9
8.118 4.618 -1.738 14
8.757 4.9530001 -1.705 12
9.6730003 5.4429998 -1.7 8
10.678 5.9809999 -1.676 8
11.874 6.6240001 -1.6440001 6
13.148 7.3099999 -1.58 35
7.915 4.5440001 -1.74 9
8.5600004 4.8850002 -1.715 18
9.4049997 5.3379998 -1.704 9
10.378 5.8629999 -1.684 8
11.514 6.4770002 -1.655 6
12.936 7.2509999 -1.6210001 53
7.7069998 4.4629998 -1.738 8
8.3190002 4.7880001 -1.7130001 35
9.1520004 5.2379999 -1.7079999 9
10.086 5.744 -1.691 8
11.173 6.336 -1.664 7
12.556 7.0929999 -1.638 18
7.5339999 4.3990002 -1.7410001 8
8.1809998 4.7470002 -1.73 36
8.9139996 5.1420002 -1.712 10
9.8009996 5.625 -1.6950001 8
10.835 6.191 -1.671 8
12.062 6.8649998 -1.636 6
7.3740001 4.3410001 -1.747 8
7.9990001 4.678 -1.7359999 23
8.6879997 5.0510001 -1.717 9
9.5349998 5.5139999 -1.701 8
10.526 6.059 -1.679 7
11.7 6.7069998 -1.648 6
7.21 4.2779999 -1.749 8
7.8319998 4.6149998 -1.744 14
8.4440002 4.9450002 -1.714 12
9.2880001 5.4099998 -1.707 9
10.253 5.9429998 -1.6900001 8
11.348 6.5500002 -1.658 7
7.0580001 4.2189999 -1.753 8
7.618 4.5219998 -1.739 8
8.2770004 4.882 -1.726 19
9.0380001 5.3000002 -1.71 9
9.9540005 5.809 -1.693 8
11.028 6.408 -1.668 7
6.901 4.1539998 -1.753 8
7.4429998 4.4489999 -1.7410001 8
8.0550003 4.783 -1.724 28
8.8079996 5.1999998 -1.714 9
9.6890001 5.6900001 -1.699 8
10.7 6.2550001 -1.674 8
6.7670002 4.1009998 -1.758 8
7.2800002 4.3800001 -1.743 9
7.9050002 4.724 -1.735 35
8.5959997 5.1059999 -1.719 9
9.4209995 5.566 -1.702 8
10.41 6.1220002 -1.683 8
6.6329999 4.046 -1.761 8
7.132 4.3179998 -1.748 8
7.7470002 4.658 -1.743 20
8.382 5.0089998 -1.721 9
9.1750002 5.4520001 -1.706 8
10.127 5.9889998 -1.689 7
6.5100002 3.9960001 -1.766 8
6.9850001 4.2540002 -1.75 9
7.579 4.5830002 -1.7460001 11
8.1709995 4.9099998 -1.721 12
8.9589996 5.3530002 -1.7130001 8
9.8509998 5.8559999 -1.694 8
6.3829999 3.941 -1.768 8
6.8520002 4.1960001 -1.755 9
7.3899999 4.494 -1.743 8
7.9910002 4.8270001 -1.725 23
8.7480001 5.2529998 -1.7180001 8
9.5880003 5.7280002 -1.698 8
6.257 3.8840001 -1.767 8
6.7140002 4.1329999 -1.756 9
7.2350001 4.421 -1.745 8
7.8470001 4.763 -1.7359999 26
8.5249996 5.1430001 -1.7180001 9
9.3500004 5.6100001 -1.704 8
6.1560001 3.8410001 -1.773 8
6.586 4.0749998 -1.7589999 9
7.0949998 4.3559999 -1.749 8
7.6919999 4.6900001 -1.7410001 26
8.335 5.0510001 -1.722 8
9.1110001 5.4899998 -1.706 8
6.0409999 3.7869999 -1.774 8
6.4619999 4.0170002 -1.761 8
6.96 4.2919998 -1.753 8
7.5570002 4.6269999 -1.75 17
8.1339998 4.9489999 -1.722 11
8.9060001 5.388 -1.712 9
5.9380002 3.7390001 -1.776 8
6.3509998 3.964 -1.765 8
6.8319998 4.23 -1.757 8
7.3759999 4.5339999 -1.747 9
7.9809999 4.8740001 -1.7309999 15
8.6940002 5.2779999 -1.715 9
5.8429999 3.694 -1.78 7
6.2360001 3.908 -1.767 8
6.698 4.1630001 -1.757 8
7.2090001 4.447 -1.744 8
7.7950001 4.776 -1.73 28
8.4969997 5.1750002 -1.719 9
5.7459998 3.6470001 -1.7819999 7
6.1360002 3.859 -1.771 8
6.5780001 4.1020002 -1.761 8
7.0869999 4.3860002 -1.751 8
7.677 4.7189999 -1.742 29
8.3179998 5.0809999 -1.724 9
5.6630001 3.6059999 -1.786 8
6.0380001 3.809 -1.774 8
6.4689999 4.0469999 -1.765 8
6.9520001 4.3140001 -1.753 9
7.533 4.6420002 -1.747 20
8.1210003 4.973 -1.722 10
5.5879998 3.5699999 -1.793 8
5.9390001 3.7579999 -1.776 8
6.362 3.99 -1.767 8
6.8260002 4.2470002 -1.755 8
7.3940001 4.5669999 -1.751 11
7.9650002 4.888 -1.727 14
5.5050001 3.526 -1.795 7
5.836 3.7019999 -1.775 8
6.2550001 3.9319999 -1.7690001 8
6.7129998 4.1859999 -1.7589999 8
7.2220001 4.4699998 -1.745 9
7.7880001 4.7880001 -1.726 25
5.3899999 3.46 -1.785 8
5.7579999 3.6600001 -1.781 8
6.1539998 3.8759999 -1.771 8
6.5949998 4.119 -1.76 8
7.0999999 4.402 -1.749 9
7.6830001 4.73 -1.739 27
5.3099999 3.4159999 -1.785 8
5.6820002 3.618 -1.785 8
6.0619998 3.825 -1.774 8
6.487 4.0580001 -1.762 8
6.9840002 4.335 -1.7539999 9
7.5539999 4.6560001 -1.745 21
5.2329998 3.3710001 -1.786 8
5.6040001 3.5739999 -1.788 8
5.9689999 3.7709999 -1.775 8
6.3899999 4.0009999 -1.765 8
6.8610001 4.2620001 -1.7539999 8
7.4439998 4.592 -1.753 13
5.1599998 3.3280001 -1.786 8
5.5359998 3.5339999 -1.7920001 7
5.8850002 3.72 -1.777 8
6.289 3.941 -1.766 8
6.756 4.1999998 -1.758 8
7.2709999 4.4860001 -1.745 9
5.0999999 3.293 -1.79 8
5.4549999 3.484 -1.7920001 7
5.8060002 3.6719999 -1.78 8
6.2030001 3.888 -1.77 9
6.6550002 4.138 -1.761 8
7.152 4.4130001 -1.747 8
5.0339999 3.2509999 -1.79 9
5.3959999 3.448 -1.7970001 7
5.7399998 3.6300001 -1.786 8
6.1220002 3.8369999 -1.774 8
6.5500002 4.0710001 -1.762 8
7.0349998 4.3390002 -1.749 9
4.98 3.217 -1.793 8
5.3239999 3.401 -1.7970001 7
5.6799998 3.592 -1.7920001 8
6.0349998 3.7809999 -1.775 8
6.4580002 4.0110002 -1.7640001 9
6.9330001 4.2729998 -1.752 8
4.927 3.181 -1.796 8
5.2129998 3.329 -1.7819999 9
5.5799999 3.526 -1.785 8
5.9450002 3.721 -1.774 8
6.3670001 3.951 -1.766 8
6.8319998 4.2059999 -1.755 9
4.8629999 3.138 -1.794 8
5.1560001 3.289 -1.784 9
5.539 3.4960001 -1.795 8
5.888 3.681 -1.781 8
6.289 3.8970001 -1.77 9
6.7379999 4.1420002 -1.758 9
4.816 3.1029999 -1.7970001 8
5.0960002 3.2460001 -1.785 8
5.4679999 3.447 -1.794 7
5.816 3.631 -1.7819999 8
6.2119999 3.8429999 -1.773 8
6.638 4.073 -1.758 9
4.7659998 3.066 -1.798 8
5.039 3.2049999 -1.786 9
5.3769999 3.3829999 -1.786 8
5.744 3.5780001 -1.783 8
6.1259999 3.7820001 -1.772 8
6.5570002 4.0139999 -1.762 8
4.7119999 3.026 -1.796 8
4.9899998 3.1670001 -1.7869999 9
5.3130002 3.336 -1.785 8
5.7030001 3.5439999 -1.791 8
6.0539999 3.7279999 -1.774 8
6.4720001 3.9519999 -1.763 9
4.6659999 2.99 -1.796 8
4.9349999 3.125 -1.786 9
5.2589998 3.293 -1.786 8
5.5999999 3.471 -1.779 9
5.994 3.681 -1.778 8
6.4039998 3.8989999 -1.767 9
4.625 2.9549999 -1.798 8
4.901 3.0940001 -1.7920001 9
5.204 3.2490001 -1.786 9
5.5440001 3.4260001 -1.7819999 9
5.928 3.628 -1.779 8
6.3309999 3.8410001 -1.7690001 8
4.5840001 2.9200001 -1.798 8
4.8509998 3.053 -1.791 8
5.1550002 3.2079999 -1.7869999 9
5.4949999 3.3829999 -1.785 9
5.8649998 3.576 -1.78 8
6.2579999 3.7820001 -1.77 8
4.5450001 2.885 -1.799 8
4.8109999 3.016 -1.7920001 9
5.1090002 3.1670001 -1.788 8
5.4400001 3.336 -1.785 9
5.8179998 3.533 -1.785 8
6.1960001 3.73 -1.772 8
4.5110002 2.852 -1.8 8
4.7680001 2.977 -1.7920001 9
5.0669999 3.1270001 -1.789 8
5.3850002 3.2880001 -1.784 9
5.7329998 3.4660001 -1.777 9
6.1279998 3.6719999 -1.772 8
4.4840002 2.823 -1.803 9
4.724 2.9360001 -1.79 8
5.027 3.0880001 -1.791 9
5.3410001 3.2460001 -1.785 8
5.6890001 3.4230001 -1.78 9
6.0770001 3.6229999 -1.775 8
4.4450002 2.7850001 -1.801 9
4.6929998 2.902 -1.7920001 9
4.9809999 3.0450001 -1.789 9
5.2930002 3.201 -1.785 9
5.6370001 3.3740001 -1.781 9
6.0219998 3.5710001 -1.777 8
4.4099998 2.7490001 -1.799 9
4.6700001 2.8729999 -1.796 10
4.9530001 3.0109999 -1.7920001 9
5.2519999 3.158 -1.785 8
5.6230001 3.3469999 -1.791 8
5.9369998 3.5009999 -1.768 9
4.3920002 2.7219999 -1.803 8
4.6290002 2.832 -1.7920001 9
4.9120002 2.9690001 -1.79 10
5.2150002 3.118 -1.7869999 8
5.5489998 3.283 -1.7819999 9
5.8860002 3.4489999 -1.768 9
4.368 2.691 -1.804 8
4.6069999 2.802 -1.795 9
4.8860002 2.9349999 -1.793 9
5.177 3.075 -1.786 9
5.5019999 3.2349999 -1.781 9
5.8410001 3.401 -1.7690001 10
4.3400002 2.6559999 -1.802 9
4.5869999 2.7720001 -1.798 9
4.8530002 2.8959999 -1.793 10
5.1360002 3.0309999 -1.784 9
5.4629998 3.1900001 -1.781 9
5.8039999 3.3559999 -1.771 9
4.3150001 2.6240001 -1.802 9
4.5599999 2.7360001 -1.7970001 9
4.8169999 2.855 -1.79 11
5.1079998 2.993 -1.785 10
5.4320002 3.1489999 -1.783 9
5.763 3.3080001 -1.772 9
4.2930002 2.5910001 -1.801 9
4.5409999 2.7049999 -1.799 9
4.7979999 2.823 -1.7920001 9
5.0780001 2.954 -1.786 11
5.3889999 3.1010001 -1.779 9
5.7329998 3.266 -1.774 9
4.276 2.5610001 -1.802 9
4.5170002 2.6700001 -1.798 10
4.7719998 2.7850001 -1.7920001 10
5.053 2.9159999 -1.786 10
5.3610001 3.0599999 -1.78 10
5.691 3.217 -1.772 9
4.257 2.53 -1.801 9
4.4889998 2.632 -1.794 10
4.7480001 2.7490001 -1.791 9
5.033 2.8800001 -1.788 9
5.3330002 3.0190001 -1.781 9
5.6599998 3.1719999 -1.773 9
4.2379999 2.497 -1.8 9
4.4819999 2.6059999 -1.799 9
4.7340002 2.7179999 -1.793 10
5.0100002 2.8429999 -1.788 9
5.3060002 2.9779999 -1.781 10
5.6350002 3.131 -1.774 9
4.2270002 2.4690001 -1.801 9
4.4619999 2.5710001 -1.7970001 10
4.7150002 2.6830001 -1.7920001 10
4.9920001 2.8069999 -1.789 10
5.283 2.9389999 -1.781 9
5.6069999 3.0869999 -1.774 9
4.2140002 2.4389999 -1.8 9
4.4510002 2.5409999 -1.798 9
4.6989999 2.6489999 -1.7920001 10
4.9790001 2.7739999 -1.791 9
5.2639999 2.9000001 -1.781 10
5.5869999 3.0469999 -1.776 10
4.2119999 2.414 -1.804 9
4.4419999 2.5120001 -1.799 9
4.6939998 2.6210001 -1.796 10
4.96 2.737 -1.79 9
5.2420001 2.8599999 -1.781 9
5.5650001 3.0050001 -1.775 9
4.1950002 2.381 -1.8 9
4.421 2.4749999 -1.795 10
4.6690001 2.5799999 -1.791 10
4.941 2.698 -1.788 9
5.2329998 2.826 -1.783 10
5.539 2.96 -1.773 10
4.1939998 2.3559999 -1.803 8
4.4190001 2.448 -1.798 10
4.671 2.5539999 -1.796 10
4.927 2.6619999 -1.7869999 10
5.2189999 2.7880001 -1.783 10
5.5219998 2.9189999 -1.774 9
4.1830001 2.3239999 -1.801 9
4.4159999 2.4200001 -1.799 10
4.6669998 2.5250001 -1.798 11
4.9219999 2.6300001 -1.789 10
5.2030001 2.7490001 -1.7819999 11
5.5050001 2.8789999 -1.773 10
4.1849999 2.3 -1.803 9
4.4060001 2.388 -1.798 10
4.652 2.4890001 -1.795 10
4.9200001 2.5999999 -1.7920001 10
5.1950002 2.714 -1.7819999 9
5.493 2.8399999 -1.772 11
4.1799998 2.2709999 -1.803 9
4.4060001 2.3599999 -1.799 10
4.6539998 2.461 -1.7970001 11
4.9070001 2.563 -1.789 10
5.1869998 2.6789999 -1.783 10
5.4889998 2.8039999 -1.775 10
4.184 2.2460001 -1.8049999 9
4.3979998 2.3280001 -1.7970001 10
4.6440001 2.4260001 -1.795 10
4.901 2.529 -1.789 11
5.1880002 2.6470001 -1.785 9
5.4850001 2.7679999 -1.776 10
4.1849999 2.2190001 -1.806 9
4.3990002 2.3 -1.798 9
4.6469998 2.398 -1.7970001 11
4.9029999 2.4990001 -1.791 10
5.1820002 2.6110001 -1.784 11
5.4699998 2.727 -1.773 10
4.1810002 2.1889999 -1.803 9
4.4089999 2.276 -1.802 11
4.6430001 2.365 -1.795 11
4.895 2.4630001 -1.788 10
5.1739998 2.5739999 -1.783 10
5.4720001 2.6930001 -1.775 10
4.1750002 2.1570001 -1.799 12
4.4089999 2.2460001 -1.8 10
4.651 2.339 -1.7970001 10
4.901 2.434 -1.79 10
5.1830001 2.5450001 -1.786 10
5.4770002 2.6600001 -1.776 10
4.1869998 2.135 -1.803 14
4.4060001 2.2149999 -1.798 10
4.6550002 2.3099999 -1.798 11
4.902 2.402 -1.789 12
5.1859999 2.5120001 -1.786 10
5.4710002 2.6210001 -1.774 10
4.1929998 2.108 -1.803 14
4.4120002 2.188 -1.798 11
4.658 2.279 -1.7970001 11
4.9099998 2.3729999 -1.79 11
5.1719999 2.471 -1.78 11
5.4809999 2.589 -1.776 10
4.1960001 2.0799999 -1.801 14
4.4029999 2.152 -1.7920001 19
4.665 2.25 -1.7970001 11
4.9159999 2.342 -1.79 11
5.1929998 2.4449999 -1.785 10
5.4770002 2.5510001 -1.773 11
4.2069998 2.056 -1.802 14
4.4120002 2.1259999 -1.7920001 19
4.6729999 2.2219999 -1.798 10
4.914 2.3069999 -1.7869999 11
5.184 2.405 -1.779 11
5.4910002 2.52 -1.775 10
4.2199998 2.0309999 -1.804 15
4.4229999 2.099 -1.793 20
4.6789999 2.1919999 -1.796 13
4.947 2.289 -1.796 11
5.1989999 2.3759999 -1.781 11
5.4959998 2.4849999 -1.774 10
4.2410002 2.0109999 -1.809 12
4.4400001 2.075 -1.795 20
4.6719999 2.155 -1.789 21
4.9369998 2.2490001 -1.788 10
5.2150002 2.3469999 -1.783 12
5.5079999 2.4519999 -1.774 11
4.25 1.983 -1.807 9
4.4499998 2.0480001 -1.795 24
4.6939998 2.131 -1.793 19
4.9640002 2.2260001 -1.793 11
5.223 2.3139999 -1.781 12
5.5289998 2.4219999 -1.776 11
4.2610002 1.957 -1.806 9
4.4710002 2.0250001 -1.7970001 17
4.7049999 2.102 -1.7920001 20
4.954 2.1860001 -1.784 16
5.2150002 2.2739999 -1.773 11
5.54 2.388 -1.775 11
4.2740002 1.931 -1.8049999 9
4.494 2.0020001 -1.8 10
4.7199998 2.0739999 -1.791 19
4.9710002 2.1570001 -1.784 20
5.2579999 2.2550001 -1.7819999 12
5.5450001 2.3510001 -1.771 11
4.2870002 1.904 -1.804 9
4.5089998 1.975 -1.8 10
4.7340002 2.046 -1.79 20
4.9829998 2.1259999 -1.7819999 19
5.263 2.2190001 -1.777 11
5.573 2.323 -1.773 10
4.3099999 1.882 -1.806 9
4.5300002 1.95 -1.801 11
4.776 2.029 -1.798 17
5.007 2.0999999 -1.783 19
5.2709999 2.184 -1.772 24
5.5869999 2.289 -1.771 11
4.322 1.855 -1.803 13
4.54 1.921 -1.7970001 10
4.7909999 2 -1.796 11
5.033 2.0739999 -1.785 21
5.3070002 2.161 -1.777 38
5.6079998 2.257 -1.77 11
4.3400002 1.83 -1.802 14
4.5700002 1.899 -1.8 11
4.8130002 1.973 -1.796 11
5.0539999 2.0450001 -1.784 19
5.3249998 2.1289999 -1.775 28
5.6360002 2.2279999 -1.77 13
4.3660002 1.807 -1.804 15
4.5749998 1.8660001 -1.793 16
4.8379998 1.947 -1.7970001 11
5.0960002 2.0250001 -1.79 14
5.3499999 2.0999999 -1.774 24
5.6479998 2.1919999 -1.765 23
4.3870001 1.7819999 -1.803 15
4.5999999 1.842 -1.794 18
4.8559999 1.918 -1.794 11
5.1129999 1.994 -1.786 10
5.3889999 2.076 -1.777 21
5.6900001 2.1670001 -1.768 28
4.408 1.757 -1.802 15
4.6269999 1.818 -1.794 18
4.8800001 1.892 -1.793 12
5.1399999 1.967 -1.786 10
5.4250002 2.0510001 -1.779 20
5.7280002 2.1400001 -1.7690001 20
4.4390001 1.735 -1.804 15
4.658 1.795 -1.796 18
4.901 1.863 -1.79 19
5.1750002 1.942 -1.7869999 11
5.4590001 2.0239999 -1.779 12
5.763 2.1110001 -1.7690001 19
4.4749999 1.715 -1.808 13
4.6789999 1.767 -1.793 18
4.9390001 1.84 -1.7920001 20
5.2080002 1.916 -1.7869999 11
5.4899998 1.995 -1.778 12
5.796 2.082 -1.768 19
4.493 1.688 -1.803 11
4.7189999 1.748 -1.796 18
4.973 1.816 -1.793 21
5.2189999 1.882 -1.779 16
5.5380001 1.972 -1.781 10
5.862 2.063 -1.775 17
4.5219998 1.664 -1.803 10
4.7620001 1.727 -1.801 16
4.9980001 1.789 -1.79 21
5.2639999 1.86 -1.7819999 20
5.5650001 1.942 -1.777 11
5.8829999 2.0280001 -1.7690001 11
4.5549998 1.642 -1.803 10
4.7880001 1.701 -1.798 11
5.0339999 1.7640001 -1.79 21
5.303 1.835 -1.7819999 20
5.5949998 1.9119999 -1.774 11
5.9359999 2.0039999 -1.771 11
4.5869999 1.618 -1.803 9
4.8309999 1.6799999 -1.801 10
5.0780001 1.742 -1.7920001 19
5.342 1.809 -1.781 20
5.6500001 1.8890001 -1.776 20
5.9780002 1.975 -1.7690001 11
4.619 1.595 -1.802 10
4.8559999 1.653 -1.796 11
5.1269999 1.721 -1.795 13
5.3839998 1.783 -1.781 20
5.697 1.864 -1.777 22
6.0190001 1.946 -1.766 12
4.6570001 1.573 -1.803 10
4.902 1.632 -1.799 11
5.1620002 1.6950001 -1.793 12
5.4260001 1.758 -1.78 20
5.7340002 1.835 -1.773 22
6.0500002 1.9119999 -1.7589999 13
4.6950002 1.55 -1.802 11
4.941 1.608 -1.798 12
5.204 1.67 -1.7920001 12
5.4980001 1.742 -1.788 15
5.7849998 1.809 -1.773 21
6.1290002 1.8940001 -1.766 20
4.7319999 1.527 -1.802 12
4.9780002 1.584 -1.796 12
5.2379999 1.643 -1.788 11
5.54 1.715 -1.785 12
5.849 1.788 -1.775 20
6.1810002 1.8660001 -1.763 21
4.7729998 1.505 -1.801 11
5.0240002 1.561 -1.796 12
5.2969999 1.623 -1.791 11
5.5949998 1.692 -1.786 12
5.914 1.765 -1.777 19
6.243 1.84 -1.763 20
4.823 1.484 -1.804 12
5.0749998 1.539 -1.798 13
5.3410001 1.598 -1.789 11
5.6409998 1.665 -1.783 12
5.9679999 1.739 -1.776 12
6.3119998 1.816 -1.7640001 21
4.8540001 1.4579999 -1.798 11
5.1199999 1.515 -1.796 12
5.3899999 1.573 -1.7869999 12
5.6989999 1.641 -1.7819999 11
6.04 1.717 -1.778 12
6.395 1.795 -1.767 20
4.9130001 1.439 -1.802 12
5.1739998 1.494 -1.7970001 11
5.4510002 1.552 -1.789 12
5.7659998 1.619 -1.784 12
6.1059999 1.693 -1.778 12
6.4689999 1.771 -1.767 20
4.9590001 1.4170001 -1.801 11
5.2220001 1.47 -1.795 12
5.5089998 1.529 -1.789 13
5.8239999 1.595 -1.783 12
6.1589999 1.665 -1.773 13
6.5469999 1.747 -1.767 11
5.0089998 1.395 -1.801 11
5.2680001 1.446 -1.7920001 11
5.5669999 1.506 -1.788 14
5.8889999 1.572 -1.7819999 13
6.2490001 1.646 -1.777 17
6.6170001 1.72 -1.763 12
5.0630002 1.374 -1.801 11
5.3400002 1.428 -1.7970001 11
5.6370001 1.4859999 -1.79 12
5.9590001 1.549 -1.7819999 12
6.316 1.62 -1.774 12
6.7030001 1.698 -1.7640001 11
5.119 1.353 -1.801 11
5.3899999 1.403 -1.793 11
5.7069998 1.465 -1.791 12
6.027 1.525 -1.781 13
6.3959999 1.597 -1.774 11
6.8000002 1.676 -1.765 12
5.1760001 1.331 -1.8 11
5.448 1.38 -1.791 12
5.7670002 1.4400001 -1.788 13
6.1079998 1.5039999 -1.7819999 11
6.4650002 1.5700001 -1.7690001 13
6.868 1.647 -1.758 16
5.2290001 1.308 -1.798 11
5.5159998 1.359 -1.791 12
5.836 1.4170001 -1.7869999 13
6.1789999 1.479 -1.779 11
6.5409999 1.545 -1.765 21
6.9640002 1.623 -1.757 14
5.2930002 1.2869999 -1.798 11
5.5819998 1.337 -1.79 11
5.9089999 1.395 -1.786 13
6.2639999 1.4579999 -1.779 11
6.6630001 1.529 -1.773 14
7.0710001 1.601 -1.757 14
5.3559999 1.266 -1.7970001 11
5.652 1.3150001 -1.789 11
5.993 1.374 -1.7869999 13
6.3439999 1.434 -1.776 13
6.7519999 1.505 -1.77 12
7.1599998 1.575 -1.752 20
5.4180002 1.243 -1.794 12
5.7309999 1.295 -1.791 11
6.0749998 1.352 -1.7869999 12
6.4200001 1.409 -1.771 23
6.8330002 1.479 -1.7640001 12
7.3049998 1.559 -1.758 13
5.4819999 1.221 -1.7920001 11
5.7989998 1.271 -1.7869999 10
6.164 1.331 -1.7869999 11
6.5209999 1.388 -1.772 23
6.947 1.4579999 -1.765 13
7.4460001 1.5420001 -1.762 15
5.5630002 1.201 -1.793 11
5.8889999 1.252 -1.789 12
6.2420001 1.307 -1.783 12
6.6290002 1.368 -1.774 12
7.0300002 1.431 -1.758 20
7.5279999 1.511 -1.751 19
5.6399999 1.181 -1.793 12
5.973 1.2309999 -1.789 11
6.3449998 1.288 -1.784 11
6.7379999 1.348 -1.775 11
7.1570001 1.411 -1.7589999 25
7.6570001 1.489 -1.749 14
5.7270002 1.161 -1.795 10
6.0570002 1.209 -1.786 10
6.4130001 1.26 -1.775 25
6.835 1.323 -1.77 11
7.316 1.396 -1.766 12
7.8119998 1.47 -1.751 14
5.8080001 1.14 -1.793 11
6.1409998 1.186 -1.783 11
6.5139999 1.239 -1.774 24
6.9330001 1.299 -1.765 19
7.4320002 1.372 -1.762 12
7.974 1.452 -1.753 12
5.8899999 1.118 -1.791 11
6.2290001 1.164 -1.78 11
6.6430001 1.222 -1.779 11
7.0630002 1.28 -1.766 29
7.5500002 1.348 -1.757 13
8.1350002 1.431 -1.753 26
5.9790001 1.098 -1.789 11
6.329 1.143 -1.779 11
6.7519999 1.2 -1.777 11
7.1739998 1.256 -1.761 21
7.6789999 1.325 -1.752 16
8.2840004 1.408 -1.748 21
6.085 1.079 -1.7920001 10
6.428 1.1210001 -1.776 24
6.8559999 1.177 -1.772 11
7.3530002 1.243 -1.772 11
7.836 1.3049999 -1.752 17
8.4499998 1.387 -1.745 12
6.1760001 1.058 -1.788 10
6.5349998 1.101 -1.774 21
6.9790001 1.156 -1.771 28
7.4710002 1.219 -1.765 11
8.0459995 1.2920001 -1.761 16
8.625 1.365 -1.7410001 12
6.2779999 1.0369999 -1.7869999 10
6.671 1.0829999 -1.778 11
7.099 1.1339999 -1.767 28
7.631 1.2 -1.766 10
8.2060003 1.27 -1.758 17
8.7779999 1.339 -1.7309999 23
6.3829999 1.016 -1.785 11
6.776 1.0599999 -1.773 11
7.2449999 1.115 -1.768 14
7.743 1.173 -1.7539999 22
8.349 1.245 -1.748 12
8.9729996 1.317 -1.727 23
6.4679999 0.991 -1.776 18
6.902 1.04 -1.771 10
7.4099998 1.098 -1.771 11
7.9289999 1.155 -1.757 10
8.5439997 1.225 -1.747 12
9.2270002 1.303 -1.73 12
6.6090002 0.97399998 -1.78 14
7.02 1.017 -1.766 19
