# .PCD v0.7 - Point Cloud Data file format
VERSION 0.7
FIELDS x y z intensity
SIZE 4 4 4 4
TYPE F F F F
COUNT 1 1 1 1
WIDTH 1920
HEIGHT 1
VIEWPOINT 0 0 0 1 0 0 0
POINTS 1920
DATA ascii
0 0 0 0
0 0 0 0
0 0 0 0
0 0 0 0
57.709 -24.105 7.9850001 8
0 0 0 0
0 0 0 0
0 0 0 0
0 0 0 0
0 0 0 0
57.995998 -23.771999 8.04 25
56.41 -23.091 8.757 8
56.125999 -22.955999 9.658 12
0 0 0 0
0 0 0 0
0 0 0 0
54.764 -22.014999 7.598 22
54.516998 -21.889999 8.4680004 38
54.668999 -21.931999 9.4069996 3
0 0 0 0
0 0 0 0
0 0 0 0
55.109001 -21.722 7.6459999 24
54.536999 -21.466999 8.4680004 54
56.924999 -22.386 9.7880001 16
0 0 0 0
0 0 0 0
0 0 0 0
55.237999 -21.337 7.6589999 37
0 0 0 0
56.146999 -21.639 9.6409998 20
0 0 0 0
0 0 0 0
0 0 0 0
55.734001 -21.091999 7.717 31
54.929001 -20.757 8.5059996 37
56.287998 -21.247999 9.6470003 52
0 0 0 0
0 0 0 0
0 0 0 0
55.210999 -20.464001 7.631 48
55.637001 -20.59 8.5979996 54
57.362999 -21.204 9.8070002 20
0 0 0 0
0 0 0 0
0 0 0 0
55.451 -20.114 7.6440001 39
56.116001 -20.323 8.6479998 23
56.728001 -20.518999 9.6700001 27
0 0 0 0
0 0 0 0
0 0 0 0
56.087002 -19.905001 7.704 52
55.854 -19.792 8.5760002 43
56.882 -20.132 9.6630001 16
0 0 0 0
0 0 0 0
0 0 0 0
56.068001 -19.462 7.6690001 36
56.539001 -19.594999 8.6440001 30
0 0 0 0
0 0 0 0
0 0 0 0
0 0 0 0
56.074001 -19.031 7.6339998 2
0 0 0 0
56.438 -19.097 9.5010004 3
0 0 0 0
0 0 0 0
0 0 0 0
0 0 0 0
0 0 0 0
0 0 0 0
0 0 0 0
0 0 0 0
0 0 0 0
62.120998 -20.127001 8.3559999 10
59.653 -19.294001 8.974 59
0 0 0 0
0 0 0 0
0 0 0 0
0 0 0 0
59.241001 -18.74 7.9109998 24
59.507999 -18.787001 8.8909998 53
0 0 0 0
0 0 0 0
0 0 0 0
0 0 0 0
58.908001 -18.184 7.803 46
59.455002 -18.315001 8.8149996 39
0 0 0 0
0 0 0 0
0 0 0 0
0 0 0 0
57.737 -17.377001 7.5799999 49
59.030998 -17.732 8.6800003 50
59.826 -17.940001 9.7480001 33
0 0 0 0
0 0 0 0
0 0 0 0
57.412998 -16.846001 7.467 63
57.650002 -16.874001 8.3999996 68
59.956001 -17.52 9.6859999 63
0 0 0 0
0 0 0 0
0 0 0 0
57.485001 -16.434 7.3979998 51
57.647999 -16.443001 8.3199997 76
60.096001 -17.108 9.6219997 34
0 0 0 0
0 0 0 0
0 0 0 0
57.630001 -16.040001 7.3319998 58
58.208 -16.163 8.3120003 42
60.236 -16.691999 9.5489998 57
0 0 0 0
0 0 0 0
0 0 0 0
58.408001 -15.826 7.342 33
58.098999 -15.703 8.2049999 53
60.185001 -16.228001 9.4399996 60
0 0 0 0
0 0 0 0
0 0 0 0
57.965 -15.273 7.1890001 65
59.141998 -15.543 8.2510004 23
60.028999 -15.742 9.3120003 61
0 0 0 0
0 0 0 0
0 0 0 0
58.386002 -14.954 7.1389999 38
58.646 -14.983 8.0760002 31
61.058998 -15.564 9.3579998 13
0 0 0 0
0 0 0 0
0 0 0 0
60.212002 -14.982 7.2529998 57
59.047001 -14.654 8.0209999 60
61.234001 -15.161 9.2679996 22
0 0 0 0
0 0 0 0
0 0 0 0
60.419998 -14.594 7.1599998 27
59.202999 -14.259 7.9229999 20
62.361 -14.982 9.3100004 3
0 0 0 0
0 0 0 0
0 0 0 0
60.573002 -14.194 7.0570002 36
62.513 -14.604 8.2349997 44
0 0 0 0
0 0 0 0
0 0 0 0
0 0 0 0
61.435001 -13.952 7.0250001 31
61.347 -13.887 7.947 54
64.001999 -14.449 9.2740002 8
0 0 0 0
0 0 0 0
0 0 0 0
61.737999 -13.581 6.921 42
61.006001 -13.377 7.7659998 24
64.069 -14.011 9.1379995 43
0 0 0 0
0 0 0 0
0 0 0 0
61.589001 -13.114 6.763 39
60.591 -12.858 7.572 17
62.903999 -13.308 8.8190002 47
0 0 0 0
0 0 0 0
0 0 0 0
61.497002 -12.657 6.6030002 40
61.182999 -12.551 7.494 13
62.606998 -12.803 8.6219997 39
0 0 0 0
0 0 0 0
0 0 0 0
60.486 -12.027 6.3410001 49
61.741001 -12.232 7.4029999 3
62.541 -12.35 8.4490004 55
0 0 0 0
0 0 0 0
0 0 0 0
60.485001 -11.614 6.1859999 61
61.672001 -11.796 7.2309999 17
62.861 -11.982 8.323 40
64.848 -12.323 9.5749998 43
0 0 0 0
0 0 0 0
60.620998 -11.222 6.0339999 52
60.799 -11.214 6.9640002 58
60.834 -11.18 7.8870001 13
65.220001 -11.951 9.4490004 37
0 0 0 0
0 0 0 0
60.499001 -10.792 5.8530002 60
61.41 -10.91 6.8590002 51
61.202999 -10.832 7.7589998 6
65.084 -11.483 9.2390003 11
0 0 0 0
0 0 0 0
61.361 -10.535 5.7610002 49
61.553001 -10.526 6.698 33
0 0 0 0
65.042999 -11.042 9.0410004 24
0 0 0 0
0 0 0 0
62.637001 -10.337 5.6929998 60
62.759998 -10.311 6.6389999 13
62.787998 -10.273 7.5830002 46
64.282997 -10.478 8.7340002 36
0 0 0 0
0 0 0 0
62.799999 -9.9460001 5.513 31
62.917 -9.9180002 6.4580002 68
63.536999 -9.9759998 7.473 39
63.556 -9.9359999 8.4320002 34
0 0 0 0
0 0 0 0
62.089001 -9.427 5.2550001 26
62.5 -9.4460001 6.217 34
62.115002 -9.3430004 7.1040001 5
63.705002 -9.5419998 8.243 5
0 0 0 0
0 0 0 0
63.576 -9.2419996 5.1719999 43
62.347 -9.0139999 5.994 50
62.414001 -8.9790001 6.928 41
64.864998 -9.2930002 8.1739998 11
0 0 0 0
0 0 0 0
63.562 -8.8299999 4.9559999 30
62.735001 -8.6680002 5.8189998 31
62.415001 -8.5810003 6.717 65
65.436996 -8.9569998 8.0229998 32
0 0 0 0
0 0 0 0
63.636002 -8.4370003 4.7420001 33
63.796001 -8.4110003 5.6950002 10
63.127998 -8.2819996 6.5739999 52
65.322998 -8.5270004 7.7779999 37
68.213997 -8.8660002 9.1490002 23
0 0 0 0
68.120003 -8.6070004 4.8369999 7
64.376999 -8.0889997 5.5209999 10
63.896999 -7.9840002 6.427 47
64.584 -8.0270004 7.4590001 57
67.716003 -8.3780003 8.8369999 14
0 0 0 0
68.375999 -8.2159996 4.6069999 59
64.921997 -7.7529998 5.329 22
63.821999 -7.5760002 6.1830001 55
64.703003 -7.638 7.2309999 32
65.177002 -7.6560001 8.2609997 32
0 0 0 0
69.306 -7.901 4.4099998 22
65.085999 -7.3720002 5.0970001 4
64.578003 -7.2709999 6.013 17
64.030998 -7.1690001 6.915 52
65.288002 -7.2680001 8.026 37
67.502998 -7.4780002 9.3140001 33
68.358002 -7.3850002 4.0929999 29
68.484001 -7.3470001 5.105 17
63.445999 -6.7610002 5.6659999 61
63.459 -6.7199998 6.6079998 24
64.986 -6.8400002 7.7360001 24
64.919998 -6.796 8.7030001 32
0 0 0 0
68.296997 -6.9159999 4.822 10
64.537003 -6.4920001 5.5089998 49
0 0 0 0
65.134003 -6.4660001 7.494 30
65.304001 -6.4450002 8.493 18
127.61 -12.27 6.6350002 33
0 0 0 0
63.839001 -6.0469999 5.1950002 37
67.170998 -6.3169999 6.46 4
64.567001 -6.0320001 7.171 63
65.512001 -6.0780001 8.2519999 41
126.68 -11.443 6.0700002 34
128.093 -11.475 8.0109997 38
64.472 -5.7290001 4.98 39
66.362 -5.8509998 6.1069999 29
64.248001 -5.625 6.8670001 39
65.407997 -5.6869998 7.9679999 27
70.860001 -5.9949999 3.102 32
127.576 -10.699 7.4510002 32
70.742996 -5.8829999 5.1700001 8
66.045998 -5.4460001 5.8010001 48
67.063004 -5.4850001 6.8850002 6
65.486 -5.3140001 7.698 58
70.464996 -5.5599999 2.7839999 59
70.261002 -5.4910002 3.802 101
70.271004 -5.4439998 4.836 50
66.209999 -5.0819998 5.5300002 13
66.382004 -5.0500002 6.527 5
65.708 -4.9559999 7.4380002 40
69.736 -5.1129999 2.4519999 34
0 0 0 0
128.495 -9.2320004 8.2799997 22
75.129997 -5.3429999 5.9450002 10
73.282997 -5.1620002 6.882 25
65.203003 -4.552 7.0929999 54
128.63699 -8.7229996 3.954 22
127.41 -8.5450001 5.776 50
128.235 -8.5120001 7.697 49
0 0 0 0
72.834999 -4.7360001 6.5219998 18
66.216003 -4.2610002 6.9109998 37
129.16299 -8.0609999 3.392 17
130.10899 -8.0229998 5.316 42
130.382 -7.9499998 7.2410002 33
134.799 -8.1239996 9.4700003 13
0 0 0 0
67.341003 -3.9649999 6.7199998 36
0 0 0 0
129.758 -7.3080001 4.7059999 40
130.189 -7.237 6.6279998 17
130.502 -7.1669998 8.566 17
73.083 -3.9649999 5.8769999 30
69.783997 -3.7390001 6.6440001 31
116.555 -6.04 1.985 31
129.395 -6.6059999 4.0869999 36
130.547 -6.5700002 6.0349998 12
130.34 -6.467 7.941 22
72.757004 -3.5610001 5.507 17
70.916 -3.425 6.4180002 17
87.560997 -4.0830002 1.074 23
129 -5.921 3.4649999 33
129.45 -5.8520002 5.3769999 30
129.711 -5.776 7.2969999 22
73.906998 -3.2390001 5.2459998 4
70.841003 -3.0550001 6.0749998 22
72.365997 -3.007 0.54000002 23
72.358002 -2.9519999 1.5930001 46
129.41 -5.1859999 4.7449999 17
72.539001 -2.855 3.7249999 12
129.379 -5.0009999 8.5489998 12
74.043999 -2.813 5.9879999 27
29.742001 -1.086 0.074000001 2
0 0 0 0
128.91 -4.5229998 4.098 38
72.636002 -2.4979999 3.378 16
129.65601 -4.3649998 7.9330001 22
0 0 0 0
29.134001 -0.92000002 -0.071999997 59
197.903 -6.1110001 2.4030001 29
0 0 0 0
130.409 -3.8469999 5.4180002 55
72.569 -2.089 4.0830002 9
70.667999 -1.985 5.0180001 8
28.843 -0.77200001 -0.21600001 59
29.316999 -0.764 0.208 30
131.082 -3.325 2.8559999 12
0 0 0 0
71.429001 -1.71 3.6559999 9
0 0 0 0
28.671 -0.63200003 -0.36199999 56
28.915001 -0.61699998 0.057999998 61
140.468 -2.9000001 2.3429999 11
130.409 -2.6059999 4.0999999 12
0 0 0 0
79.458 -1.472 4.836 8
28.503 -0.49599999 -0.509 65
28.672001 -0.47799999 -0.092 64
29.344999 -0.46700001 0.33500001 21
135.138 -2.0569999 3.53 29
0 0 0 0
203.65601 -2.8150001 11.327 31
28.370001 -0.36300001 -0.65799999 63
28.457001 -0.34299999 -0.243 77
28.808001 -0.32699999 0.176 69
133.981 -1.429 2.7969999 27
134.879 -1.342 4.8010001 24
0 0 0 0
28.343 -0.235 -0.81099999 65
28.402 -0.215 -0.39500001 55
28.577 -0.19599999 0.021 72
29.309 -0.18099999 0.454 6
135.162 -0.73699999 4.0879998 34
134.64799 -0.64099997 6.0619998 24
27.795 -0.109 -0.94700003 56
28.299 -0.090000004 -0.54699999 62
28.403 -0.07 -0.131 72
28.948 -0.050000001 0.29100001 55
133.978 -0.14 3.326 36
134.798 -0.043000001 5.3340001 36
24.622 0.0089999996 -0.97500002 21
28.198 0.029999999 -0.70099998 70
28.289 0.050000001 -0.28600001 70
28.601999 0.071000002 0.132 67
0 0 0 0
0 0 0 0
24.416 0.112 -1.104 65
28.209999 0.15000001 -0.86000001 70
28.205999 0.17 -0.44400001 78
28.407 0.191 -0.026000001 64
29.063 0.21699999 0.40000001 29
132.416 1.084 3.783 23
24.431 0.213 -1.245 63
27.042 0.255 -0.97799999 55
28.228001 0.287 -0.60399997 52
28.336 0.30700001 -0.186 64
28.757999 0.33399999 0.234 65
132.856 1.64 3.0450001 23
24.382999 0.31200001 -1.383 64
24.396999 0.329 -1.023 56
28.127001 0.39899999 -0.76300001 65
28.177999 0.41999999 -0.34599999 66
28.549 0.44600001 0.071000002 65
29.287001 0.479 0.50599998 5
24.485001 0.41 -1.533 51
24.239 0.42300001 -1.1569999 72
27.753 0.50400001 -0.91399997 37
28.166 0.53100002 -0.509 61
28.306 0.55400002 -0.093000002 71
28.976 0.58899999 0.333 51
24.393 0.50199997 -1.671 27
24.275 0.51800001 -1.304 71
25.528 0.56300002 -0.99199998 42
28.308001 0.64399999 -0.67799997 44
28.231001 0.662 -0.25799999 65
28.632999 0.69300002 0.161 73
23.421 0.57099998 -1.7460001 19
24.316999 0.61000001 -1.45 73
24.242001 0.62400001 -1.084 66
28.184999 0.74599999 -0.84100002 69
28.226 0.76800001 -0.42399999 49
28.443001 0.79400003 -0.0040000002 66
21.598 0.60600001 -1.742 16
24.295 0.69800001 -1.596 60
24.291 0.71499997 -1.233 56
26.624001 0.80199999 -0.95300001 45
28.174 0.86900002 -0.58999997 61
28.315001 0.89499998 -0.17299999 63
19.966999 0.63200003 -1.733 14
23.912001 0.773 -1.717 20
24.216999 0.80000001 -1.376 74
24.267 0.81800002 -1.016 60
28.211 0.972 -0.76099998 68
28.289 0.995 -0.34299999 65
18.572001 0.65200001 -1.727 13
22.188999 0.79400003 -1.73 17
24.273001 0.88599998 -1.529 65
24.125 0.89700001 -1.1569999 63
27.686001 1.05 -0.91500002 34
28.346001 1.095 -0.51499999 47
17.382999 0.66900003 -1.726 11
20.433001 0.80000001 -1.72 15
24.159 0.963 -1.669 25
24.101 0.977 -1.304 62
25.068001 1.034 -0.98100001 32
28.388 1.193 -0.68900001 56
16.323 0.68199998 -1.725 10
19.031 0.80800003 -1.723 13
23.032 0.99400002 -1.7359999 19
24.253 1.063 -1.464 66
24.056999 1.072 -1.091 67
28.372 1.284 -0.86199999 53
15.382 0.69099998 -1.723 10
17.719999 0.80800003 -1.715 11
21.166 0.98000002 -1.728 16
24.190001 1.137 -1.61 34
24.09 1.149 -1.2410001 73
25.799999 1.249 -0.94199997 37
14.56 0.699 -1.724 11
16.620001 0.80900002 -1.715 10
19.584 0.96700001 -1.724 14
23.68 1.186 -1.726 20
24.110001 1.224 -1.3940001 69
24.198999 1.2460001 -1.036 65
13.842 0.70599997 -1.73 11
15.627 0.80800003 -1.714 11
18.167 0.95099998 -1.716 12
21.823999 1.158 -1.73 17
24.233 1.302 -1.554 52
24.059999 1.311 -1.182 58
13.176 0.71100003 -1.734 12
14.768 0.80599999 -1.717 12
16.969 0.93800002 -1.7130001 10
20.07 1.122 -1.72 14
23.929001 1.355 -1.688 20
24.002001 1.376 -1.331 72
12.564 0.71200001 -1.737 12
14.035 0.80500001 -1.723 12
15.958 0.926 -1.714 13
18.625999 1.0930001 -1.717 12
22.433001 1.332 -1.726 17
24.098 1.449 -1.4910001 48
11.978 0.71200001 -1.7359999 12
13.349 0.80199999 -1.729 13
15.047 0.91299999 -1.716 12
17.329 1.064 -1.711 11
20.587999 1.278 -1.719 15
23.975 1.505 -1.637 34
11.479 0.71200001 -1.742 12
12.711 0.796 -1.73 12
14.271 0.903 -1.722 12
16.226999 1.0369999 -1.7079999 11
19.045 1.2309999 -1.714 13
23.077999 1.5089999 -1.727 20
11 0.70999998 -1.745 11
12.126 0.79000002 -1.734 13
13.539 0.89099997 -1.725 13
15.285 1.016 -1.711 12
17.733 1.1900001 -1.7130001 11
21.118 1.433 -1.7180001 16
10.569 0.70700002 -1.748 12
11.595 0.78299999 -1.7359999 12
12.881 0.87800002 -1.727 12
14.476 0.99599999 -1.717 13
16.545 1.15 -1.7079999 12
19.481001 1.368 -1.714 13
10.146 0.70200002 -1.75 11
11.097 0.77499998 -1.738 12
12.288 0.866 -1.732 13
13.719 0.97500002 -1.721 12
15.528 1.115 -1.7079999 10
18.040001 1.308 -1.707 12
9.776 0.69800001 -1.755 12
10.649 0.76700002 -1.743 12
11.726 0.852 -1.734 13
13.042 0.95599997 -1.725 13
14.671 1.085 -1.7130001 12
16.812 1.256 -1.704 10
9.4110003 0.69199997 -1.756 11
10.232 0.759 -1.7460001 12
11.229 0.83899999 -1.739 12
12.416 0.93599999 -1.728 13
13.887 1.057 -1.716 13
15.814 1.214 -1.71 12
9.059 0.68400002 -1.755 11
9.8360004 0.74900001 -1.748 12
10.763 0.82599998 -1.742 12
11.859 0.91799998 -1.733 12
13.193 1.03 -1.721 14
14.874 1.1720001 -1.709 13
8.7399998 0.67699999 -1.757 11
9.4619999 0.73799998 -1.749 11
10.335 0.81300002 -1.745 12
11.344 0.89899999 -1.7359999 12
12.562 1.005 -1.726 13
14.063 1.1339999 -1.7130001 13
8.4530001 0.67000002 -1.761 11
9.1140003 0.72799999 -1.75 11
9.9280005 0.79900002 -1.747 12
10.856 0.88 -1.737 12
11.993 0.98000002 -1.73 12
13.381 1.103 -1.721 13
8.1739998 0.66100001 -1.762 11
8.7930002 0.71700001 -1.752 11
9.5649996 0.78600001 -1.752 12
10.428 0.86299998 -1.742 12
11.469 0.95700002 -1.735 13
12.725 1.0700001 -1.724 13
7.9000001 0.65200001 -1.761 11
8.507 0.70700002 -1.756 11
9.2110004 0.77100003 -1.752 12
10.02 0.84500003 -1.745 11
10.975 0.93199998 -1.7359999 12
12.121 1.038 -1.726 13
7.677 0.64499998 -1.768 11
8.2130003 0.69499999 -1.756 11
8.882 0.75700003 -1.7539999 11
9.6429996 0.82700002 -1.749 12
10.508 0.90799999 -1.737 12
11.581 1.0089999 -1.7309999 12
7.4390001 0.63499999 -1.7690001 10
7.9710002 0.685 -1.763 12
8.573 0.74199998 -1.755 12
9.2869997 0.80900002 -1.75 11
10.108 0.88700002 -1.742 12
11.082 0.98100001 -1.734 12
7.197 0.62400001 -1.766 11
7.6820002 0.67000002 -1.756 12
8.2840004 0.72799999 -1.756 11
8.9499998 0.792 -1.751 11
9.743 0.86799997 -1.749 13
10.615 0.95300001 -1.7359999 12
6.9990001 0.61500001 -1.77 10
7.4499998 0.65899998 -1.7589999 13
8.0360003 0.71499997 -1.763 12
8.6379995 0.77399999 -1.753 11
9.3529997 0.84399998 -1.7460001 12
10.205 0.92799997 -1.742 11
6.7989998 0.60500002 -1.772 10
7.2379999 0.648 -1.7640001 12
7.7490001 0.69800001 -1.758 12
8.3450003 0.75700003 -1.755 11
9.0369997 0.82499999 -1.753 12
9.816 0.903 -1.745 12
6.6240001 0.59600002 -1.777 11
7.0229998 0.63599998 -1.7640001 11
7.5139999 0.68400002 -1.761 12
8.073 0.74000001 -1.757 11
8.7119999 0.80400002 -1.753 11
9.4499998 0.87800002 -1.748 12
6.4450002 0.58499998 -1.779 11
6.8260002 0.62400001 -1.766 11
7.2880001 0.67000002 -1.762 12
7.8119998 0.72299999 -1.758 11
8.4209995 0.78399998 -1.756 11
9.1079998 0.85399997 -1.751 11
6.2870002 0.57599998 -1.784 10
6.6399999 0.61199999 -1.7690001 10
7.0749998 0.65600002 -1.7640001 12
7.572 0.70599997 -1.76 12
8.1560001 0.76599997 -1.76 12
8.7889996 0.83099997 -1.753 11
6.099 0.56300002 -1.779 10
6.4619999 0.60000002 -1.772 10
6.895 0.64399999 -1.771 11
7.3429999 0.69 -1.761 12
7.8899999 0.74599999 -1.76 13
8.4910002 0.80800003 -1.7539999 12
5.9590001 0.55299997 -1.784 11
6.3080001 0.58899999 -1.778 11
6.6950002 0.62900001 -1.77 11
7.1409998 0.67500001 -1.766 12
7.6360002 0.72600001 -1.76 12
8.2180004 0.787 -1.758 11
5.8179998 0.54299998 -1.788 10
6.1440001 0.57700002 -1.779 11
6.5409999 0.61799997 -1.78 11
6.9429998 0.65899998 -1.77 10
7.402 0.70700002 -1.761 13
7.9299998 0.76300001 -1.7539999 11
5.6659999 0.53100002 -1.786 10
5.9970002 0.565 -1.783 11
6.3579998 0.602 -1.778 10
6.7470002 0.64300001 -1.77 11
7.198 0.69 -1.765 12
7.6849999 0.741 -1.755 12
5.5370002 0.51999998 -1.79 10
5.8530002 0.55299997 -1.785 11
6.204 0.58899999 -1.7819999 10
6.5679998 0.62800002 -1.772 11
7.0050001 0.67400002 -1.7690001 12
7.4510002 0.72100002 -1.756 11
5.4070001 0.509 -1.79 11
5.7140002 0.54100001 -1.788 11
6.0510001 0.57599998 -1.784 11
6.4099998 0.61299998 -1.778 10
6.796 0.65399998 -1.767 10
7.257 0.70300001 -1.763 12
5.2849998 0.498 -1.7920001 10
5.573 0.528 -1.7869999 11
5.902 0.56199998 -1.786 11
6.2389998 0.597 -1.777 10
6.6230001 0.63800001 -1.771 11
7.0370002 0.68199998 -1.762 11
5.1669998 0.486 -1.794 10
5.434 0.514 -1.786 12
5.7600002 0.54799998 -1.788 11
6.085 0.58200002 -1.779 11
6.4679999 0.62199998 -1.778 10
6.8569999 0.66399997 -1.766 11
5.0539999 0.47499999 -1.795 10
5.3239999 0.50300002 -1.791 11
5.6230001 0.53399998 -1.788 11
5.954 0.56900001 -1.786 10
6.3070002 0.60600001 -1.781 11
6.6739998 0.64499998 -1.768 11
4.9400001 0.463 -1.795 10
5.1999998 0.49000001 -1.79 11
5.4850001 0.51999998 -1.7869999 12
5.8099999 0.55299997 -1.7869999 12
6.1339998 0.588 -1.778 11
6.5110002 0.62699997 -1.773 10
4.8429999 0.45199999 -1.799 10
5.0939999 0.47799999 -1.795 11
5.375 0.50700003 -1.793 11
5.6700001 0.53799999 -1.7869999 11
6 0.57200003 -1.783 11
6.3520002 0.61000001 -1.776 10
4.7480001 0.44100001 -1.802 10
4.9809999 0.465 -1.794 11
5.2579999 0.49399999 -1.795 11
5.5229998 0.52100003 -1.783 11
5.855 0.55599999 -1.784 11
6.1869998 0.59100002 -1.776 11
4.652 0.43000001 -1.804 9
4.8759999 0.45300001 -1.795 11
5.1399999 0.47999999 -1.795 12
5.4169998 0.50800002 -1.791 12
5.6999998 0.53799999 -1.78 11
6.0289998 0.57200003 -1.774 11
4.5679998 0.419 -1.808 10
4.7750001 0.44 -1.796 11
5.0320001 0.46599999 -1.796 11
5.296 0.493 -1.791 11
5.5760002 0.52200001 -1.783 12
5.8860002 0.55500001 -1.776 12
4.474 0.40700001 -1.808 10
4.6849999 0.428 -1.8 10
4.927 0.45300001 -1.798 11
5.1830001 0.479 -1.793 11
5.4520001 0.50700003 -1.785 11
5.7410002 0.537 -1.775 11
4.3889999 0.39500001 -1.8099999 10
4.599 0.417 -1.8049999 10
4.8249998 0.43900001 -1.799 11
5.0700002 0.46399999 -1.793 11
5.3470001 0.49200001 -1.791 11
5.6110001 0.51899999 -1.777 11
4.3070002 0.384 -1.812 9
4.5120001 0.40400001 -1.807 11
4.723 0.42500001 -1.798 10
4.973 0.44999999 -1.7970001 12
5.223 0.47600001 -1.789 11
5.506 0.50400001 -1.784 11
4.2210002 0.37200001 -1.811 9
4.4229999 0.39199999 -1.807 10
4.6469998 0.414 -1.8049999 11
4.869 0.43599999 -1.796 10
5.118 0.461 -1.79 11
5.3860002 0.48800001 -1.784 11
4.1440001 0.36000001 -1.812 9
4.349 0.38 -1.811 10
4.5580001 0.40099999 -1.806 10
4.7719998 0.42199999 -1.7970001 11
5.0229998 0.44600001 -1.795 11
5.2810001 0.472 -1.788 11
4.0700002 0.34900001 -1.813 10
4.2680001 0.368 -1.812 10
4.4689999 0.38699999 -1.806 10
4.6820002 0.40799999 -1.799 10
4.9099998 0.43000001 -1.791 11
5.1690001 0.45500001 -1.7869999 11
4.0029998 0.33700001 -1.816 9
4.1960001 0.35600001 -1.8150001 10
4.3889999 0.37400001 -1.808 10
4.599 0.39399999 -1.802 11
4.8189998 0.41600001 -1.794 11
5.073 0.44 -1.7920001 11
3.9389999 0.32600001 -1.8200001 9
4.1139998 0.34299999 -1.812 10
4.3150001 0.36199999 -1.811 11
4.5180001 0.38100001 -1.8049999 10
4.73 0.40099999 -1.796 11
4.9710002 0.42399999 -1.7920001 11
3.8800001 0.31600001 -1.825 8
4.0409999 0.331 -1.813 10
4.2399998 0.34900001 -1.813 10
4.4419999 0.368 -1.808 10
4.6500001 0.38699999 -1.8 10
4.8800001 0.40900001 -1.794 11
3.8139999 0.30399999 -1.825 9
3.9809999 0.31900001 -1.817 9
4.1669998 0.336 -1.814 10
4.3629999 0.354 -1.808 10
4.5689998 0.373 -1.802 10
4.7909999 0.39399999 -1.795 11
3.753 0.29300001 -1.827 8
3.9070001 0.30599999 -1.8150001 9
4.092 0.32300001 -1.813 10
4.2919998 0.34099999 -1.811 9
4.4910002 0.359 -1.804 10
4.704 0.37799999 -1.796 10
3.691 0.28099999 -1.826 8
3.8599999 0.296 -1.823 9
4.0219998 0.31 -1.812 10
4.2179999 0.32699999 -1.812 10
4.4190001 0.345 -1.807 10
4.6230001 0.36300001 -1.798 10
3.6389999 0.27000001 -1.831 8
3.7980001 0.28400001 -1.825 9
3.961 0.29800001 -1.816 9
4.1490002 0.31400001 -1.813 10
4.3429999 0.331 -1.808 10
4.5440001 0.34799999 -1.8 9
3.575 0.25799999 -1.8279999 8
3.7379999 0.27200001 -1.826 9
3.8970001 0.285 -1.817 9
4.0770001 0.30000001 -1.812 10
4.2680001 0.31600001 -1.808 9
4.4759998 0.33399999 -1.8049999 10
3.5250001 0.24699999 -1.832 8
3.6789999 0.259 -1.826 9
3.8410001 0.273 -1.8200001 9
4.0120001 0.287 -1.814 9
4.2020001 0.303 -1.811 10
4.395 0.31900001 -1.804 10
3.4679999 0.235 -1.831 7
3.6240001 0.248 -1.8279999 9
3.786 0.26100001 -1.823 9
3.9419999 0.273 -1.812 9
4.132 0.28799999 -1.8099999 9
4.3319998 0.30500001 -1.808 10
3.4170001 0.22400001 -1.832 8
3.5799999 0.236 -1.834 9
3.7320001 0.248 -1.826 8
3.8889999 0.26100001 -1.816 9
4.0630002 0.27399999 -1.8099999 10
4.2600002 0.28999999 -1.808 9
3.3640001 0.212 -1.831 8
3.5179999 0.22400001 -1.83 9
3.678 0.236 -1.8279999 8
3.8399999 0.248 -1.821 9
4.006 0.26100001 -1.812 9
4.197 0.27599999 -1.8099999 9
3.3199999 0.20100001 -1.834 7
3.461 0.212 -1.827 8
3.618 0.223 -1.825 8
3.78 0.235 -1.821 8
3.938 0.24699999 -1.8099999 9
4.1269999 0.26100001 -1.808 9
3.2709999 0.19 -1.8329999 7
3.418 0.2 -1.831 8
3.582 0.212 -1.8329999 8
3.73 0.222 -1.823 8
3.8929999 0.234 -1.816 9
4.0630002 0.24600001 -1.808 9
3.227 0.17900001 -1.835 7
3.375 0.189 -1.834 8
3.5250001 0.199 -1.831 8
3.678 0.20999999 -1.824 8
3.8369999 0.221 -1.817 9
4.0050001 0.23199999 -1.809 9
3.191 0.168 -1.84 7
3.325 0.177 -1.8329999 8
3.4760001 0.18700001 -1.831 9
3.625 0.197 -1.824 8
3.7809999 0.207 -1.816 9
3.9519999 0.219 -1.812 9
3.1440001 0.15700001 -1.8380001 7
3.2839999 0.16500001 -1.835 8
3.428 0.175 -1.831 8
3.5829999 0.185 -1.8279999 9
3.7360001 0.19400001 -1.8200001 9
3.908 0.205 -1.817 9
3.105 0.146 -1.839 6
3.244 0.154 -1.837 7
3.3889999 0.163 -1.834 8
3.5339999 0.17200001 -1.8279999 8
3.6919999 0.182 -1.823 8
3.8499999 0.191 -1.8150001 8
3.069 0.13500001 -1.842 6
3.197 0.142 -1.834 8
3.3440001 0.15099999 -1.834 8
3.4949999 0.16 -1.832 8
3.648 0.169 -1.826 8
3.816 0.178 -1.824 8
3.0250001 0.124 -1.839 6
3.1630001 0.131 -1.8380001 7
3.302 0.139 -1.835 7
3.45 0.147 -1.831 8
3.598 0.156 -1.825 8
3.7590001 0.16500001 -1.821 8
2.994 0.113 -1.8430001 6
3.1259999 0.12 -1.84 7
3.2620001 0.127 -1.835 8
3.408 0.13500001 -1.832 8
3.556 0.14300001 -1.826 8
3.714 0.15099999 -1.822 8
0 0 0 0
3.0929999 0.109 -1.842 6
3.223 0.115 -1.835 8
3.369 0.123 -1.8329999 7
3.5239999 0.13 -1.8329999 8
3.675 0.138 -1.825 8
1.573 0.048999999 -0.99199998 2
3.056 0.097000003 -1.842 7
3.187 0.104 -1.836 7
3.3280001 0.11 -1.8329999 8
3.474 0.117 -1.829 8
3.6240001 0.124 -1.822 8
1.525 0.041999999 -0.97299999 2
3.02 0.086000003 -1.842 6
3.151 0.092 -1.8380001 7
3.29 0.097999997 -1.834 7
3.4349999 0.104 -1.83 7
3.589 0.111 -1.826 8
1.485 0.035999998 -0.95899999 3
0 0 0 0
3.115 0.079999998 -1.837 7
3.2550001 0.086000003 -1.835 7
3.398 0.092 -1.83 7
3.549 0.097999997 -1.827 8
1.45 0.029999999 -0.94700003 3
0 0 0 0
3.086 0.068999998 -1.84 6
3.2190001 0.074000001 -1.835 7
3.362 0.079000004 -1.832 8
3.516 0.085000001 -1.83 8
1.4170001 0.024 -0.935 4
1.576 0.028000001 -0.99400002 2
3.0539999 0.057 -1.841 6
3.1849999 0.061999999 -1.835 7
3.3280001 0.067000002 -1.832 7
3.4809999 0.071999997 -1.832 8
0 0 0 0
1.538 0.022 -0.98000002 2
3.023 0.046 -1.842 7
3.1530001 0.050000001 -1.836 7
3.296 0.054000001 -1.834 8
3.4430001 0.059 -1.831 7
0 0 0 0
1.502 0.016000001 -0.96700001 3
2.993 0.034000002 -1.842 7
3.1229999 0.037999999 -1.837 6
3.263 0.041999999 -1.834 7
3.408 0.046 -1.831 7
0 0 0 0
1.47 0.0099999998 -0.95599997 4
0 0 0 0
3.095 0.026000001 -1.8380001 6
3.233 0.029999999 -1.835 7
3.3770001 0.033 -1.832 8
0 0 0 0
1.441 0.0040000002 -0.94599998 5
1.623 0.0060000001 -1.018 1
3.069 0.015 -1.84 6
3.198 0.017000001 -1.8329999 7
3.349 0.021 -1.834 20
0 0 0 0
1.418 0 -0.94 5
1.557 0 -0.986 2
3.046 0.003 -1.8430001 6
3.1900001 0.0049999999 -1.845 38
3.332 0.0080000004 -1.841 56
0 0 0 0
1.3940001 -0.0060000001 -0.93199998 5
1.5319999 -0.0049999999 -0.97899997 2
3.0209999 -0.0080000004 -1.844 37
3.1600001 -0.0060000001 -1.8430001 66
3.309 -0.0040000002 -1.845 84
0 0 0 0
0 0 0 0
1.497 -0.011 -0.96499997 2
2.997 -0.018999999 -1.845 49
3.1440001 -0.017999999 -1.85 91
3.273 -0.016000001 -1.84 65
0 0 0 0
0 0 0 0
1.474 -0.016000001 -0.95700002 2
2.9289999 -0.029999999 -1.818 112
3.109 -0.029999999 -1.844 75
3.257 -0.028999999 -1.846 57
0 0 0 0
0 0 0 0
1.452 -0.022 -0.94999999 3
0 0 0 0
3.0899999 -0.041999999 -1.847 53
3.237 -0.041999999 -1.849 65
0 0 0 0
0 0 0 0
1.433 -0.027000001 -0.94499999 4
1.5880001 -0.028999999 -1.001 1
3.0699999 -0.054000001 -1.849 64
3.2060001 -0.054000001 -1.845 57
0 0 0 0
0 0 0 0
1.416 -0.033 -0.94099998 4
1.553 -0.035 -0.98500001 1
3.0469999 -0.066 -1.848 74
3.187 -0.066 -1.847 48
0 0 0 0
0 0 0 0
0 0 0 0
1.524 -0.039999999 -0.97399998 2
3.0280001 -0.078000002 -1.848 57
3.165 -0.079000004 -1.846 49
1.122 -0.037999999 -0.829 1
0 0 0 0
0 0 0 0
1.506 -0.046 -0.96899998 2
3.0079999 -0.090000004 -1.848 57
3.1459999 -0.090999998 -1.847 40
0 0 0 0
0 0 0 0
0 0 0 0
1.492 -0.052000001 -0.96499997 2
0 0 0 0
3.131 -0.104 -1.849 60
0 0 0 0
0 0 0 0
0 0 0 0
1.475 -0.057 -0.95999998 2
2.9330001 -0.111 -1.823 101
3.1210001 -0.116 -1.853 72
0 0 0 0
0 0 0 0
0 0 0 0
1.455 -0.063000001 -0.95200002 2
0 0 0 0
3.0969999 -0.12800001 -1.849 57
0 0 0 0
0 0 0 0
0 0 0 0
1.441 -0.068000004 -0.94800001 3
0 0 0 0
3.0829999 -0.14 -1.849 38
0 0 0 0
0 0 0 0
0 0 0 0
1.431 -0.074000001 -0.94499999 3
1.663 -0.083999999 -1.049 2
3.073 -0.152 -1.852 40
0 0 0 0
0 0 0 0
0 0 0 0
1.423 -0.079000004 -0.94400001 2
1.566 -0.086000003 -0.99199998 1
3.0639999 -0.16500001 -1.854 42
0 0 0 0
0 0 0 0
0 0 0 0
0 0 0 0
1.55 -0.090999998 -0.986 1
3.0469999 -0.177 -1.85 52
0 0 0 0
0 0 0 0
0 0 0 0
0 0 0 0
1.539 -0.097000003 -0.98199999 2
3.0369999 -0.189 -1.851 50
0 0 0 0
0 0 0 0
0 0 0 0
1.402 -0.096000001 -0.94099998 2
1.529 -0.103 -0.97899997 2
3.029 -0.20100001 -1.851 38
0 0 0 0
0 0 0 0
0 0 0 0
0 0 0 0
1.5190001 -0.109 -0.97500002 2
3.0190001 -0.213 -1.85 33
0 0 0 0
0 0 0 0
0 0 0 0
0 0 0 0
1.513 -0.114 -0.97299999 2
3.0179999 -0.22499999 -1.854 42
0 0 0 0
0 0 0 0
0 0 0 0
0 0 0 0
1.508 -0.12 -0.972 2
3.0120001 -0.237 -1.854 35
0 0 0 0
0 0 0 0
0 0 0 0
0 0 0 0
1.5 -0.126 -0.96899998 2
3.01 -0.25 -1.855 37
0 0 0 0
0 0 0 0
0 0 0 0
0 0 0 0
1.498 -0.132 -0.96899998 2
3.01 -0.26199999 -1.858 40
0 0 0 0
0 0 0 0
0 0 0 0
0 0 0 0
1.508 -0.139 -0.97600001 2
3.0090001 -0.27399999 -1.859 42
0 0 0 0
0 0 0 0
0 0 0 0
0 0 0 0
1.5 -0.14399999 -0.972 2
3.0009999 -0.28600001 -1.855 40
0 0 0 0
0 0 0 0
0 0 0 0
0 0 0 0
1.4960001 -0.15000001 -0.96899998 2
3.0079999 -0.29899999 -1.859 52
0 0 0 0
0 0 0 0
0 0 0 0
0 0 0 0
1.506 -0.15700001 -0.97500002 2
3.0050001 -0.31099999 -1.857 40
0 0 0 0
0 0 0 0
0 0 0 0
0 0 0 0
1.507 -0.163 -0.97500002 2
3.0109999 -0.32300001 -1.859 47
0 0 0 0
0 0 0 0
0 0 0 0
0 0 0 0
1.517 -0.171 -0.98100001 2
3.016 -0.336 -1.86 48
0 0 0 0
0 0 0 0
0 0 0 0
0 0 0 0
1.5190001 -0.177 -0.98100001 2
3.02 -0.34799999 -1.86 53
0 0 0 0
0 0 0 0
0 0 0 0
0 0 0 0
1.529 -0.184 -0.986 2
3.0250001 -0.36000001 -1.86 53
0 0 0 0
0 0 0 0
0 0 0 0
0 0 0 0
1.533 -0.19 -0.986 2
3.0280001 -0.37200001 -1.857 38
0 0 0 0
0 0 0 0
0 0 0 0
0 0 0 0
1.557 -0.199 -0.99900001 1
3.0420001 -0.38499999 -1.8609999 65
0 0 0 0
0 0 0 0
0 0 0 0
0 0 0 0
1.571 -0.207 -1.005 1
3.056 -0.39899999 -1.864 52
0 0 0 0
0 0 0 0
0 0 0 0
0 0 0 0
1.744 -0.236 -1.112 2
3.0420001 -0.40799999 -1.849 7
0 0 0 0
0 0 0 0
0 0 0 0
0 0 0 0
0 0 0 0
3.0510001 -0.41999999 -1.848 6
0 0 0 0
0 0 0 0
0 0 0 0
1.4450001 -0.208 -0.95999998 2
0 0 0 0
3.0669999 -0.433 -1.849 6
0 0 0 0
0 0 0 0
0 0 0 0
1.464 -0.21600001 -0.96799999 2
2.9119999 -0.42500001 -1.835 6
3.0829999 -0.44600001 -1.851 7
0 0 0 0
0 0 0 0
0 0 0 0
1.4809999 -0.223 -0.97500002 2
1.63 -0.243 -1.022 0
3.092 -0.458 -1.848 7
0 0 0 0
0 0 0 0
0 0 0 0
1.494 -0.23 -0.97899997 2
2.974 -0.454 -1.8559999 6
3.1129999 -0.47099999 -1.85 6
0 0 0 0
0 0 0 0
0 0 0 0
1.522 -0.23999999 -0.99199998 2
2.987 -0.46599999 -1.853 6
3.1259999 -0.48300001 -1.848 6
0 0 0 0
0 0 0 0
0 0 0 0
1.548 -0.249 -1.003 1
3.0050001 -0.47799999 -1.854 6
3.1440001 -0.49599999 -1.847 6
0 0 0 0
0 0 0 0
0 0 0 0
1.568 -0.257 -1.0089999 1
3.0220001 -0.491 -1.852 6
3.168 -0.50999999 -1.849 7
0 0 0 0
0 0 0 0
0 0 0 0
1.63 -0.27200001 -1.043 1
3.039 -0.50199997 -1.85 6
3.188 -0.523 -1.848 7
0 0 0 0
0 0 0 0
1.446 -0.248 -0.96499997 3
1.848 -0.31400001 -1.174 6
3.0650001 -0.51599997 -1.854 6
3.21 -0.53600001 -1.848 6
0 0 0 0
0 0 0 0
1.469 -0.25600001 -0.97399998 2
2.9119999 -0.50300002 -1.837 7
3.086 -0.528 -1.853 6
3.234 -0.54900002 -1.848 7
0 0 0 0
0 0 0 0
1.5039999 -0.26699999 -0.98900002 2
2.9690001 -0.52100003 -1.858 6
3.108 -0.54100001 -1.852 6
3.2679999 -0.56400001 -1.853 7
0 0 0 0
0 0 0 0
1.53 -0.27500001 -0.99800003 2
2.9960001 -0.53399998 -1.86 6
3.138 -0.55500001 -1.854 7
3.2950001 -0.57800001 -1.853 7
0 0 0 0
0 0 0 0
1.574 -0.287 -1.018 2
3.013 -0.54500002 -1.855 6
3.155 -0.56599998 -1.848 7
3.322 -0.59100002 -1.852 7
0 0 0 0
0 0 0 0
1.624 -0.301 -1.0420001 3
3.0420001 -0.55800003 -1.857 6
3.1889999 -0.57999998 -1.852 7
3.3499999 -0.60500002 -1.85 7
0 0 0 0
0 0 0 0
1.826 -0.34299999 -1.161 6
3.0710001 -0.57099998 -1.857 6
3.223 -0.59399998 -1.854 7
3.3840001 -0.61900002 -1.851 7
0 0 0 0
1.482 -0.28400001 -0.98199999 3
2.9519999 -0.56099999 -1.86 6
3.0969999 -0.583 -1.8559999 6
3.2520001 -0.60699999 -1.853 7
3.4189999 -0.634 -1.853 7
0 0 0 0
1.528 -0.29699999 -1.002 3
2.9860001 -0.574 -1.863 5
3.132 -0.597 -1.858 6
3.2850001 -0.62099999 -1.853 7
3.4519999 -0.648 -1.851 8
0 0 0 0
1.5549999 -0.30500001 -1.01 5
3.013 -0.58600003 -1.8609999 5
3.1589999 -0.60900003 -1.855 7
3.3199999 -0.63499999 -1.854 7
3.49 -0.66299999 -1.852 7
0 0 0 0
1.602 -0.31799999 -1.03 4
3.046 -0.59799999 -1.862 6
3.1989999 -0.62300003 -1.859 7
3.352 -0.648 -1.852 7
3.527 -0.67699999 -1.851 7
0 0 0 0
0 0 0 0
3.0739999 -0.61000001 -1.859 6
3.2249999 -0.634 -1.854 7
3.395 -0.66299999 -1.855 7
3.563 -0.69099998 -1.85 8
1.488 -0.30399999 -0.98500001 3
2.9619999 -0.59899998 -1.864 5
3.1029999 -0.62199998 -1.857 7
3.2679999 -0.64899999 -1.858 7
3.438 -0.67799997 -1.858 8
3.6110001 -0.70700002 -1.854 8
1.517 -0.31200001 -0.99400002 5
2.9960001 -0.611 -1.865 7
3.1400001 -0.634 -1.858 7
3.3010001 -0.66100001 -1.8559999 7
3.4719999 -0.69099998 -1.854 8
3.6470001 -0.72100002 -1.85 7
1.549 -0.322 -1.003 4
3.0220001 -0.62099999 -1.859 6
3.1830001 -0.64899999 -1.8609999 7
3.3399999 -0.67500001 -1.8559999 7
3.51 -0.704 -1.852 7
3.6960001 -0.73699999 -1.852 7
1.682 -0.352 -1.076 9
3.0639999 -0.634 -1.863 6
3.2149999 -0.66000003 -1.858 7
3.3829999 -0.68900001 -1.857 7
3.5569999 -0.71899998 -1.854 8
3.7390001 -0.75199997 -1.85 8
1.587 -0.33399999 -1.003 0
3.1010001 -0.64700001 -1.862 7
3.26 -0.67400002 -1.86 7
3.428 -0.70300001 -1.858 7
3.602 -0.73400003 -1.854 8
3.78 -0.76599997 -1.846 7
2.9809999 -0.63200003 -1.862 6
3.1340001 -0.65799999 -1.859 7
3.299 -0.68699998 -1.859 7
3.467 -0.71600002 -1.855 7
3.6459999 -0.74800003 -1.852 8
3.832 -0.78100002 -1.846 8
3.0209999 -0.64399999 -1.863 6
3.1819999 -0.67199999 -1.863 7
3.3429999 -0.69999999 -1.859 8
3.513 -0.73000002 -1.855 8
3.6949999 -0.76300001 -1.851 7
3.8800001 -0.79699999 -1.844 8
3.066 -0.65700001 -1.865 6
3.22 -0.68300003 -1.8609999 7
3.3940001 -0.71499997 -1.863 7
3.562 -0.745 -1.8559999 7
3.74 -0.77700001 -1.848 8
3.9300001 -0.81199998 -1.841 8
3.102 -0.66799998 -1.863 7
3.2679999 -0.69700003 -1.864 7
3.4319999 -0.72600001 -1.858 7
3.609 -0.75800002 -1.855 8
3.793 -0.792 -1.848 8
3.993 -0.829 -1.844 8
3.1389999 -0.67900002 -1.86 6
3.3080001 -0.70899999 -1.8609999 7
3.484 -0.741 -1.86 8
3.6619999 -0.773 -1.855 8
3.8440001 -0.80699998 -1.846 8
4.0479999 -0.84500003 -1.842 8
3.1849999 -0.69099998 -1.86 7
3.355 -0.722 -1.8609999 8
3.526 -0.75300002 -1.8559999 7
3.711 -0.787 -1.852 8
3.898 -0.82200003 -1.845 8
4.1139998 -0.86299998 -1.844 8
3.2320001 -0.704 -1.8609999 7
3.4059999 -0.73500001 -1.862 8
3.5829999 -0.76800001 -1.859 8
3.7590001 -0.80000001 -1.849 8
3.9630001 -0.83899999 -1.847 8
4.1890001 -0.88200003 -1.848 15
3.2780001 -0.71600002 -1.8609999 7
3.4579999 -0.74900001 -1.863 8
3.631 -0.77999997 -1.855 8
3.816 -0.815 -1.848 8
4.0250001 -0.85500002 -1.847 9
4.2470002 -0.89700001 -1.844 47
3.3310001 -0.72899997 -1.863 7
3.507 -0.76099998 -1.8609999 8
3.6860001 -0.79400003 -1.855 8
3.8800001 -0.83099997 -1.851 8
4.0879998 -0.87099999 -1.846 8
4.3210001 -0.91600001 -1.846 45
3.3770001 -0.741 -1.8609999 8
3.5569999 -0.77399999 -1.859 8
3.747 -0.80900002 -1.857 8
3.9319999 -0.84399998 -1.846 8
4.1599998 -0.88800001 -1.848 33
4.395 -0.93400002 -1.846 63
3.4349999 -0.75400001 -1.864 7
3.609 -0.78600001 -1.857 8
3.7969999 -0.82200003 -1.852 8
3.997 -0.86000001 -1.846 9
4.2199998 -0.903 -1.844 57
4.4590001 -0.949 -1.841 54
3.483 -0.76599997 -1.86 8
3.6719999 -0.801 -1.86 9
3.8570001 -0.83600003 -1.851 9
4.0739999 -0.87800002 -1.851 9
4.296 -0.92000002 -1.845 72
4.5359998 -0.96700001 -1.84 43
3.5409999 -0.77899998 -1.8609999 8
3.727 -0.81400001 -1.857 8
3.9219999 -0.85100001 -1.851 8
4.1370001 -0.89200002 -1.847 49
4.3699999 -0.93699998 -1.844 70
4.6170001 -0.986 -1.839 37
3.596 -0.79100001 -1.86 8
3.78 -0.82599998 -1.852 8
3.9849999 -0.86500001 -1.849 9
4.2049999 -0.90700001 -1.845 73
4.4359999 -0.95200002 -1.839 62
4.6900001 -1.002 -1.834 39
3.6600001 -0.80500001 -1.8609999 8
3.8469999 -0.83999997 -1.854 8
4.066 -0.88200003 -1.854 11
4.283 -0.92400002 -1.847 85
4.52 -0.97000003 -1.84 53
4.7859998 -1.023 -1.837 36
3.7179999 -0.81699997 -1.859 8
3.9089999 -0.85299999 -1.851 8
4.1269999 -0.89499998 -1.849 59
4.3530002 -0.93900001 -1.8430001 76
4.5949998 -0.986 -1.836 53
4.8709998 -1.041 -1.834 54
3.777 -0.829 -1.857 7
3.9760001 -0.86699998 -1.851 9
4.1950002 -0.90899998 -1.847 89
4.427 -0.954 -1.84 65
4.6849999 -1.005 -1.837 52
4.9679999 -1.061 -1.834 40
3.8369999 -0.84100002 -1.854 8
4.0469999 -0.88099998 -1.85 11
4.2719998 -0.92500001 -1.847 84
4.507 -0.97000003 -1.839 64
4.7709999 -1.022 -1.834 50
5.072 -1.082 -1.835 50
3.8970001 -0.85299999 -1.85 7
4.119 -0.89499998 -1.85 54
4.3499999 -0.93900001 -1.845 82
4.5949998 -0.98699999 -1.839 65
4.869 -1.041 -1.835 70
5.1700001 -1.101 -1.832 35
3.9760001 -0.86799997 -1.853 8
4.1799998 -0.90600002 -1.8430001 87
4.428 -0.954 -1.8430001 73
4.6820002 -1.0039999 -1.8380001 62
4.9619999 -1.059 -1.834 60
5.2810001 -1.123 -1.8329999 34
4.052 -0.88200003 -1.855 10
4.2589998 -0.921 -1.8430001 79
4.5079999 -0.96899998 -1.841 73
4.7740002 -1.021 -1.837 58
5.0700002 -1.079 -1.835 83
5.3990002 -1.145 -1.834 56
4.1149998 -0.89200002 -1.849 36
4.3460002 -0.93699998 -1.845 74
4.592 -0.98400003 -1.839 65
4.8639998 -1.0369999 -1.834 70
5.177 -1.099 -1.835 64
5.48 -1.159 -1.821 23
4.1820002 -0.90399998 -1.844 54
4.427 -0.94999999 -1.8430001 68
4.6849999 -1 -1.839 75
4.9710002 -1.056 -1.836 71
5.2919998 -1.119 -1.836 57
5.6220002 -1.1849999 -1.827 9
4.2600002 -0.917 -1.8430001 39
4.5110002 -0.96499997 -1.842 69
4.7750001 -1.015 -1.836 62
5.073 -1.074 -1.835 93
5.3990002 -1.137 -1.832 57
5.75 -1.207 -1.826 10
4.3499999 -0.93199998 -1.845 35
4.599 -0.97899997 -1.84 61
4.868 -1.031 -1.8329999 73
5.1810002 -1.092 -1.8329999 75
5.4980001 -1.153 -1.824 34
5.8790002 -1.228 -1.823 10
4.4320002 -0.94400001 -1.842 40
4.6950002 -0.99400002 -1.839 66
4.9710002 -1.0470001 -1.8329999 79
5.3000002 -1.1109999 -1.834 58
5.6459999 -1.178 -1.83 11
6.0320001 -1.2539999 -1.826 9
4.5229998 -0.958 -1.842 39
4.7859998 -1.008 -1.837 71
5.0780001 -1.064 -1.832 79
5.4159999 -1.1289999 -1.8329999 75
5.7820001 -1.2 -1.831 10
6.1820002 -1.279 -1.826 11
4.6110001 -0.97100002 -1.84 29
4.882 -1.022 -1.834 79
5.1929998 -1.081 -1.8329999 73
5.5209999 -1.1440001 -1.827 82
5.914 -1.221 -1.8279999 10
6.3449998 -1.3049999 -1.8279999 10
4.7119999 -0.986 -1.841 20
4.9850001 -1.0369999 -1.8329999 76
5.3099999 -1.098 -1.8329999 75
5.6420002 -1.1619999 -1.823 17
6.059 -1.243 -1.8279999 10
6.506 -1.33 -1.827 10
4.803 -0.99699998 -1.837 30
5.098 -1.053 -1.8329999 70
5.4289999 -1.115 -1.831 87
5.8039999 -1.187 -1.831 11
6.2080002 -1.2640001 -1.827 11
6.6609998 -1.352 -1.822 10
4.9070001 -1.012 -1.837 21
5.211 -1.068 -1.832 71
5.553 -1.132 -1.83 106
5.947 -1.207 -1.831 10
6.3839998 -1.29 -1.831 10
6.8460002 -1.3789999 -1.822 11
5.0029998 -1.023 -1.832 24
5.335 -1.085 -1.8329999 66
5.651 -1.143 -1.818 51
6.0890002 -1.226 -1.829 10
6.5339999 -1.3099999 -1.826 10
7.0349998 -1.406 -1.821 12
5.1199999 -1.038 -1.8329999 21
5.4499998 -1.099 -1.83 74
5.8379998 -1.171 -1.8329999 10
6.25 -1.248 -1.83 10
6.7210002 -1.337 -1.8279999 11
7.2140002 -1.4299999 -1.816 12
5.2389998 -1.052 -1.8329999 22
5.5679998 -1.112 -1.826 86
5.9759998 -1.188 -1.831 11
6.414 -1.2690001 -1.83 10
6.8920002 -1.358 -1.824 11
7.414 -1.456 -1.812 12
5.3600001 -1.066 -1.8329999 22
5.6999998 -1.128 -1.824 88
6.1209998 -1.205 -1.8279999 12
6.5679998 -1.2869999 -1.825 11
7.086 -1.383 -1.823 12
7.6329999 -1.485 -1.811 11
5.4840002 -1.08 -1.832 23
5.8239999 -1.14 -1.819 23
6.276 -1.223 -1.827 10
6.75 -1.309 -1.825 11
7.2709999 -1.405 -1.817 12
7.8860002 -1.518 -1.814 12
5.6069999 -1.092 -1.8279999 25
6.0100002 -1.164 -1.83 12
6.4520001 -1.244 -1.83 12
6.9369998 -1.331 -1.824 11
7.493 -1.432 -1.819 10
8.1459999 -1.551 -1.816 11
5.7519999 -1.108 -1.831 25
6.1479998 -1.177 -1.826 10
6.612 -1.26 -1.826 12
7.118 -1.351 -1.8200001 13
7.704 -1.456 -1.8150001 10
8.3990002 -1.582 -1.814 11
5.8779998 -1.119 -1.825 25
6.3099999 -1.194 -1.826 10
6.7989998 -1.28 -1.827 12
7.3299999 -1.374 -1.821 10
7.9580002 -1.4859999 -1.819 11
8.6759996 -1.614 -1.813 12
6.0029998 -1.128 -1.818 16
6.4780002 -1.211 -1.826 11
6.9699998 -1.296 -1.822 12
7.5250001 -1.393 -1.816 11
8.1969995 -1.511 -1.8150001 11
8.9700003 -1.648 -1.812 12
6.2049999 -1.151 -1.832 11
6.6399999 -1.225 -1.822 11
7.1760001 -1.317 -1.823 11
7.7620001 -1.418 -1.817 11
8.4650002 -1.54 -1.814 12
9.2790003 -1.682 -1.8099999 12
6.3569999 -1.163 -1.8279999 10
6.8179998 -1.24 -1.8200001 11
7.3709998 -1.334 -1.818 12
7.9970002 -1.4400001 -1.814 11
8.7480001 -1.569 -1.813 11
9.6440001 -1.724 -1.814 11
6.5380001 -1.178 -1.83 11
7.0040002 -1.255 -1.818 12
7.5890002 -1.353 -1.817 10
8.2519999 -1.465 -1.814 11
9.0380001 -1.598 -1.811 11
10 -1.761 -1.813 11
6.6989999 -1.189 -1.825 11
7.191 -1.2690001 -1.814 11
7.8140001 -1.372 -1.816 11
8.5249996 -1.49 -1.814 12
9.3669996 -1.631 -1.813 12
10.384 -1.801 -1.812 12
6.8730001 -1.201 -1.822 11
7.3969998 -1.285 -1.812 11
8.0620003 -1.393 -1.816 11
8.7989998 -1.5140001 -1.811 11
9.7019997 -1.6619999 -1.811 12
10.785 -1.84 -1.809 13
7.098 -1.219 -1.829 9
7.6360002 -1.304 -1.8150001 11
8.3120003 -1.4119999 -1.813 11
9.1059999 -1.54 -1.811 11
10.072 -1.696 -1.811 12
11.224 -1.882 -1.807 12
7.263 -1.226 -1.819 11
7.8720002 -1.321 -1.816 11
8.5830002 -1.433 -1.812 12
9.427 -1.566 -1.8099999 11
10.465 -1.7309999 -1.811 12
11.682 -1.924 -1.804 11
7.4569998 -1.2359999 -1.814 11
8.1029997 -1.335 -1.812 11
8.8649998 -1.4529999 -1.811 12
9.7790003 -1.594 -1.811 12
10.873 -1.765 -1.8099999 13
12.194 -1.971 -1.803 12
7.6760001 -1.247 -1.813 12
8.3500004 -1.349 -1.809 11
9.1709995 -1.474 -1.811 12
10.151 -1.623 -1.812 12
11.31 -1.801 -1.808 13
12.752 -2.0220001 -1.803 12
7.9239998 -1.262 -1.8150001 11
8.6269999 -1.3660001 -1.8099999 12
9.4890003 -1.494 -1.809 13
10.526 -1.649 -1.808 12
11.774 -1.836 -1.804 12
13.339 -2.0710001 -1.799 12
8.1630001 -1.273 -1.813 11
8.9110003 -1.382 -1.809 13
9.8369999 -1.517 -1.8099999 12
10.929 -1.676 -1.807 12
12.279 -1.874 -1.802 12
13.977 -2.1240001 -1.796 11
8.4280005 -1.286 -1.8150001 12
9.2080002 -1.396 -1.807 12
10.206 -1.539 -1.8099999 13
11.345 -1.701 -1.802 12
12.831 -1.915 -1.802 11
14.659 -2.178 -1.7920001 11
8.6870003 -1.295 -1.812 12
9.5229998 -1.411 -1.806 13
10.587 -1.559 -1.809 12
11.836 -1.734 -1.803 12
13.426 -1.957 -1.8 12
15.418 -2.2360001 -1.788 11
8.9700003 -1.3049999 -1.8099999 12
9.8769999 -1.428 -1.807 13
11.007 -1.582 -1.809 13
12.347 -1.765 -1.803 13
14.07 -2 -1.798 11
16.287001 -2.3039999 -1.788 10
9.2659998 -1.314 -1.809 13
10.236 -1.442 -1.806 12
11.411 -1.598 -1.803 14
12.877 -1.793 -1.799 11
14.727 -2.04 -1.791 11
17.274 -2.381 -1.791 11
9.585 -1.324 -1.809 13
10.623 -1.4579999 -1.807 13
11.874 -1.619 -1.801 12
13.479 -1.827 -1.799 12
15.487 -2.0880001 -1.788 10
18.326 -2.457 -1.788 12
9.927 -1.3329999 -1.808 12
11.019 -1.47 -1.804 13
12.389 -1.642 -1.802 12
14.091 -1.8559999 -1.795 11
16.354 -2.142 -1.79 10
19.537001 -2.5450001 -1.791 14
10.29 -1.342 -1.809 12
11.431 -1.48 -1.799 13
12.912 -1.66 -1.7970001 12
14.776 -1.888 -1.791 10
17.315001 -2.2 -1.79 11
21.011 -2.654 -1.801 16
10.676 -1.349 -1.809 13
11.91 -1.495 -1.801 13
13.491 -1.681 -1.796 11
15.513 -1.921 -1.7869999 9
18.346001 -2.2579999 -1.788 12
22.497 -2.753 -1.798 17
11.059 -1.353 -1.8049999 13
12.383 -1.5039999 -1.7970001 12
14.102 -1.7 -1.793 12
16.336 -1.956 -1.786 10
19.511 -2.322 -1.788 14
24.309999 -2.8759999 -1.802 12
11.487 -1.358 -1.8049999 12
12.912 -1.515 -1.796 12
14.765 -1.72 -1.79 11
17.295 -2.0009999 -1.79 11
20.951 -2.4070001 -1.799 16
25.988001 -2.9649999 -1.777 19
11.94 -1.3609999 -1.803 12
13.477 -1.524 -1.794 12
15.476 -1.737 -1.785 10
18.343 -2.0439999 -1.7920001 12
22.502001 -2.49 -1.8049999 17
26.006001 -2.858 -1.633 54
12.402 -1.3609999 -1.799 12
14.061 -1.53 -1.789 12
16.287001 -1.758 -1.784 10
19.472 -2.085 -1.791 14
24.281 -2.5810001 -1.809 16
25.836 -2.7279999 -1.479 66
12.904 -1.359 -1.796 12
14.711 -1.536 -1.786 11
17.202999 -1.781 -1.786 11
20.785 -2.135 -1.795 16
25.742001 -2.6240001 -1.776 19
25.701 -2.5999999 -1.329 72
13.459 -1.358 -1.796 12
15.403 -1.54 -1.783 11
18.208 -1.804 -1.788 12
22.288 -2.1900001 -1.801 17
25.893999 -2.5239999 -1.645 55
25.593 -2.4749999 -1.1849999 78
14.051 -1.354 -1.794 12
16.15 -1.541 -1.777 9
19.305 -1.825 -1.789 14
23.941 -2.243 -1.803 16
25.615999 -2.3800001 -1.489 62
25.718 -2.3699999 -1.0549999 74
14.648 -1.344 -1.788 11
17.042999 -1.548 -1.7819999 10
20.537001 -1.847 -1.791 16
25.461 -2.2690001 -1.7819999 19
25.493999 -2.2509999 -1.347 72
28.190001 -2.467 -1.008 34
15.308 -1.332 -1.783 11
17.972 -1.548 -1.781 12
21.931999 -1.87 -1.795 17
25.669001 -2.1670001 -1.66 52
25.434999 -2.1259999 -1.21 71
29.719 -2.461 -0.90899998 19
16.048 -1.321 -1.783 9
19.01 -1.548 -1.783 13
23.523001 -1.895 -1.802 17
25.452 -2.0280001 -1.5140001 69
25.424999 -2.0050001 -1.079 69
35.5 -2.7709999 -0.90700001 8
16.896 -1.309 -1.786 10
20.187 -1.546 -1.7869999 15
25.112 -1.901 -1.793 22
25.341999 -1.896 -1.378 73
26.049999 -1.928 -0.97500002 4
40.889 -2.993 -0.83899999 8
17.771999 -1.291 -1.7869999 12
21.412001 -1.536 -1.786 16
25.410999 -1.801 -1.686 51
25.212 -1.765 -1.2460001 72
29.087999 -2.0109999 -0.94499999 30
47.695 -3.26 -0.74800003 30
18.754 -1.271 -1.79 13
22.910999 -1.531 -1.795 18
25.292 -1.668 -1.553 66
25.159 -1.637 -1.119 79
41.859001 -2.6849999 -1.155 10
75.058998 -4.7519999 -0.81099999 7
19.868 -1.245 -1.795 14
24.482 -1.511 -1.795 22
25.075001 -1.526 -1.415 71
25.514 -1.529 -1.0089999 24
42.483002 -2.51 -0.96700001 12
79.434998 -4.6220002 -0.47600001 73
21.063999 -1.211 -1.7970001 16
25.183001 -1.425 -1.722 26
25.121 -1.399 -1.295 70
28.496 -1.562 -0.991 29
42.931999 -2.3150001 -0.77399999 4
76.690002 -4.0669999 -0.1 59
22.399 -1.173 -1.802 18
25.221001 -1.295 -1.603 69
25.023001 -1.262 -1.17 85
38.179001 -1.892 -1.147 1
70.976997 -3.454 -0.94800001 3
76.657997 -3.6659999 0.249 11
23.948999 -1.128 -1.812 20
24.915001 -1.149 -1.466 85
25.176001 -1.138 -1.0599999 72
29.351999 -1.301 -0.74699998 64
29.660999 -1.288 -0.26199999 5
81.438004 -3.4660001 0.63 14
24.898001 -1.039 -1.767 19
24.864 -1.0140001 -1.348 73
0 0 0 0
29.079 -1.1339999 -0.61000001 67
29.458 -1.122 -0.12899999 28
0 0 0 0
24.971001 -0.90799999 -1.658 51
24.794001 -0.87900001 -1.233 68
28.836 -0.995 -0.95499998 70
28.924999 -0.97100002 -0.47799999 58
29.375999 -0.95899999 0 42
163.493 -5.1890001 2.698 27
24.841 -0.76800001 -1.5369999 67
24.763 -0.74199998 -1.122 67
28.806999 -0.83600003 -0.82800001 60
28.757999 -0.80800003 -0.352 57
29.311001 -0.79699999 0.124 30
130.94701 -3.4389999 2.714 45
24.737 -0.62900001 -1.423 63
24.996 -0.61199999 -1.024 32
28.608 -0.67199999 -0.699 61
28.725 -0.64700001 -0.228 69
29.405001 -0.634 0.249 17
134.935 -2.7909999 3.358 18
24.641001 -0.48800001 -1.311 66
27.782 -0.52399999 -1.02 40
28.509001 -0.51099998 -0.57800001 65
28.691999 -0.48699999 -0.111 64
29.709 -0.47600001 0.37200001 0
139.233 -2.1040001 4.0250001 19
24.555 -0.34900001 -1.204 70
28.410999 -0.37599999 -0.926 60
28.368999 -0.34900001 -0.46000001 84
28.638 -0.32300001 0.0049999999 70
133.76199 -1.381 2.2149999 23
134.769 -1.267 4.4330001 38
24.604 -0.208 -1.105 63
28.308001 -0.213 -0.80900002 82
28.360001 -0.186 -0.34599999 71
28.715 -0.161 0.117 67
133.806 -0.62099999 2.7349999 68
134.765 -0.493 4.954 34
24.802 -0.066 -1.015 22
28.315001 -0.046999998 -0.69499999 60
28.346001 -0.02 -0.234 68
28.843 0.0070000002 0.23100001 64
0 0 0 0
135.04401 0.29800001 5.4809999 13
27.608999 0.086999997 -1.022 59
28.177 0.118 -0.583 75
28.349001 0.147 -0.125 76
29.062 0.17900001 0.34299999 30
132.494 0.94700003 3.7179999 30
139.211 1.135 6.1690001 14
28.077 0.25600001 -0.93199998 69
28.176001 0.28600001 -0.477 69
28.410999 0.317 -0.018999999 77
29.43 0.35699999 0.456 4
133.091 1.749 4.2220001 46
134.45799 1.904 6.447 24
28.131001 0.42500001 -0.829 72
28.149 0.454 -0.37400001 81
28.594 0.48899999 0.082000002 70
132.673 2.401 2.5280001 35
134.642 2.5739999 4.7459998 18
99.642998 2.0109999 5.1290002 24
28.392 0.60000002 -0.73500001 48
28.209999 0.625 -0.27399999 82
28.743 0.66600001 0.184 79
133.10201 3.217 3.0009999 35
81.177002 2.0450001 3.142 12
80.139999 2.099 4.395 6
28.105 0.76499999 -0.62900001 71
28.306999 0.79799998 -0.17900001 87
29.040001 0.847 0.28299999 52
80.973 2.4460001 2.096 36
80.608002 2.516 3.385 6
85.114998 2.75 4.9499998 45
28.195999 0.93900001 -0.537 69
28.452 0.977 -0.085000001 81
29.308001 1.0369999 0.384 7
90.628998 3.302 2.6459999 25
79.954002 2.994 3.6199999 11
77.396004 2.98 4.7519999 11
28.347 1.122 -0.44600001 60
28.733 1.168 0.0080000004 76
49.044998 2.0439999 0.80199999 12
90.625999 3.8710001 2.937 150
115.198 5.0430002 5.585 45
77.600998 3.4809999 5.0110002 39
28.481001 1.309 -0.35600001 65
29.089001 1.365 0.1 64
49.021999 2.3510001 0.954 6
95.769997 4.6939998 3.4000001 9
114.841 5.7519999 5.9200001 28
79.507004 4.0689998 5.3759999 35
28.684 1.5 -0.27000001 76
29.412001 1.567 0.191 0
49.247002 2.675 1.107 1
114.365 6.3330002 4.402 9
115.546 6.5229998 6.2989998 13
77.709 4.4720001 5.4840002 30
29.136999 1.71 -0.18799999 73
37.678001 2.25 0.35600001 51
135.79401 8.2460003 3.45 24
113.768 7.0289998 4.7080002 39
114.972 7.224 6.5960002 18
78.876999 5.0440001 5.789 24
37.137001 2.4159999 -0.134 46
37.172001 2.4560001 0.456 59
38.435001 2.5799999 1.0829999 50
113.879 7.763 5.026 24
80.279999 5.5609999 4.8260002 49
78.920998 5.552 6.006 13
36.655998 2.6229999 -0.030999999 58
36.875 2.677 0.55299997 60
37.964001 2.796 1.173 55
117.727 8.7930002 5.513 34
0 0 0 0
81.398003 6.2620001 6.4120002 20
36.366001 2.839 0.064999998 61
36.678001 2.902 0.64600003 57
37.393002 2.9960001 1.252 51
118.367 9.6129999 5.8470001 28
0 0 0 0
86.335999 7.2069998 7.0209999 36
36.181 3.0639999 0.15700001 64
36.405998 3.122 0.73400003 63
37.174999 3.2260001 1.339 50
0 0 0 0
94.889999 8.4420004 6.4349999 31
86.648003 7.809 7.2589998 15
35.990002 3.2869999 0.244 63
36.265999 3.3499999 0.81900001 68
24.714001 2.3080001 0.949 0
0 0 0 0
95.008003 9.0819998 6.6680002 36
0 0 0 0
27.938 2.7379999 0.25400001 31
24.721001 2.447 0.61500001 74
24.653999 2.467 1.003 85
0 0 0 0
0 0 0 0
0 0 0 0
24.624001 2.5780001 0.278 0
24.558001 2.596 0.66500002 73
24.517 2.619 1.051 65
0 0 0 0
0 0 0 0
0 0 0 0
24.437 2.7260001 0.329 0
24.415001 2.7479999 0.713 90
24.382 2.77 1.096 31
0 0 0 0
0 0 0 0
0 0 0 0
27.48 3.253 0.42500001 58
24.291 2.901 0.75800002 20
36.632999 4.414 1.721 49
0 0 0 0
0 0 0 0
0 0 0 0
27.483 3.4449999 0.47799999 44
35.750999 4.5180001 1.184 63
36.615002 4.6680002 1.789 49
0 0 0 0
0 0 0 0
0 0 0 0
27.431 3.6289999 0.52700001 48
35.701 4.7589998 1.2460001 62
36.681 4.9299998 1.858 49
0 0 0 0
0 0 0 0
0 0 0 0
27.4 3.8150001 0.57300001 46
35.664001 5.0019999 1.304 65
36.717999 5.1880002 1.92 50
0 0 0 0
0 0 0 0
0 0 0 0
27.363001 4.0009999 0.61500001 53
35.650002 5.2480001 1.359 66
