# .PCD v0.7 - Point Cloud Data file format
VERSION 0.7
FIELDS x y z intensity
SIZE 4 4 4 4
TYPE F F F F
COUNT 1 1 1 1
WIDTH 1813
HEIGHT 1
VIEWPOINT 0 0 0 1 0 0 0
POINTS 1813
DATA ascii
0 0 0 0
0 0 0 0
0 0 0 0
1.497 -0.134 -0.97299999 2
2.9890001 -0.26499999 -1.853 40
0 0 0 0
0 0 0 0
0 0 0 0
0 0 0 0
1.494 -0.14 -0.97100002 2
2.9890001 -0.27700001 -1.852 41
0 0 0 0
0 0 0 0
0 0 0 0
0 0 0 0
1.499 -0.146 -0.972 2
2.9990001 -0.28999999 -1.8559999 40
0 0 0 0
0 0 0 0
0 0 0 0
0 0 0 0
1.499 -0.152 -0.97100002 2
3.0079999 -0.30199999 -1.858 47
0 0 0 0
0 0 0 0
0 0 0 0
0 0 0 0
1.51 -0.15899999 -0.97600001 2
3.0179999 -0.315 -1.8609999 58
0 0 0 0
0 0 0 0
0 0 0 0
0 0 0 0
1.52 -0.16599999 -0.98100001 2
3.02 -0.32699999 -1.858 41
0 0 0 0
0 0 0 0
0 0 0 0
0 0 0 0
1.531 -0.17299999 -0.98500001 2
3.026 -0.33899999 -1.8559999 47
0 0 0 0
0 0 0 0
0 0 0 0
0 0 0 0
1.5470001 -0.18000001 -0.99299997 1
3.0420001 -0.352 -1.8609999 45
0 0 0 0
0 0 0 0
0 0 0 0
0 0 0 0
1.562 -0.18799999 -0.99900001 1
3.0510001 -0.36399999 -1.859 44
0 0 0 0
0 0 0 0
0 0 0 0
0 0 0 0
1.6950001 -0.20999999 -1.08 2
3.062 -0.377 -1.859 48
0 0 0 0
0 0 0 0
0 0 0 0
1.437 -0.185 -0.95700002 2
0 0 0 0
3.076 -0.389 -1.86 37
0 0 0 0
0 0 0 0
0 0 0 0
1.448 -0.192 -0.95999998 2
2.0610001 -0.27000001 -1.301 44
3.089 -0.40200001 -1.859 50
0 0 0 0
0 0 0 0
0 0 0 0
1.471 -0.2 -0.97000003 2
2.937 -0.39500001 -1.846 59
3.1029999 -0.414 -1.858 67
0 0 0 0
0 0 0 0
0 0 0 0
1.48 -0.206 -0.97100002 2
2.971 -0.41 -1.857 41
3.118 -0.42699999 -1.857 55
0 0 0 0
0 0 0 0
0 0 0 0
1.499 -0.214 -0.97899997 2
2.994 -0.42300001 -1.8609999 49
3.138 -0.44 -1.858 68
0 0 0 0
0 0 0 0
0 0 0 0
1.52 -0.221 -0.986 2
3.0120001 -0.435 -1.8609999 53
3.1559999 -0.45300001 -1.858 58
0 0 0 0
0 0 0 0
0 0 0 0
1.552 -0.23100001 -1.001 1
3.026 -0.447 -1.858 62
3.178 -0.46599999 -1.858 61
0 0 0 0
0 0 0 0
0 0 0 0
1.609 -0.245 -1.031 1
3.05 -0.46000001 -1.86 51
3.2060001 -0.47999999 -1.862 77
0 0 0 0
0 0 0 0
1.433 -0.22400001 -0.958 3
0 0 0 0
3.0699999 -0.472 -1.859 58
3.22 -0.49200001 -1.8559999 61
0 0 0 0
0 0 0 0
1.4630001 -0.233 -0.97100002 2
2.8889999 -0.456 -1.824 72
3.0969999 -0.48500001 -1.8609999 79
3.2460001 -0.505 -1.857 71
0 0 0 0
0 0 0 0
1.492 -0.242 -0.98199999 2
2.9619999 -0.477 -1.8559999 38
3.118 -0.498 -1.859 86
3.263 -0.51700002 -1.852 72
0 0 0 0
0 0 0 0
1.5190001 -0.25099999 -0.99199998 2
2.994 -0.49000001 -1.8609999 55
3.1370001 -0.509 -1.8559999 80
3.2709999 -0.52700001 -1.841 8
0 0 0 0
0 0 0 0
1.551 -0.25999999 -1.005 1
3.023 -0.50300002 -1.863 56
3.168 -0.523 -1.858 77
3.3139999 -0.54299998 -1.85 7
0 0 0 0
0 0 0 0
1.6440001 -0.28 -1.0549999 2
3.0480001 -0.51499999 -1.862 64
3.1700001 -0.53200001 -1.8430001 9
3.3440001 -0.55699998 -1.85 7
0 0 0 0
0 0 0 0
1.801 -0.31099999 -1.146 150
3.0739999 -0.52700001 -1.8609999 89
3.2160001 -0.54699999 -1.852 7
3.3759999 -0.57099998 -1.849 7
0 0 0 0
1.47 -0.25999999 -0.97500002 3
1.54 -0.27000001 -0.97100002 0
3.0910001 -0.537 -1.854 29
3.2479999 -0.56099999 -1.853 7
3.4059999 -0.58399999 -1.848 7
0 0 0 0
1.5089999 -0.27000001 -0.991 2
2.9879999 -0.53100002 -1.8660001 64
3.1199999 -0.55000001 -1.853 6
3.2780001 -0.574 -1.851 6
3.441 -0.59799999 -1.848 8
0 0 0 0
1.5549999 -0.28200001 -1.011 2
3.0039999 -0.54100001 -1.857 43
3.1559999 -0.56400001 -1.855 6
3.3139999 -0.588 -1.853 7
3.474 -0.61199999 -1.846 7
0 0 0 0
1.641 -0.301 -1.056 5
3.0420001 -0.55400002 -1.8609999 6
3.1930001 -0.57700002 -1.857 7
3.346 -0.60000002 -1.85 8
3.5109999 -0.62599999 -1.845 8
0 0 0 0
1.762 -0.32699999 -1.122 150
3.0699999 -0.565 -1.858 6
3.223 -0.58899999 -1.855 7
3.3870001 -0.61500001 -1.852 7
3.556 -0.64200002 -1.848 7
1.48 -0.28 -0.98000002 2
2.9560001 -0.55500001 -1.8609999 7
3.1010001 -0.57700002 -1.8559999 6
3.2609999 -0.602 -1.855 7
3.425 -0.62900001 -1.852 7
3.5940001 -0.65600002 -1.846 7
1.526 -0.292 -0.99900001 2
2.9920001 -0.56699997 -1.863 6
3.138 -0.58999997 -1.857 6
3.2980001 -0.61500001 -1.855 7
3.4660001 -0.64300001 -1.852 7
3.635 -0.67000002 -1.845 7
1.562 -0.30199999 -1.011 3
3.027 -0.579 -1.863 6
3.1789999 -0.60299999 -1.859 7
3.3410001 -0.62900001 -1.8559999 7
3.503 -0.65600002 -1.849 7
3.6819999 -0.68599999 -1.846 7
1.664 -0.324 -1.064 10
3.062 -0.59100002 -1.8609999 6
3.2119999 -0.61500001 -1.8559999 7
3.3859999 -0.64399999 -1.858 7
3.549 -0.67000002 -1.85 7
3.727 -0.70099998 -1.845 7
1.541 -0.30199999 -0.97299999 0
3.099 -0.60299999 -1.8609999 6
3.2590001 -0.62900001 -1.859 7
3.424 -0.65600002 -1.8559999 7
3.5869999 -0.68400002 -1.847 7
3.7750001 -0.71600002 -1.844 8
2.99 -0.59100002 -1.8660001 6
3.1400001 -0.616 -1.862 7
3.2969999 -0.64099997 -1.857 7
3.4649999 -0.67000002 -1.854 7
3.6359999 -0.69800001 -1.847 8
3.8150001 -0.72899997 -1.839 8
3.0280001 -0.60299999 -1.865 6
3.177 -0.62699997 -1.86 6
3.339 -0.65399998 -1.8559999 7
3.5109999 -0.68300003 -1.853 7
3.688 -0.71399999 -1.848 7
3.872 -0.74599999 -1.84 8
3.059 -0.61299998 -1.86 6
3.224 -0.64099997 -1.862 7
3.3870001 -0.66799998 -1.858 7
3.5580001 -0.69700003 -1.853 7
3.733 -0.72799999 -1.845 7
3.9189999 -0.75999999 -1.836 8
3.0999999 -0.625 -1.86 6
3.2639999 -0.65200001 -1.86 7
3.437 -0.68199998 -1.86 7
3.6010001 -0.70999998 -1.85 7
3.7839999 -0.74199998 -1.844 8
3.9760001 -0.77600002 -1.836 8
3.1459999 -0.63700002 -1.862 7
3.309 -0.66500002 -1.86 7
3.4820001 -0.69499999 -1.858 7
3.655 -0.72500002 -1.851 8
3.8310001 -0.75599998 -1.839 8
4.0430002 -0.79400003 -1.839 8
3.1849999 -0.648 -1.859 6
3.3559999 -0.67799997 -1.86 8
3.5239999 -0.70700002 -1.854 7
3.7060001 -0.73900002 -1.849 8
3.8870001 -0.77100003 -1.839 8
4.098 -0.80900002 -1.836 8
3.2309999 -0.66000003 -1.859 6
3.402 -0.69 -1.858 7
3.575 -0.72000003 -1.853 8
3.753 -0.75199997 -1.845 8
3.95 -0.787 -1.84 8
4.1760001 -0.82800001 -1.842 9
3.2839999 -0.67400002 -1.862 7
3.45 -0.70300001 -1.857 7
3.632 -0.73500001 -1.854 8
3.8110001 -0.76599997 -1.845 8
4.013 -0.80299997 -1.84 9
4.237 -0.84399998 -1.839 9
3.323 -0.68400002 -1.8559999 7
3.5 -0.71499997 -1.855 7
3.6800001 -0.74699998 -1.85 8
3.8710001 -0.78100002 -1.845 7
4.0819998 -0.81999999 -1.8430001 8
4.3010001 -0.86000001 -1.836 9
3.381 -0.69800001 -1.8609999 7
3.5550001 -0.72799999 -1.8559999 8
3.744 -0.76200002 -1.853 8
3.9260001 -0.79500002 -1.842 8
4.1459999 -0.83600003 -1.841 9
4.369 -0.87699997 -1.834 9
3.427 -0.70899999 -1.857 7
3.6070001 -0.741 -1.854 8
3.7920001 -0.77399999 -1.847 8
3.9849999 -0.80900002 -1.839 9
4.2179999 -0.85299999 -1.842 9
4.4499998 -0.89600003 -1.836 9
3.4820001 -0.722 -1.857 7
3.665 -0.75400001 -1.854 8
3.8559999 -0.78899997 -1.848 8
4.0650001 -0.82700002 -1.845 8
4.2820001 -0.86699998 -1.8380001 9
4.5229998 -0.91299999 -1.834 9
3.5480001 -0.736 -1.862 8
3.7260001 -0.76800001 -1.854 8
3.9159999 -0.80199999 -1.846 9
4.1329999 -0.84200001 -1.844 8
4.3610001 -0.88499999 -1.839 9
4.6040001 -0.93099999 -1.8329999 9
3.5969999 -0.74699998 -1.857 8
3.78 -0.77999997 -1.85 8
3.977 -0.81599998 -1.844 9
4.2080002 -0.85900003 -1.845 9
4.4330001 -0.90100002 -1.837 9
4.6830001 -0.94800001 -1.83 9
3.655 -0.759 -1.8559999 7
3.8380001 -0.792 -1.847 8
4.0479999 -0.83099997 -1.844 9
4.2779999 -0.87400001 -1.8430001 9
4.5079999 -0.917 -1.834 9
4.7729998 -0.96700001 -1.831 9
3.7119999 -0.77100003 -1.854 7
3.908 -0.80699998 -1.849 9
4.119 -0.84600002 -1.844 9
4.3509998 -0.889 -1.841 9
4.5960002 -0.935 -1.835 9
4.882 -0.99000001 -1.837 16
3.776 -0.78399998 -1.853 8
3.9660001 -0.81800002 -1.8430001 9
4.197 -0.861 -1.845 9
4.427 -0.90399998 -1.8380001 9
4.6849999 -0.95300001 -1.835 9
4.9660001 -1.006 -1.831 26
3.8399999 -0.79699999 -1.852 8
4.039 -0.833 -1.844 9
4.2719998 -0.87599999 -1.844 8
4.5120001 -0.921 -1.839 8
4.7750001 -0.97100002 -1.834 10
5.0619998 -1.025 -1.83 33
3.902 -0.80800003 -1.848 9
4.1170001 -0.84799999 -1.845 9
4.3499999 -0.89099997 -1.8430001 10
4.5960002 -0.93699998 -1.837 9
4.8769999 -0.99000001 -1.836 18
5.1589999 -1.044 -1.826 47
3.967 -0.81999999 -1.845 9
4.1919999 -0.861 -1.844 9
4.4289999 -0.90499997 -1.841 9
4.6830001 -0.95300001 -1.835 9
4.9549999 -1.0039999 -1.8279999 36
5.2529998 -1.061 -1.821 39
4.0419998 -0.83399999 -1.846 8
4.2740002 -0.87599999 -1.846 8
4.5139999 -0.921 -1.84 9
4.7789998 -0.97000003 -1.836 10
5.0640001 -1.024 -1.83 51
5.3699999 -1.0829999 -1.822 32
4.119 -0.847 -1.846 9
4.349 -0.889 -1.842 10
4.6040001 -0.93699998 -1.84 9
4.8870001 -0.99000001 -1.84 18
5.1620002 -1.0420001 -1.827 80
5.4790001 -1.102 -1.818 39
4.2020001 -0.861 -1.848 9
4.4380002 -0.90499997 -1.844 9
4.691 -0.95200002 -1.8380001 9
4.9629998 -1.002 -1.83 44
5.2649999 -1.059 -1.823 65
5.5830002 -1.12 -1.812 37
4.2779999 -0.87400001 -1.846 9
4.5209999 -0.91799998 -1.842 9
4.7820001 -0.96600002 -1.835 10
5.0679998 -1.02 -1.829 62
5.3730001 -1.077 -1.8200001 61
5.7069998 -1.14 -1.8099999 31
4.355 -0.88599998 -1.8430001 9
4.6040001 -0.93099999 -1.8380001 9
4.8940001 -0.98500001 -1.84 17
5.1680002 -1.036 -1.826 78
5.4879999 -1.096 -1.818 56
5.8559999 -1.166 -1.814 26
4.4380002 -0.898 -1.841 10
4.6890001 -0.94400001 -1.8329999 10
4.9720001 -0.99599999 -1.83 65
5.27 -1.051 -1.821 70
5.5999999 -1.113 -1.813 54
5.9790001 -1.1849999 -1.808 33
4.5300002 -0.912 -1.841 9
4.7870002 -0.95899999 -1.8329999 10
5.079 -1.012 -1.829 70
5.3860002 -1.069 -1.8200001 63
5.7340002 -1.1339999 -1.813 44
6.1220002 -1.207 -1.806 31
4.618 -0.92500001 -1.8380001 9
4.9099998 -0.97799999 -1.841 13
5.184 -1.028 -1.826 87
5.4949999 -1.085 -1.814 49
5.8660002 -1.154 -1.8099999 38
6.276 -1.23 -1.8049999 36
4.7090001 -0.93699998 -1.836 10
4.9949999 -0.98900002 -1.832 40
5.2880001 -1.0420001 -1.821 73
5.6240001 -1.103 -1.814 59
6.007 -1.174 -1.809 62
6.434 -1.2539999 -1.803 33
4.8109999 -0.95099998 -1.836 9
5.099 -1.002 -1.83 69
5.4089999 -1.058 -1.8200001 80
5.7529998 -1.1210001 -1.811 49
6.1469998 -1.194 -1.8049999 66
6.5619998 -1.27 -1.791 23
4.9159999 -0.96499997 -1.836 9
5.1999998 -1.015 -1.824 78
5.5300002 -1.074 -1.818 57
5.895 -1.141 -1.811 56
6.3010001 -1.215 -1.803 51
6.7740002 -1.302 -1.799 10
5.039 -0.98100001 -1.84 18
5.3080001 -1.028 -1.8200001 81
5.6469998 -1.089 -1.813 79
6.0380001 -1.159 -1.809 59
6.4689999 -1.238 -1.803 47
6.9710002 -1.33 -1.801 10
5.1209998 -0.98900002 -1.8279999 22
5.4320002 -1.043 -1.819 72
5.7729998 -1.104 -1.808 77
6.1799998 -1.177 -1.8049999 71
6.6149998 -1.255 -1.795 36
7.1430001 -1.351 -1.794 10
5.237 -1.002 -1.8279999 42
5.5510001 -1.057 -1.816 58
5.9260001 -1.123 -1.811 81
6.335 -1.196 -1.803 59
6.8060002 -1.28 -1.7970001 12
7.3730001 -1.383 -1.798 11
5.348 -1.0140001 -1.824 23
5.6760001 -1.071 -1.812 63
6.0619998 -1.138 -1.806 82
6.4990001 -1.215 -1.801 59
7.0019999 -1.3049999 -1.7970001 11
7.599 -1.4119999 -1.798 10
5.4699998 -1.027 -1.822 24
5.809 -1.085 -1.809 54
6.2129998 -1.155 -1.804 73
6.6750002 -1.2359999 -1.8 79
7.21 -1.33 -1.799 10
7.8109999 -1.437 -1.793 10
5.5830002 -1.0369999 -1.816 23
5.9549999 -1.1 -1.809 66
6.375 -1.173 -1.803 55
6.8179998 -1.249 -1.789 36
7.4359999 -1.357 -1.801 10
8.0559998 -1.466 -1.7920001 11
5.704 -1.048 -1.8099999 24
6.099 -1.114 -1.806 69
6.5370002 -1.189 -1.8 69
7.0689998 -1.28 -1.802 12
7.6570001 -1.382 -1.799 10
8.2849998 -1.4910001 -1.784 12
5.8530002 -1.062 -1.811 23
6.2490001 -1.128 -1.803 61
6.7129998 -1.207 -1.799 79
7.2620001 -1.3 -1.799 11
7.8779998 -1.405 -1.795 11
8.5299997 -1.517 -1.777 11
5.994 -1.075 -1.809 25
6.415 -1.1440001 -1.802 48
6.9000001 -1.225 -1.7970001 76
7.4850001 -1.323 -1.799 10
8.1079998 -1.428 -1.789 11
8.8190002 -1.549 -1.775 11
6.1440001 -1.087 -1.807 27
6.5770001 -1.158 -1.799 71
7.0419998 -1.234 -1.783 35
7.6989999 -1.3430001 -1.795 10
8.3339996 -1.449 -1.78 11
9.1219997 -1.58 -1.772 12
6.2979999 -1.099 -1.804 27
6.757 -1.173 -1.7970001 84
7.3140001 -1.2640001 -1.798 12
7.9310002 -1.365 -1.7920001 10
8.5979996 -1.474 -1.776 10
9.4610004 -1.6160001 -1.772 12
6.4650002 -1.112 -1.803 27
6.9380002 -1.187 -1.794 76
7.5430002 -1.284 -1.8 10
8.1569996 -1.383 -1.786 11
8.8839998 -1.501 -1.773 11
9.7989998 -1.649 -1.7690001 12
6.6409998 -1.124 -1.802 30
7.1279998 -1.201 -1.79 63
7.7600002 -1.301 -1.795 11
8.3900003 -1.401 -1.777 11
9.2030001 -1.531 -1.773 12
10.189 -1.689 -1.77 12
6.8189998 -1.136 -1.8 31
7.3070002 -1.211 -1.7819999 60
7.974 -1.3150001 -1.788 10
8.6639996 -1.423 -1.774 12
9.5360003 -1.5599999 -1.771 12
10.589 -1.726 -1.768 12
7 -1.147 -1.796 30
7.507 -1.224 -1.778 20
8.21 -1.332 -1.784 11
8.9499998 -1.446 -1.772 12
9.8929996 -1.591 -1.771 12
11.023 -1.766 -1.767 12
7.191 -1.158 -1.793 31
7.7979999 -1.249 -1.791 10
8.4449997 -1.346 -1.776 11
9.2770004 -1.472 -1.772 12
10.273 -1.623 -1.7690001 12
11.503 -1.811 -1.767 12
7.3959999 -1.169 -1.791 33
8.0249996 -1.262 -1.786 11
8.7229996 -1.365 -1.773 12
9.6070004 -1.4960001 -1.77 12
10.655 -1.652 -1.7640001 12
11.984 -1.851 -1.762 12
7.605 -1.179 -1.788 34
8.2510004 -1.272 -1.779 12
9.0139999 -1.383 -1.771 11
9.9639997 -1.521 -1.7690001 13
11.112 -1.689 -1.765 13
12.517 -1.895 -1.758 11
7.8000002 -1.1849999 -1.778 28
8.4969997 -1.283 -1.773 12
9.3339996 -1.402 -1.77 13
10.346 -1.5470001 -1.768 12
11.585 -1.725 -1.7640001 12
13.09 -1.941 -1.7539999 11
8.0249996 -1.193 -1.773 18
8.7659998 -1.296 -1.7690001 12
9.6619997 -1.421 -1.767 13
10.735 -1.5700001 -1.763 13
12.075 -1.758 -1.76 12
13.701 -1.987 -1.747 11
8.3179998 -1.209 -1.781 11
9.0710001 -1.311 -1.7690001 13
10.028 -1.442 -1.767 13
11.182 -1.599 -1.763 13
12.604 -1.794 -1.756 12
14.4 -2.0409999 -1.745 11
8.5640001 -1.216 -1.775 11
9.3780003 -1.324 -1.766 12
10.404 -1.46 -1.765 12
11.663 -1.6289999 -1.7640001 13
13.193 -1.8329999 -1.7539999 11
15.145 -2.096 -1.7410001 10
8.842 -1.225 -1.773 13
9.7119999 -1.3380001 -1.766 13
10.809 -1.48 -1.7640001 13
12.141 -1.654 -1.7589999 13
13.811 -1.872 -1.749 11
15.951 -2.152 -1.734 9
9.1330004 -1.233 -1.771 13
10.061 -1.35 -1.763 12
11.25 -1.501 -1.7640001 13
12.686 -1.683 -1.757 12
14.468 -1.909 -1.742 11
16.855 -2.214 -1.729 10
9.448 -1.2410001 -1.7690001 12
10.441 -1.363 -1.762 12
11.723 -1.521 -1.763 13
13.223 -1.706 -1.749 12
15.214 -1.9529999 -1.739 10
17.889 -2.2850001 -1.726 12
9.7869997 -1.249 -1.768 13
10.834 -1.374 -1.758 13
12.204 -1.538 -1.7589999 12
13.875 -1.739 -1.749 11
16.025 -1.997 -1.733 9
19.07 -2.3640001 -1.724 13
10.13 -1.255 -1.766 12
11.279 -1.388 -1.76 14
12.74 -1.558 -1.757 12
14.533 -1.766 -1.743 11
16.927 -2.0439999 -1.728 10
20.385 -2.4489999 -1.721 15
10.507 -1.261 -1.765 13
11.729 -1.398 -1.756 13
13.288 -1.573 -1.75 11
15.264 -1.795 -1.738 11
17.972 -2.1010001 -1.728 12
21.952999 -2.553 -1.725 17
10.906 -1.266 -1.7640001 13
12.227 -1.409 -1.756 13
13.889 -1.589 -1.7460001 12
16.035999 -1.823 -1.7309999 9
19.098 -2.1570001 -1.724 13
23.655001 -2.6559999 -1.722 14
11.334 -1.27 -1.763 14
12.735 -1.416 -1.752 12
14.545 -1.605 -1.7410001 11
16.903999 -1.853 -1.724 10
20.403999 -2.2219999 -1.723 15
25.691 -2.7809999 -1.722 14
11.772 -1.271 -1.7589999 13
13.282 -1.4220001 -1.747 12
15.258 -1.6210001 -1.735 10
17.934 -1.891 -1.724 12
21.927999 -2.2969999 -1.725 17
26.775999 -2.786 -1.642 35
12.255 -1.271 -1.757 12
13.848 -1.425 -1.74 12
16.017 -1.635 -1.729 9
19.104 -1.9349999 -1.727 13
23.587999 -2.372 -1.722 13
26.688999 -2.6630001 -1.4859999 76
12.755 -1.268 -1.753 12
14.501 -1.4299999 -1.737 12
16.858999 -1.648 -1.722 10
20.348 -1.973 -1.724 15
25.541 -2.4579999 -1.721 12
26.507 -2.5320001 -1.33 67
13.287 -1.2640001 -1.749 11
15.165 -1.428 -1.729 11
17.865999 -1.668 -1.724 12
21.728001 -2.0120001 -1.719 17
26.559999 -2.4389999 -1.643 34
26.436001 -2.408 -1.181 74
13.865 -1.256 -1.745 11
15.907 -1.428 -1.723 9
18.924999 -1.683 -1.72 13
23.416 -2.0639999 -1.723 11
26.521999 -2.316 -1.495 81
26.454 -2.2909999 -1.039 57
14.472 -1.2460001 -1.739 11
16.711 -1.424 -1.716 10
20.132 -1.699 -1.7180001 15
25.348 -2.118 -1.727 19
26.374001 -2.184 -1.345 73
26.851 -2.2030001 -0.912 17
15.156 -1.235 -1.7359999 12
17.674 -1.425 -1.7180001 11
21.542999 -1.719 -1.723 17
26.396 -2.085 -1.658 22
26.239 -2.0510001 -1.199 79
30.02 -2.3239999 -0.86199999 15
15.853 -1.2180001 -1.729 11
18.676001 -1.419 -1.714 13
22.958 -1.725 -1.7130001 16
26.459 -1.966 -1.522 51
26.188999 -1.923 -1.0599999 75
43.831001 -3.1860001 -1.033 10
16.613001 -1.197 -1.721 10
19.820999 -1.411 -1.7130001 14
24.85 -1.748 -1.722 15
26.223 -1.821 -1.37 76
26.690001 -1.832 -0.94199997 27
44.312 -3.0079999 -0.81800002 12
17.483 -1.175 -1.7180001 11
21.094999 -1.399 -1.712 16
26.148001 -1.711 -1.676 24
26.077 -1.6849999 -1.229 85
29.854 -1.904 -0.903 39
30.650999 -1.931 -0.412 24
18.455 -1.15 -1.717 12
22.478001 -1.381 -1.709 18
26.208 -1.5880001 -1.5470001 62
25.972 -1.551 -1.095 82
30.266001 -1.7819999 -0.76599997 60
30.403999 -1.766 -0.25999999 58
19.547001 -1.122 -1.719 14
24.025999 -1.357 -1.705 13
26.091 -1.451 -1.411 68
26.118999 -1.4299999 -0.972 56
30.103001 -1.623 -0.616 64
30.343 -1.6109999 -0.114 56
20.756001 -1.086 -1.72 16
25.768 -1.324 -1.699 23
25.917 -1.309 -1.273 76
29.138 -1.447 -0.94300002 65
30.024 -1.465 -0.47 50
30.252001 -1.451 0.029999999 61
22.096001 -1.043 -1.722 17
26.017 -1.205 -1.59 45
25.931999 -1.178 -1.15 65
29.896999 -1.33 -0.82499999 63
29.858 -1.302 -0.32499999 58
30.313999 -1.296 0.17299999 54
23.594 -0.99000001 -1.723 16
25.877001 -1.062 -1.456 67
25.916 -1.039 -1.024 68
29.674999 -1.163 -0.67799997 64
29.77 -1.141 -0.185 68
30.374001 -1.137 0.31400001 32
25.171 -0.92199999 -1.717 23
25.747 -0.91799998 -1.325 76
0 0 0 0
29.565001 -1.001 -0.53799999 72
29.792 -0.98299998 -0.048999999 56
30.674 -0.98500001 0.456 5
25.820999 -0.80699998 -1.64 37
25.719 -0.78100002 -1.206 72
29.250999 -0.86000001 -0.88499999 63
29.489 -0.83999997 -0.40400001 78
29.752001 -0.81999999 0.082999997 74
134.23399 -3.5829999 2.5929999 23
25.820999 -0.667 -1.521 70
25.643 -0.63800001 -1.086 75
29.396999 -0.70300001 -0.75700003 79
29.455 -0.67799997 -0.273 67
29.829 -0.65899998 0.214 72
134.88901 -2.859 3.1930001 50
25.632999 -0.52100003 -1.395 71
25.645 -0.49700001 -0.972 52
29.379 -0.54000002 -0.62800002 68
29.482 -0.514 -0.14399999 66
30.039 -0.49700001 0.345 55
133.995 -2.095 3.7420001 34
25.554001 -0.375 -1.277 78
27.997999 -0.38600001 -0.93900001 82
29.333 -0.37599999 -0.50199997 74
29.504 -0.34900001 -0.018999999 70
30.271 -0.33000001 0.47600001 22
133.377 -1.329 4.2839999 23
25.575001 -0.23100001 -1.169 63
29.169001 -0.236 -0.85399997 71
29.297001 -0.20999999 -0.37799999 79
29.611 -0.182 0.103 77
133.91 -0.699 2.658 31
134.258 -0.57200003 4.8600001 23
25.410999 -0.083999999 -1.054 82
29.312 -0.07 -0.73699999 70
29.354 -0.041999999 -0.25799999 69
29.802999 -0.014 0.22400001 78
133.606 0.071000002 3.1889999 59
135.769 0.204 5.4559999 24
26.358 0.064000003 -0.986 33
29.450001 0.098999999 -0.62099999 47
29.406 0.12800001 -0.141 80
30.073 0.15899999 0.34400001 65
82.190002 0.51899999 2.2820001 34
125.617 0.912 5.5310001 21
0 0 0 0
29.379999 0.271 -0.50400001 51
29.562 0.301 -0.027000001 73
30.382999 0.33899999 0.465 18
82.214996 1 2.596 11
83.113998 1.091 3.974 7
29.000999 0.40900001 -0.85799998 69
29.396 0.44299999 -0.39199999 77
29.788 0.47999999 0.085000001 76
0 0 0 0
82.205002 1.4859999 2.901 8
80.642998 1.54 4.1550002 4
29.450001 0.58999997 -0.75999999 60
29.530001 0.62099999 -0.28400001 73
30.112 0.662 0.19599999 73
91.835999 2.112 2.085 55
82.237999 1.972 3.197 5
88.302002 2.2079999 4.8629999 15
29.539 0.76800001 -0.65399998 68
29.690001 0.80000001 -0.17900001 82
30.611 0.85600001 0.308 13
115.934 3.3610001 3.0420001 55
116.142 3.4909999 4.927 25
88.009003 2.737 5.1570001 10
29.841999 0.958 -0.55400002 55
30.055 0.99400002 -0.075000003 73
39.769001 1.355 0.54100001 47
115.702 4.0630002 3.4389999 68
96.592003 3.4960001 4.4310002 7
118.563 4.4120002 7.3509998 13
30.006001 1.147 -0.45300001 60
30.693001 1.204 0.028999999 16
39.097 1.574 0.66500002 55
120.684 4.9850001 3.9960001 8
115.182 4.875 5.6659999 25
81.713997 3.546 5.3369999 29
30.612 1.3609999 -0.35800001 33
38.178001 1.7359999 0.164 52
38.533001 1.7920001 0.78299999 52
40.187 1.911 1.462 1
82.695 4.0209999 4.3390002 12
81.579002 4.052 5.592 19
37.928001 1.924 -0.31999999 51
37.823002 1.955 0.28299999 55
38.209999 2.016 0.89899999 51
39.703999 2.1370001 1.571 28
118.921 6.5240002 6.612 47
82.566002 4.6199999 5.9180002 28
37.632999 2.1440001 -0.2 50
37.585999 2.1800001 0.39899999 62
38.036999 2.244 1.011 58
39.279999 2.359 1.673 51
0 0 0 0
87.797997 5.4640002 6.5549998 24
37.344002 2.3640001 -0.085000001 67
37.397999 2.4070001 0.50999999 64
37.831001 2.4749999 1.12 61
39.125999 2.5999999 1.783 45
0 0 0 0
87.860001 6.0339999 6.8189998 17
29.106001 2.029 0.018999999 40
37.245998 2.6340001 0.616 60
25.983999 1.865 0.84299999 59
38.980999 2.8399999 1.887 54
0 0 0 0
0 0 0 0
28.778999 2.1930001 0.101 45
25.892 1.999 0.50099999 15
25.83 2.0220001 0.91100001 81
25.794001 2.0469999 1.3200001 4
0 0 0 0
0 0 0 0
25.809999 2.1370001 0.162 34
25.74 2.1570001 0.56900001 74
25.687 2.181 0.97600001 71
38.783001 3.3340001 2.0899999 18
0 0 0 0
0 0 0 0
28.523001 2.549 0.25299999 52
25.591999 2.313 0.63200003 68
25.552 2.3380001 1.0369999 78
38.915001 3.6029999 2.197 6
0 0 0 0
0 0 0 0
28.403 2.7279999 0.32499999 53
29.165001 2.8299999 0.79400003 8
37.487 3.678 1.614 50
160.571 15.941 9.4680004 19
0 0 0 0
0 0 0 0
28.392 2.9159999 0.39300001 50
29.132999 3.023 0.86299998 8
37.487999 3.931 1.704 50
160.67599 17.023001 9.8509998 19
0 0 0 0
0 0 0 0
28.441999 3.115 0.461 44
29.173 3.224 0.93199998 5
37.541 4.1900001 1.7920001 51
0 0 0 0
0 0 0 0
0 0 0 0
28.412001 3.303 0.52200001 46
36.743999 4.3119998 1.255 69
37.544998 4.447 1.875 50
0 0 0 0
0 0 0 0
0 0 0 0
28.496 3.5079999 0.58399999 44
36.754002 4.5630002 1.331 68
37.612999 4.711 1.955 52
119.544 15.105 8.1049995 28
0 0 0 0
0 0 0 0
28.447001 3.697 0.63999999 46
36.757999 4.8169999 1.404 65
37.735001 4.9850001 2.036 52
119.459 15.918 8.335 33
0 0 0 0
0 0 0 0
28.497999 3.902 0.69400001 52
36.792 5.0749998 1.474 73
37.816002 5.2579999 2.1099999 52
105.199 14.744 7.533 15
0 0 0 0
0 0 0 0
28.771 4.1399999 0.75300002 44
36.827 5.3369999 1.541 63
38.152 5.5710001 2.197 16
94.899002 13.968 6.9629998 52
218.686 32.445 19.513 65
0 0 0 0
28.858 4.3540001 0.80299997 30
36.910999 5.6100001 1.6059999 60
38.179001 5.8429999 2.2620001 2
91.869003 14.168 6.8940001 27
99.023003 15.393 9 20
0 0 0 0
29.198999 4.612 0.85799998 6
36.993 5.8800001 1.6670001 64
89.665001 14.353 5.4499998 6
91.359001 14.727 6.9949999 23
91.433998 14.852 8.4490004 30
0 0 0 0
36.504002 6.0229998 1.126 72
37.153999 6.1700001 1.728 50
89.788002 15.011 5.5879998 29
88.223999 14.854 6.8829999 33
90.505997 15.35 8.4949999 36
0 0 0 0
36.634998 6.3070002 1.179 43
37.303001 6.4650002 1.786 51
87.778 15.307 5.5819998 29
87.748001 15.405 6.9650002 31
90.265999 15.956 8.5950003 29
0 0 0 0
36.652 6.5760002 1.226 42
37.563999 6.777 1.844 52
87.314003 15.85 5.6589999 40
87.32 15.955 7.0370002 34
90.518997 16.652 8.7320004 37
0 0 0 0
36.810001 6.8699999 1.273 66
37.900002 7.1129999 1.904 53
88.063004 16.622 5.809 10
87.766998 16.667 7.1739998 32
90.274002 17.256001 8.809 31
0 0 0 0
36.98 7.1669998 1.317 62
38.331001 7.4689999 1.964 33
87.672997 17.181999 5.8709998 39
87.738998 17.302999 7.263 17
89.829002 17.825001 8.8599997 35
0 0 0 0
37.243999 7.4920001 1.3609999 49
38.904999 7.8649998 2.03 7
87.624001 17.812 5.9499998 41
89.678001 18.336 7.5050001 24
90.047997 18.521999 8.9639997 34
0 0 0 0
37.632999 7.8429999 1.405 53
93.487 19.580999 4.9530001 35
90.162003 18.989 6.197 22
90.628998 19.191 7.6609998 21
90.628998 19.306999 9.0979996 29
0 0 0 0
38.130001 8.2279997 1.451 54
93.584 20.291 5.026 5
90.415001 19.700001 6.2779999 38
91.43 20.030001 7.7930002 17
0 0 0 0
0 0 0 0
38.963001 8.698 1.506 14
100.617 22.565001 5.4650002 15
100.615 22.676001 7.0479999 23
102.767 23.278999 8.823 26
212.605 48.433998 21.629999 28
0 0 0 0
133.082 30.705999 5.211 19
95.304001 22.087 5.224 9
95.461998 22.224001 6.7360001 37
102.519 23.989 8.8549995 26
212.213 49.921001 21.704 28
0 0 0 0
103.5 24.649 4.0900002 8
94.780998 22.672001 5.2340002 25
94.221001 22.636999 6.6869998 24
94.365997 22.785 8.191 40
0 0 0 0
0 0 0 0
102.163 25.091 4.0669999 17
93.498001 23.056999 5.1880002 27
93.345001 23.122 6.651 29
93.733002 23.33 8.1630001 32
0 0 0 0
0 0 0 0
0 0 0 0
92.626999 23.548 5.1560001 36
93.413002 23.849001 6.6729999 20
93.209 23.908001 8.1350002 40
0 0 0 0
0 0 0 0
94.889999 24.740999 3.796 29
92.213997 24.138 5.1409998 21
91.272003 23.985001 6.5300002 30
93.292999 24.627001 8.1540003 35
0 0 0 0
0 0 0 0
0 0 0 0
90.959 24.493999 5.066 24
90.253998 24.400999 6.4520001 39
91.037003 24.716 7.9549999 35
99.477997 27.136 10.279 23
0 0 0 0
105.042 28.978001 4.1789999 12
96.550003 26.723 5.3629999 10
89.731003 24.934999 6.4060001 38
90.078003 25.136999 7.8629999 35
99.391998 27.865 10.263 24
0 0 0 0
109.748 31.118 4.3379998 13
89.473 25.448999 4.948 31
89.497002 25.551001 6.3660002 29
89.871002 25.757999 7.8239999 36
92.089996 26.507999 9.4899998 6
0 0 0 0
113.874 33.145 4.4640002 8
91.195999 26.629999 5.013 27
89.427002 26.207001 6.3340001 24
89.144997 26.224001 7.7350001 35
98.015999 28.959999 10.074 26
105.491 31.316999 12.539 16
91.898003 27.448999 3.556 32
91.304001 27.356001 4.9759998 21
88.722 26.677999 6.2470002 29
88.355003 26.67 7.6300001 28
91.260002 27.664 9.3439999 6
0 0 0 0
105.528 32.335999 4.0219998 16
91.417999 28.094999 4.9310002 17
93.57 28.847 6.5359998 12
88.440002 27.367001 7.5900002 21
89.247002 27.726999 9.0930004 31
105.166 32.82 12.411 16
97.32 30.565001 3.6400001 7
0 0 0 0
88.403999 27.931999 6.1199999 16
88.962997 28.209999 7.5809999 18
88.818001 28.277 8.9960003 17
86.567001 27.681999 10.166 16
0 0 0 0
96.961998 31.284 5.0900002 7
88.119003 28.527 6.033 18
88.166 28.636999 7.4499998 16
87.711998 28.596001 8.8249998 23
66.640999 21.823 7.7810001 8
98.155998 32.346001 3.507 8
86.052002 28.43 4.4419999 21
86.257004 28.579 5.8319998 18
87.961998 29.242001 7.3579998 28
87.500999 29.202 8.7329998 14
85.456001 28.639 9.9130001 20
89.111 30.059 3.0940001 24
86.103996 29.111 4.362 24
0 0 0 0
87.804001 29.863001 7.2649999 11
84.094002 28.707001 8.316 21
85.841003 29.422001 9.8809996 16
68.033997 23.472 2.2850001 37
68.031998 23.523001 3.3710001 95
68.065002 23.594999 4.4650002 33
68.230003 23.73 5.5770001 3
84.383003 29.452 8.2620001 26
85.757004 30.051001 9.79 8
95.978996 33.856998 3.109 18
99.910004 35.316002 4.835 11
86.080002 30.507999 5.5479999 6
90.887001 32.305 7.3249998 12
84.514 30.143 8.1809998 8
0 0 0 0
128.217 46.221001 3.9860001 19
92.120003 33.273998 4.3410001 20
85.234001 30.864 5.388 10
87.330002 31.716 6.9310002 18
83.428001 30.4 7.9749999 15
85.316002 31.201 9.5489998 8
0 0 0 0
87.280998 32.195999 3.99 19
85.903999 31.764 5.3119998 8
90.550003 33.571999 7.0669999 26
84.583 31.465 7.98 17
0 0 0 0
86.864998 32.655998 2.4449999 19
86.705002 32.653 3.8369999 20
0 0 0 0
82.515999 31.231001 6.323 5
82.794998 31.431 7.6950002 17
86.827003 33.078999 9.4899998 11
90.921997 34.882 2.4089999 5
124.349 47.784 5.303 18
124.641 47.993999 7.336 18
82.397003 31.809999 6.1890001 28
82.475998 31.941 7.5440001 21
82.585999 32.094002 8.908 16
39.042999 15.281 0.96799999 3
124.198 48.682999 5.0900002 18
0 0 0 0
89.953003 35.421001 6.6100001 9
82.699997 32.660999 7.4299998 10
83.080002 32.917 8.8310003 20
34.651001 13.83 0.796 30
126.222 50.448002 4.9499998 13
126.828 50.791 7.0359998 19
81.977997 32.903999 5.888 20
84.808998 34.137001 7.4809999 11
82.874001 33.466999 8.6739998 8
34.318001 13.96 0.722 48
0 0 0 0
65.216003 26.614 3.4960001 11
86.460999 35.360001 6.052 40
84.820999 34.784 7.3299999 8
82.739998 34.034 8.5170002 24
33.963001 14.074 0.64600003 48
64.889 26.929001 2.2939999 64
64.818001 26.947001 3.3499999 57
85.648003 35.68 5.8340001 8
82.757004 34.566002 6.9990001 21
83.075996 34.806 8.3990002 16
33.702999 14.228 0.56900001 41
64.471001 27.247 2.1429999 61
64.414001 27.27 3.1989999 60
84.589996 35.886002 5.592 6
82.914001 35.264 6.849 8
82.850998 35.342999 8.2159996 32
33.569 14.429 0.493 33
64.074997 27.572001 1.99 65
64.003998 27.584 3.039 63
0 0 0 0
83.521004 36.158001 6.7270002 17
82.566002 35.842999 8.0229998 23
33.473999 14.644 0.41499999 40
34.174 14.966 0.98500001 2
63.612 27.893999 2.882 63
85.022003 37.348 5.2600002 14
83.265999 36.661999 6.5310001 19
82.200996 36.293999 7.8150001 33
33.414001 14.874 0.33199999 36
34.241001 15.253 0.90499997 3
63.217999 28.202 2.717 62
63.171001 28.231001 3.7609999 4
81.658997 36.575001 6.2189999 21
82.462997 37.029999 7.658 23
33.418999 15.13 0.249 41
34.362 15.568 0.824 6
62.848999 28.507999 2.549 60
62.777 28.523001 3.5880001 22
81.733002 37.209999 6.0359998 23
82.988998 37.875999 7.5180001 17
33.516998 15.425 0.163 34
62.522999 28.794001 1.34 60
62.469002 28.799999 2.381 61
62.401001 28.811001 3.4189999 43
82.241997 38.049 5.8800001 26
82.804001 38.403999 7.3060002 26
33.862999 15.84 0.074000001 36
62.18 29.099001 1.1720001 61
62.131001 29.105 2.2060001 60
62.047001 29.108999 3.2379999 61
70.084 32.938999 4.8340001 36
69.780998 32.875 5.9840002 18
61.849998 29.391001 -0.033 64
61.817001 29.388 0.995 60
61.758999 29.386 2.0309999 62
61.699001 29.398001 3.062 56
68.931 32.903 4.5770001 19
69.460999 33.231998 5.7810001 19
61.473 29.674999 -0.20999999 61
61.433998 29.662001 0.81800002 65
61.404999 29.671 1.846 61
61.341999 29.677 2.8740001 59
68.696999 33.296001 4.3769999 27
68.764 33.398998 5.5440001 19
42.891998 21.024 -0.27200001 6
61.094002 29.952 0.63499999 65
61.055 29.952 1.66 64
61.012001 29.962 2.6889999 60
60.974998 29.996 3.7130001 6
68.455002 33.743 5.329 10
37.804001 18.811001 -0.35600001 5
60.773998 30.24 0.45199999 61
60.724998 30.232 1.475 60
60.653999 30.225 2.4990001 56
60.594002 30.240999 3.5220001 30
68.348 34.175999 5.1339998 12
34.487999 17.41 -0.43200001 1
60.432999 30.504 0.26499999 61
60.41 30.506001 1.286 60
60.334999 30.496 2.306 58
60.255001 30.496 3.3269999 59
68.855003 34.915001 4.9720001 10
34.596001 17.714001 -0.54400003 7
60.124001 30.778999 0.071999997 69
60.070999 30.761999 1.096 64
60.028999 30.766001 2.115 59
59.957001 30.767 3.135 62
68.639 35.285 4.7579999 10
30.555 15.865 -0.57999998 5
59.796001 31.037001 -0.116 70
59.747002 31.018 0.89899999 59
59.710999 31.021 1.916 64
59.639999 31.021999 2.931 56
0 0 0 0
30.507 16.056999 -0.68300003 39
59.457001 31.285 -0.31400001 51
59.457001 31.285999 0.70300001 65
59.425999 31.288 1.7180001 62
59.348 31.281 2.7309999 54
59.229 31.268 3.74 4
30.125 16.07 -0.77700001 42
38.786999 20.68 -0.33700001 6
59.146999 31.535 0.498 57
59.109001 31.527 1.513 61
59.039001 31.518 2.527 56
58.987 31.540001 3.5409999 27
30.179001 16.309999 -0.884 41
35.462002 19.153 -0.43000001 13
60.584 32.717999 0.30500001 16
146.452 79.120003 3.257 28
70.117996 37.910999 2.7679999 17
73.053001 39.551998 4.1420002 23
29.784 16.302999 -0.98100001 40
0 0 0 0
60.548 33.110001 0.096000001 33
0 0 0 0
70.167 38.407001 2.5350001 4
0 0 0 0
29.538 16.372 -1.082 40
30.103001 16.67 -0.58099997 24
60.084 33.263 -0.118 33
85.178001 47.160999 1.3049999 7
84.942001 47.057999 2.7750001 18
0 0 0 0
29.500999 16.552 -1.192 37
29.433001 16.497 -0.67699999 40
59.575001 33.377998 -0.33399999 26
59.571999 33.376999 0.699 4
0 0 0 0
0 0 0 0
29.461 16.728001 -1.303 27
29.243 16.584999 -0.78299999 46
37.553001 21.285 -0.352 5
59.193001 33.544998 0.47799999 27
145.493 82.492996 3.7149999 16
67.514 38.317001 2.8989999 10
29.004999 16.660999 -1.396 17
29.103001 16.695999 -0.89099997 51
0 0 0 0
59.312 33.992001 0.25799999 28
0 0 0 0
67.325996 38.626999 2.6470001 4
27.618 16.042 -1.439 6
29.177999 16.924999 -1.006 41
31.584999 18.305 -0.53299999 14
59.306999 34.356998 0.039999999 36
67.138 38.902 1.221 44
67.044998 38.876999 2.392 41
25.903 15.211 -1.4529999 6
29.767 17.452 -1.143 43
29.643 17.362 -0.616 40
59.160999 34.638 -0.186 27
81.643997 47.808998 1.171 5
0 0 0 0
24.356001 14.456 -1.465 4
30.493 18.066999 -1.293 13
29.910999 17.702 -0.74000001 43
55.509998 32.834 -0.39399999 4
59.716 35.318001 0.63 3
0 0 0 0
22.921 13.744 -1.473 4
28.808001 17.243 -1.3380001 3
30.700001 18.351999 -0.88099998 45
0 0 0 0
59.380001 35.466999 0.39500001 25
69.970001 41.808998 1.699 3
21.622999 13.095 -1.48 5
27.629 16.702 -1.397 6
31.961 19.294001 -1.0470001 5
32.027 19.318001 -0.47999999 6
59.578999 35.924999 0.163 29
65.043999 39.230999 1.329 9
20.555 12.569 -1.493 5
26 15.866 -1.423 4
34.115002 20.787001 -1.258 1
0 0 0 0
58.978001 35.887001 -0.072999999 32
66.105003 40.233002 1.0930001 11
19.612 12.106 -1.5089999 7
24.283001 14.956 -1.4299999 4
0 0 0 0
0 0 0 0
58.811001 36.102001 -0.308 19
58.994999 36.216 0.74199998 69
18.729 11.664 -1.521 9
22.919001 14.24 -1.447 4
29.841999 18.507999 -1.347 3
0 0 0 0
54.381001 33.666 -0.50800002 11
59.397999 36.77 0.50999999 25
17.9 11.246 -1.5319999 14
21.589001 13.53 -1.456 4
27.854 17.422001 -1.374 4
0 0 0 0
52.467999 32.749001 -0.704 2
59.248001 36.973999 0.26300001 40
17.17 10.877 -1.545 14
20.483999 12.943 -1.47 5
26.214001 16.528 -1.405 4
0 0 0 0
0 0 0 0
59.136002 37.188999 0.025 35
16.458 10.51 -1.553 12
19.577 12.467 -1.489 7
24.677 15.681 -1.428 3
32.130001 20.385 -1.278 1
0 0 0 0
56.910999 36.054001 -0.212 9
15.776 10.153 -1.5599999 12
18.73 12.019 -1.506 7
23.007999 14.73 -1.4299999 4
30.410999 19.436001 -1.3380001 1
0 0 0 0
53.702 34.263 -0.42300001 7
15.169 9.8339996 -1.567 11
17.847 11.535 -1.515 10
21.778999 14.043 -1.45 4
27.892 17.950001 -1.348 3
0 0 0 0
51.956001 33.374001 -0.625 5
14.65 9.5649996 -1.579 11
17.139 11.155 -1.531 12
20.843 13.531 -1.479 5
26.08 16.896 -1.372 2
34.57 22.365999 -1.191 1
0 0 0 0
14.144 9.2980003 -1.589 10
16.371 10.726 -1.536 13
19.75 12.905 -1.488 7
25.046 16.330999 -1.429 4
0 0 0 0
0 0 0 0
13.679 9.0500002 -1.6 9
15.728 10.37 -1.546 12
18.799999 12.359 -1.499 7
23.107 15.156 -1.418 4
0 0 0 0
0 0 0 0
13.212 8.7939997 -1.6059999 9
15.135 10.037 -1.556 11
17.969 11.881 -1.5140001 10
21.933001 14.468 -1.442 4
27.937 18.396 -1.325 5
37.183998 24.457001 -1.086 1
12.758 8.54 -1.609 8
14.6 9.7370005 -1.567 11
17.229 11.454 -1.529 12
20.806 13.798 -1.461 5
26.683001 17.660999 -1.382 5
34.915001 23.08 -1.169 1
12.365 8.3219995 -1.615 8
14.098 9.4510002 -1.576 10
16.49 11.019 -1.536 11
19.785 13.185 -1.476 6
25.004999 16.629 -1.403 3
32.812 21.791 -1.2410001 1
11.996 8.1129999 -1.622 7
13.659 9.2010002 -1.5880001 9
15.833 10.629 -1.544 13
18.973 12.701 -1.498 6
23.548 15.73 -1.424 3
0 0 0 0
11.625 7.8990002 -1.625 7
13.202 8.9329996 -1.595 9
15.253 10.284 -1.5549999 12
18.017 12.112 -1.501 7
22.118999 14.836 -1.433 4
0 0 0 0
11.272 7.6919999 -1.627 7
12.781 8.684 -1.602 8
14.726 9.9680004 -1.566 11
17.297001 11.673 -1.516 10
20.919001 14.084 -1.446 4
27.049999 18.177999 -1.37 3
10.96 7.5079999 -1.632 8
12.383 8.4449997 -1.607 8
14.208 9.6529999 -1.575 10
16.596001 11.24 -1.528 13
19.974001 13.492 -1.4680001 5
25.209999 16.997 -1.386 3
10.672 7.3369999 -1.637 9
12.01 8.2189999 -1.6109999 7
13.763 9.3809996 -1.585 10
16.003 10.872 -1.543 13
19.104 12.944 -1.485 5
23.756001 16.063 -1.408 3
10.384 7.1620002 -1.64 9
11.661 8.0039997 -1.617 7
13.339 9.118 -1.596 9
15.423 10.507 -1.5549999 12
18.280001 12.418 -1.5 7
22.382999 15.172 -1.421 4
10.107 6.9899998 -1.641 8
11.338 7.803 -1.622 7
12.925 8.8579998 -1.602 8
14.864 10.151 -1.561 11
17.584999 11.973 -1.518 13
21.193001 14.396 -1.437 4
9.842 6.8239999 -1.642 9
11.025 7.605 -1.626 8
12.546 8.6169996 -1.61 8
14.352 9.8210001 -1.5700001 10
16.809999 11.468 -1.523 13
20.23 13.767 -1.457 6
9.5880003 6.6609998 -1.642 10
10.739 7.4229999 -1.63 9
12.156 8.3640003 -1.612 7
13.915 9.5369997 -1.582 10
16.198 11.067 -1.5369999 13
19.444 13.251 -1.483 6
9.3570004 6.5110002 -1.643 10
10.454 7.2360001 -1.632 9
11.814 8.1400003 -1.617 7
13.5 9.2650003 -1.592 9
15.631 10.692 -1.548 12
18.514 12.63 -1.489 8
9.1350002 6.3660002 -1.6440001 11
10.196 7.066 -1.636 9
11.494 7.928 -1.623 7
13.098 8.9969997 -1.6 9
15.106 10.341 -1.5599999 12
17.856001 12.19 -1.511 12
8.9390001 6.2350001 -1.647 11
9.9320002 6.8889999 -1.635 9
11.19 7.723 -1.626 8
12.74 8.7559996 -1.609 8
14.594 9.9949999 -1.568 11
17.125999 11.694 -1.52 15
8.75 6.1059999 -1.649 12
9.6969995 6.7290001 -1.638 10
10.905 7.5289998 -1.631 9
12.346 8.4870005 -1.61 8
14.126 9.6739998 -1.575 10
16.466 11.243 -1.528 13
8.5719995 5.9829998 -1.652 11
9.4630003 6.566 -1.637 10
10.644 7.3470001 -1.636 9
11.969 8.2259998 -1.61 7
13.73 9.3999996 -1.587 10
15.914 10.861 -1.541 13
8.4029999 5.8639998 -1.653 11
9.257 6.421 -1.6390001 11
10.383 7.164 -1.637 9
11.675 8.0190001 -1.617 7
13.345 9.1300001 -1.595 9
15.351 10.468 -1.548 12
8.2440004 5.7490001 -1.655 11
9.0559998 6.277 -1.64 12
10.13 6.9829998 -1.638 9
11.38 7.8080001 -1.622 7
12.991 8.8780003 -1.605 9
14.897 10.146 -1.561 11
8.0860004 5.6329999 -1.656 17
8.8690004 6.1399999 -1.642 12
9.8979998 6.8150001 -1.6390001 9
11.12 7.6199999 -1.628 8
12.602 8.6000004 -1.6059999 8
14.426 9.809 -1.569 11
7.993 5.5599999 -1.669 12
8.7019997 6.0159998 -1.645 11
9.6719999 6.6479998 -1.64 9
10.861 7.4299998 -1.632 9
12.284 8.3669996 -1.613 7
14.024 9.5179996 -1.5779999 10
7.8470001 5.4489999 -1.669 10
8.5410004 5.8930001 -1.647 11
9.4560003 6.487 -1.6390001 10
10.62 7.2490001 -1.637 9
11.964 8.1309996 -1.6160001 7
13.657 9.2469997 -1.589 9
7.7140002 5.3449998 -1.669 10
8.3830004 5.7709999 -1.648 11
9.2720003 6.3460002 -1.642 11
10.36 7.0539999 -1.635 9
11.672 7.9109998 -1.62 7
13.294 8.9759998 -1.596 9
7.5869999 5.243 -1.67 10
8.2480001 5.6630001 -1.652 11
9.0909996 6.204 -1.643 12
10.128 6.8759999 -1.635 9
11.386 7.6939998 -1.622 8
12.937 8.7080002 -1.6 8
7.474 5.1500001 -1.6720001 10
8.132 5.566 -1.659 11
8.9239998 6.0710001 -1.645 12
9.9320002 6.7199998 -1.64 9
11.152 7.5100002 -1.6289999 9
12.631 8.4729996 -1.608 8
7.3449998 5.0440001 -1.67 12
8.0139999 5.4660001 -1.663 11
8.7550001 5.9349999 -1.645 12
9.7200003 6.553 -1.6390001 10
10.885 7.3039999 -1.628 9
12.326 8.2360001 -1.613 7
7.2150002 4.9369998 -1.665 27
7.888 5.3600001 -1.664 10
8.6070004 5.8119998 -1.647 12
9.5220003 6.3940001 -1.6390001 11
10.677 7.1339998 -1.6339999 9
12.031 8.0039997 -1.615 7
7.1700001 4.8860002 -1.679 37
7.7649999 5.2540002 -1.664 10
8.474 5.697 -1.65 12
9.3409996 6.2449999 -1.6390001 11
10.448 6.9489999 -1.635 10
11.766 7.7919998 -1.62 8
7.0840001 4.8049998 -1.683 34
7.6529999 5.1539998 -1.666 11
8.3409996 5.5809999 -1.651 12
9.1820002 6.1090002 -1.642 12
10.231 6.7719998 -1.6339999 10
11.505 7.5809999 -1.622 8
6.9990001 4.7249999 -1.6849999 34
7.5370002 5.0510001 -1.664 13
8.2399998 5.4860001 -1.659 12
9.0299997 5.9759998 -1.643 12
10.047 6.6149998 -1.638 10
11.257 7.3779998 -1.623 10
6.9050002 4.6360002 -1.683 33
7.428 4.9510002 -1.663 39
8.1330004 5.3850002 -1.6619999 12
8.8850002 5.848 -1.645 12
9.875 6.4650002 -1.64 9
11.057 7.2049999 -1.63 10
6.8559999 4.5780001 -1.692 32
7.3730001 4.8860002 -1.673 51
8.0389996 5.2919998 -1.6670001 12
8.7480001 5.723 -1.646 12
9.6800003 6.3000002 -1.637 10
10.856 7.0320001 -1.633 10
6.8299999 4.5320001 -1.706 19
7.2750001 4.7919998 -1.673 44
7.928 5.1859999 -1.6670001 11
8.6280003 5.6100001 -1.648 12
9.533 6.165 -1.64 12
10.65 6.8540001 -1.6339999 9
6.7280002 4.4369998 -1.699 10
7.2030001 4.7140002 -1.676 39
7.7839999 5.059 -1.659 14
8.5139999 5.4990001 -1.651 12
9.382 6.026 -1.641 12
10.461 6.6859999 -1.635 10
6.6690001 4.3670001 -1.7029999 9
7.125 4.631 -1.677 40
7.684 4.96 -1.659 42
8.4029999 5.3899999 -1.653 12
9.2510004 5.9000001 -1.6440001 12
10.292 6.5310001 -1.637 10
6.6079998 4.2969999 -1.704 10
7.0999999 4.5809999 -1.6900001 30
7.6420002 4.8959999 -1.67 51
8.3120003 5.2919998 -1.6569999 12
9.1040001 5.763 -1.642 12
10.124 6.3759999 -1.638 10
6.5489998 4.2270002 -1.705 9
7.0510001 4.5149999 -1.696 12
7.5539999 4.803 -1.67 41
8.2189999 5.1919999 -1.659 12
8.9840002 5.6420002 -1.6440001 11
9.9499998 6.217 -1.636 10
6.5029998 4.164 -1.709 10
6.9660001 4.4250002 -1.693 10
7.473 4.7129998 -1.67 44
8.1029997 5.0770001 -1.656 14
8.875 5.5289998 -1.647 13
9.7989998 6.072 -1.636 11
6.4530001 4.0970001 -1.711 9
6.9060001 4.3499999 -1.6950001 10
7.4070001 4.632 -1.673 45
8.0120001 4.9770002 -1.6569999 48
8.7539997 5.4070001 -1.645 12
9.6800003 5.9460001 -1.64 11
6.4250002 4.0450001 -1.7180001 10
6.855 4.2810001 -1.697 10
7.4039998 4.5900002 -1.689 33
7.9590001 4.901 -1.664 53
8.6619997 5.302 -1.648 12
9.5559998 5.8179998 -1.641 12
6.3709998 3.9749999 -1.716 10
6.803 4.21 -1.699 10
7.3119998 4.4920001 -1.684 10
7.8860002 4.8119998 -1.666 45
8.5780001 5.2020001 -1.651 12
9.4429998 5.6950002 -1.643 12
6.2789998 3.881 -1.704 26
6.7649999 4.1469998 -1.7029999 10
7.2600002 4.4180002 -1.687 10
7.823 4.7280002 -1.669 50
8.4860001 5.0970001 -1.651 12
9.3339996 5.5749998 -1.6440001 12
6.2529998 3.8269999 -1.709 30
6.7119999 4.0739999 -1.702 10
7.21 4.3439999 -1.689 10
7.7740002 4.652 -1.674 47
8.4289999 5.0120001 -1.6569999 13
9.224 5.454 -1.6440001 12
6.2199998 3.7690001 -1.711 29
6.6700001 4.0079999 -1.704 9
7.158 4.2690001 -1.6900001 10
7.7789998 4.6069999 -1.689 26
8.349 4.914 -1.658 12
9.1479998 5.3530002 -1.648 12
6.204 3.72 -1.717 27
6.5869999 3.9170001 -1.694 34
7.119 4.2010002 -1.693 11
7.6750002 4.4970002 -1.681 11
8.2670002 4.8140001 -1.656 14
9.0539999 5.2410002 -1.648 12
6.1760001 3.6630001 -1.719 26
6.5780001 3.869 -1.702 45
7.0760002 4.1300001 -1.6950001 10
7.6269999 4.421 -1.683 11
8.1890001 4.7160001 -1.655 22
8.9899998 5.1469998 -1.652 13
6.1529999 3.609 -1.721 28
6.5450001 3.8069999 -1.7029999 43
7.0349998 4.0609999 -1.696 10
7.5760002 4.342 -1.684 11
8.1809998 4.658 -1.6670001 21
8.8999996 5.0380001 -1.651 12
6.1290002 3.5539999 -1.723 28
6.5170002 3.747 -1.705 42
6.9559999 3.9679999 -1.687 18
7.5320001 4.2659998 -1.6849999 11
8.1350002 4.5770001 -1.67 12
8.8260002 4.9369998 -1.651 13
6.1339998 3.5150001 -1.732 23
6.4889998 3.6860001 -1.706 43
6.9380002 3.911 -1.692 45
7.4959998 4.1950002 -1.687 11
8.0799999 4.4920001 -1.67 12
8.7790003 4.8520002 -1.655 13
6.1399999 3.4760001 -1.74 9
6.4660001 3.6289999 -1.7079999 34
6.915 3.8499999 -1.6950001 48
7.4559999 4.1209998 -1.688 10
8.0369997 4.4130001 -1.6720001 13
8.7229996 4.7600002 -1.656 12
6.1079998 3.414 -1.738 8
6.4369998 3.5680001 -1.707 35
6.8790002 3.783 -1.694 49
7.4169998 4.0479999 -1.688 11
8 4.3369999 -1.674 12
8.6639996 4.6690001 -1.656 13
6.0929999 3.362 -1.739 9
6.4549999 3.5309999 -1.7180001 29
6.8660002 3.7260001 -1.697 45
7.3470001 3.9579999 -1.6799999 41
7.9720001 4.2659998 -1.677 12
8.6190004 4.5840001 -1.6569999 13
6.0780001 3.3099999 -1.74 8
6.4520001 3.484 -1.723 12
6.855 3.6719999 -1.701 42
7.3610001 3.914 -1.6900001 46
7.9419999 4.1939998 -1.678 12
8.5810003 4.5029998 -1.659 13
6.0339999 3.2420001 -1.7309999 10
6.4549999 3.4389999 -1.729 9
6.8369999 3.6129999 -1.702 41
7.336 3.848 -1.6900001 47
7.9190001 4.125 -1.6799999 12
8.552 4.427 -1.661 12
6.027 3.194 -1.733 10
6.454 3.391 -1.732 10
6.8400002 3.5639999 -1.707 35
7.3130002 3.7820001 -1.6900001 46
7.8429999 4.0279999 -1.671 20
8.5279999 4.3509998 -1.664 13
6.007 3.138 -1.73 10
6.4489999 3.3399999 -1.735 10
6.8449998 3.516 -1.7130001 12
7.3000002 3.721 -1.693 41
7.8410001 3.9690001 -1.675 46
8.5010004 4.276 -1.665 13
6.0019999 3.0899999 -1.7309999 10
6.434 3.2839999 -1.733 9
6.849 3.467 -1.717 10
7.2870002 3.661 -1.693 41
7.8280001 3.905 -1.678 45
8.4750004 4.2010002 -1.666 13
5.9990001 3.0439999 -1.732 10
6.4250002 3.2309999 -1.733 9
6.8429999 3.4130001 -1.719 10
7.2940001 3.6099999 -1.698 42
7.8169999 3.8410001 -1.679 43
8.4650002 4.132 -1.668 13
5.993 2.994 -1.7309999 10
6.3829999 3.161 -1.723 10
6.8390002 3.359 -1.72 10
7.3449998 3.5799999 -1.7130001 18
7.8200002 3.7839999 -1.683 38
8.4519997 4.0619998 -1.67 12
5.993 2.948 -1.732 10
6.4260001 3.1329999 -1.7359999 9
6.8369999 3.306 -1.72 10
7.3010001 3.503 -1.704 10
7.8260002 3.7279999 -1.687 37
8.4399996 3.993 -1.671 13
5.9699998 2.8900001 -1.725 27
6.375 3.059 -1.722 10
6.829 3.2490001 -1.719 10
7.2940001 3.444 -1.704 10
7.816 3.6630001 -1.686 40
8.4309998 3.924 -1.671 12
5.9910002 2.8540001 -1.73 29
6.4169998 3.029 -1.734 9
6.842 3.2019999 -1.722 10
7.303 3.392 -1.706 10
7.8579998 3.6229999 -1.696 33
8.4460001 3.8670001 -1.675 13
5.9879999 2.8050001 -1.728 27
6.3590002 2.9519999 -1.717 15
6.8390002 3.148 -1.721 9
7.3130002 3.3399999 -1.7079999 11
7.849 3.5580001 -1.694 11
8.4540005 3.806 -1.677 12
6.0050001 2.7650001 -1.7309999 25
6.3779998 2.911 -1.72 55
6.8520002 3.1010001 -1.723 10
7.3150001 3.2839999 -1.7079999 11
7.862 3.503 -1.696 12
8.4650002 3.7460001 -1.679 11
6.0139999 2.7219999 -1.7309999 24
6.3969998 2.869 -1.723 44
6.8470001 3.0450001 -1.719 11
7.3319998 3.2349999 -1.71 10
7.869 3.4460001 -1.696 11
8.4860001 3.6900001 -1.682 13
6.027 2.681 -1.732 25
6.4050002 2.823 -1.722 37
6.8080001 2.9749999 -1.707 23
7.3429999 3.1830001 -1.709 10
7.8779998 3.3889999 -1.6950001 12
8.4949999 3.6289999 -1.681 12
6.0419998 2.6389999 -1.732 25
6.4180002 2.7780001 -1.722 40
6.8439999 2.937 -1.712 51
7.3600001 3.132 -1.71 11
7.8959999 3.335 -1.696 11
8.5170002 3.572 -1.682 12
6.0539999 2.596 -1.7309999 29
6.4330001 2.733 -1.722 38
6.8649998 2.892 -1.7130001 43
7.375 3.082 -1.71 11
7.914 3.2809999 -1.696 11
8.5340004 3.5139999 -1.682 13
6.0679998 2.5539999 -1.7309999 27
6.4629998 2.6949999 -1.725 38
6.8940001 2.8499999 -1.716 40
7.3319998 3.006 -1.6950001 25
7.941 3.2309999 -1.697 12
8.5559998 3.457 -1.682 13
6.131 2.5320001 -1.743 24
6.473 2.6489999 -1.722 47
6.9089999 2.803 -1.714 40
7.402 2.9779999 -1.706 48
7.9790001 3.1849999 -1.7 12
8.5909996 3.405 -1.683 12
6.1389999 2.487 -1.739 10
6.5009999 2.608 -1.723 37
6.9429998 2.7609999 -1.716 41
7.421 2.927 -1.704 43
8.0159998 3.1370001 -1.701 12
8.6330004 3.3529999 -1.684 12
6.1630001 2.447 -1.739 10
6.5409999 2.572 -1.727 34
6.9710002 2.717 -1.716 41
7.4439998 2.8770001 -1.702 42
7.9850001 3.062 -1.688 19
8.6750002 3.303 -1.686 13
6.1989999 2.411 -1.7410001 11
6.6040001 2.5450001 -1.7359999 14
7.0050001 2.675 -1.717 41
7.4860001 2.836 -1.704 43
8.0459995 3.023 -1.692 50
8.7180004 3.2520001 -1.686 12
6.23 2.375 -1.742 11
6.6100001 2.4960001 -1.73 10
7.0430002 2.635 -1.7180001 40
7.5279999 2.793 -1.705 45
8.1049995 2.983 -1.696 49
8.7690001 3.2030001 -1.686 13
6.2519999 2.3329999 -1.74 11
6.658 2.4619999 -1.733 11
7.1149998 2.6059999 -1.726 36
7.5749998 2.7520001 -1.706 44
8.1470003 2.9349999 -1.6950001 44
8.8290005 3.1570001 -1.688 13
6.29 2.2969999 -1.7410001 11
6.6869998 2.4189999 -1.7309999 10
7.165 2.569 -1.729 9
7.6370001 2.7149999 -1.71 39
8.184 2.8859999 -1.692 44
8.8800001 3.1070001 -1.687 14
6.3249998 2.2609999 -1.7410001 11
6.7309999 2.3829999 -1.732 11
7.197 2.5239999 -1.726 10
7.6859999 2.6730001 -1.71 41
8.217 2.8340001 -1.688 39
8.9619999 3.0669999 -1.6900001 13
6.3720002 2.227 -1.743 11
6.8150001 2.359 -1.743 9
7.256 2.4890001 -1.729 10
7.7940001 2.6500001 -1.722 35
8.2620001 2.786 -1.6849999 36
9.0360003 3.023 -1.691 13
6.4190001 2.1930001 -1.745 11
6.823 2.309 -1.733 11
7.3150001 2.4530001 -1.7309999 11
7.8260002 2.6010001 -1.717 11
8.3579998 2.7550001 -1.692 23
9.1160002 2.9809999 -1.692 13
6.4530001 2.155 -1.742 11
6.8600001 2.2679999 -1.73 10
7.3629999 2.4119999 -1.729 10
7.8969998 2.5639999 -1.719 11
8.4820004 2.7309999 -1.7029999 13
9.1990004 2.938 -1.693 13
6.5079999 2.1229999 -1.744 11
6.9260001 2.237 -1.734 11
7.427 2.3759999 -1.73 10
7.9549999 2.5220001 -1.717 11
8.5690002 2.694 -1.705 13
9.2950001 2.8989999 -1.6950001 13
6.5560002 2.0880001 -1.744 11
7.0149999 2.2119999 -1.743 10
7.4840002 2.3369999 -1.729 10
8.026 2.484 -1.717 11
8.6490002 2.654 -1.705 13
9.3929996 2.859 -1.6950001 13
6.599 2.05 -1.7410001 10
7.0370002 2.165 -1.733 11
7.5440001 2.299 -1.728 11
8.0970001 2.4449999 -1.717 12
8.7299995 2.6140001 -1.704 12
9.4919996 2.819 -1.6950001 14
6.6350002 2.0109999 -1.7359999 27
7.086 2.1259999 -1.73 11
7.6149998 2.263 -1.728 10
8.1730003 2.4070001 -1.716 12
8.8310003 2.5780001 -1.706 13
9.5959997 2.779 -1.6950001 13
6.7069998 1.982 -1.74 27
7.1599998 2.0940001 -1.732 12
7.6849999 2.227 -1.727 11
8.2559996 2.3699999 -1.716 12
8.9250002 2.539 -1.705 13
9.7180004 2.743 -1.696 13
6.7670002 1.949 -1.739 27
7.178 2.046 -1.72 38
7.7589998 2.1900001 -1.726 11
8.3360004 2.3310001 -1.7130001 12
9.0139999 2.4979999 -1.702 12
9.8509998 2.707 -1.698 13
6.8299999 1.915 -1.738 28
7.276 2.02 -1.726 45
7.8390002 2.154 -1.725 11
8.4399996 2.2980001 -1.715 12
9.1260004 2.4619999 -1.702 12
9.9849997 2.671 -1.698 13
6.8959999 1.882 -1.738 27
7.3520002 1.9859999 -1.725 41
