# .PCD v0.7 - Point Cloud Data file format
VERSION 0.7
FIELDS x y z intensity
SIZE 4 4 4 4
TYPE F F F F
COUNT 1 1 1 1
WIDTH 1740
HEIGHT 1
VIEWPOINT 0 0 0 1 0 0 0
POINTS 1740
DATA ascii
7.9629998 -1.727 -1.786 9
8.6719999 -1.872 -1.775 9
6.0760002 -1.3329999 -1.818 24
6.4990001 -1.416 -1.807 82
7.039 -1.523 -1.812 9
7.5669999 -1.628 -1.795 9
8.2069998 -1.757 -1.784 9
9.0430002 -1.926 -1.788 22
6.2160001 -1.344 -1.813 28
6.665 -1.432 -1.8049999 80
7.2030001 -1.538 -1.803 9
7.7709999 -1.649 -1.789 10
8.4499998 -1.784 -1.778 9
9.2679996 -1.947 -1.77 41
6.3709998 -1.358 -1.8099999 31
6.829 -1.446 -1.799 68
7.3940001 -1.556 -1.798 9
7.993 -1.6720001 -1.784 10
8.7180004 -1.814 -1.775 10
9.5380001 -1.975 -1.758 46
6.5279999 -1.3710001 -1.807 34
6.9749999 -1.455 -1.7869999 32
7.5960002 -1.575 -1.794 10
8.2250004 -1.6950001 -1.779 10
8.9899998 -1.8430001 -1.7690001 10
9.8839998 -2.016 -1.755 46
6.6999998 -1.385 -1.8049999 36
7.23 -1.484 -1.801 9
7.802 -1.592 -1.7869999 9
8.493 -1.723 -1.778 10
9.3369999 -1.8839999 -1.774 14
10.207 -2.05 -1.744 50
6.8610001 -1.395 -1.798 37
7.4180002 -1.498 -1.795 9
8.0290003 -1.612 -1.784 10
8.743 -1.745 -1.771 10
9.665 -1.918 -1.772 42
10.51 -2.076 -1.727 27
7.046 -1.409 -1.7970001 35
7.6220002 -1.5140001 -1.791 9
8.2659998 -1.631 -1.779 10
9.0080004 -1.767 -1.7640001 11
9.9090004 -1.934 -1.751 53
11.006 -2.1370001 -1.738 13
7.2069998 -1.416 -1.7869999 35
7.823 -1.527 -1.785 10
8.5139999 -1.651 -1.775 10
9.3039999 -1.793 -1.761 10
10.232 -1.962 -1.742 52
11.463 -2.187 -1.7359999 11
7.3850002 -1.424 -1.779 29
8.0480003 -1.5420001 -1.78 9
8.7740002 -1.67 -1.771 11
9.6090002 -1.819 -1.755 11
10.573 -1.99 -1.7309999 23
11.955 -2.2379999 -1.734 11
7.598 -1.438 -1.778 16
8.2819996 -1.557 -1.776 10
9.0480003 -1.6900001 -1.766 11
9.9980001 -1.8559999 -1.761 18
11.031 -2.036 -1.735 12
12.465 -2.289 -1.73 11
7.862 -1.459 -1.786 10
8.5369997 -1.572 -1.773 10
9.3360004 -1.7079999 -1.76 11
10.357 -1.8839999 -1.757 40
11.504 -2.0810001 -1.7359999 11
13.041 -2.3469999 -1.728 10
8.0909996 -1.47 -1.783 10
8.7980003 -1.587 -1.7690001 11
9.6560001 -1.7309999 -1.758 11
10.6 -1.888 -1.73 16
11.967 -2.119 -1.7309999 11
13.632 -2.401 -1.721 11
8.3249998 -1.48 -1.778 10
9.0550003 -1.598 -1.761 11
9.9560003 -1.745 -1.747 12
11.057 -1.926 -1.734 12
12.493 -2.164 -1.729 10
14.276 -2.46 -1.715 11
8.5740004 -1.49 -1.774 11
9.3570004 -1.614 -1.7589999 11
10.289 -1.763 -1.7410001 12
11.491 -1.957 -1.73 12
13.082 -2.2149999 -1.73 11
14.992 -2.5250001 -1.711 11
8.8260002 -1.498 -1.7690001 11
9.6450005 -1.625 -1.751 12
10.652 -1.7819999 -1.735 13
11.977 -1.992 -1.73 11
13.665 -2.2590001 -1.725 12
15.766 -2.592 -1.705 10
9.0900002 -1.506 -1.7640001 11
9.934 -1.633 -1.7410001 12
11.072 -1.808 -1.735 13
12.505 -2.029 -1.73 11
14.275 -2.302 -1.716 11
16.628 -2.665 -1.7 10
9.3780003 -1.5140001 -1.76 12
10.273 -1.646 -1.7359999 12
11.489 -1.8279999 -1.73 13
13.054 -2.063 -1.728 12
15 -2.3559999 -1.714 10
17.552999 -2.7409999 -1.692 11
9.6680002 -1.5190001 -1.7539999 12
10.643 -1.66 -1.734 12
11.969 -1.853 -1.73 12
13.625 -2.095 -1.722 11
15.715 -2.401 -1.7029999 9
18.556 -2.8180001 -1.681 12
9.9650002 -1.522 -1.7460001 11
11.041 -1.674 -1.7309999 13
12.465 -1.876 -1.728 13
14.229 -2.1259999 -1.715 11
16.535 -2.4549999 -1.697 10
19.787001 -2.9200001 -1.681 14
10.279 -1.525 -1.739 12
11.455 -1.686 -1.727 14
12.985 -1.896 -1.723 12
14.917 -2.1630001 -1.711 11
17.434999 -2.5109999 -1.6900001 11
21.084999 -3.0179999 -1.6720001 16
10.636 -1.53 -1.735 12
11.899 -1.698 -1.725 14
13.566 -1.921 -1.722 12
15.622 -2.1960001 -1.704 9
18.372 -2.5650001 -1.678 12
22.528999 -3.125 -1.6619999 14
11.008 -1.534 -1.7309999 13
12.375 -1.71 -1.723 13
14.154 -1.941 -1.717 12
16.427999 -2.2349999 -1.7 10
19.538 -2.6389999 -1.677 14
24.396 -3.2720001 -1.6670001 9
11.425 -1.538 -1.729 13
12.901 -1.722 -1.721 13
14.796 -1.959 -1.71 11
17.253 -2.266 -1.688 11
20.891001 -2.724 -1.678 16
26.282 -3.402 -1.652 8
11.868 -1.541 -1.728 13
13.44 -1.73 -1.716 13
15.481 -1.977 -1.7029999 6
18.198999 -2.3050001 -1.682 12
22.278999 -2.8010001 -1.67 18
28.4 -3.543 -1.635 19
12.319 -1.541 -1.724 14
14.025 -1.738 -1.714 11
16.247999 -1.997 -1.698 10
19.208 -2.3410001 -1.671 13
23.778999 -2.875 -1.655 12
28.455999 -3.4119999 -1.488 56
12.823 -1.541 -1.723 13
14.629 -1.7410001 -1.707 11
17.033001 -2.01 -1.689 10
20.504999 -2.3989999 -1.675 15
25.815001 -2.9949999 -1.6619999 8
28.273001 -3.2550001 -1.334 63
13.325 -1.536 -1.7180001 12
15.256 -1.7410001 -1.698 11
17.906 -2.0250001 -1.681 12
21.768 -2.4400001 -1.666 17
27.889999 -3.099 -1.654 13
28.136999 -3.1010001 -1.187 80
13.876 -1.531 -1.716 12
15.967 -1.744 -1.694 9
18.837999 -2.0380001 -1.6720001 13
23.298 -2.4960001 -1.665 12
28.281 -3.003 -1.535 48
28.094 -2.957 -1.046 74
14.462 -1.523 -1.712 11
16.714001 -1.7410001 -1.687 10
20.002001 -2.062 -1.673 14
24.837 -2.5350001 -1.65 8
28.124001 -2.8440001 -1.388 78
28.084999 -2.8139999 -0.90799999 38
15.058 -1.508 -1.705 11
17.473 -1.7309999 -1.676 11
21.225 -2.079 -1.669 16
27.181 -2.635 -1.6720001 12
27.951 -2.6830001 -1.244 76
29.051001 -2.7609999 -0.80000001 0
15.713 -1.492 -1.699 9
18.332001 -1.721 -1.6670001 12
22.523001 -2.0899999 -1.6619999 18
28.027 -2.5739999 -1.59 28
27.865999 -2.5309999 -1.108 73
40.951 -3.681 -0.935 1
16.413 -1.472 -1.694 10
19.333 -1.712 -1.663 14
24.068001 -2.1059999 -1.659 13
28 -2.4230001 -1.455 60
27.885 -2.3859999 -0.977 65
46.075001 -3.898 -0.838 12
17.167 -1.448 -1.688 11
20.427999 -1.7 -1.659 15
25.886 -2.128 -1.663 9
27.753 -2.253 -1.312 72
0 0 0 0
32.212002 -2.552 -0.43900001 63
17.921 -1.413 -1.675 12
21.603001 -1.681 -1.652 17
27.599001 -2.118 -1.643 27
27.66 -2.095 -1.181 83
31.608 -2.3629999 -0.81800002 62
31.924 -2.3559999 -0.292 68
18.812 -1.381 -1.671 13
23.066 -1.669 -1.658 18
27.783001 -1.98 -1.528 44
27.580999 -1.938 -1.054 81
31.739 -2.1989999 -0.68099999 60
31.794001 -2.1719999 -0.152 61
19.771999 -1.342 -1.666 15
24.377001 -1.6289999 -1.643 11
27.641001 -1.818 -1.398 68
27.707001 -1.795 -0.93800002 51
31.650999 -2.0190001 -0.54299998 48
31.667 -1.988 -0.016000001 71
20.863001 -1.299 -1.664 16
26.157 -1.601 -1.647 14
27.556999 -1.658 -1.274 62
0 0 0 0
31.403 -1.824 -0.40400001 63
31.646 -1.8099999 0.115 64
22.069 -1.25 -1.665 17
27.455 -1.526 -1.6109999 23
27.443001 -1.4960001 -1.153 76
31.329 -1.676 -0.79500002 54
31.288 -1.643 -0.27500001 68
31.659 -1.632 0.244 68
23.365 -1.1900001 -1.663 13
27.582001 -1.376 -1.503 56
27.364 -1.337 -1.0369999 80
31.136 -1.489 -0.66299999 78
31.268 -1.465 -0.15000001 62
31.773001 -1.457 0.37099999 63
24.818001 -1.1210001 -1.663 9
27.461 -1.211 -1.3839999 78
27.414 -1.181 -0.92799997 44
31.058001 -1.307 -0.53799999 76
31.225 -1.2819999 -0.026000001 72
31.973 -1.2819999 0.498 31
26.495001 -1.044 -1.669 25
27.297001 -1.045 -1.267 74
27.662001 -1.031 -0.82800001 4
31.037001 -1.125 -0.417 69
31.249001 -1.101 0.093000002 72
32.480999 -1.113 0.62900001 1
27.264 -0.91299999 -1.609 26
27.235001 -0.884 -1.158 78
30.754999 -0.96600002 -0.80199999 67
31.011 -0.94300002 -0.30000001 72
31.375 -0.92199999 0.20999999 72
135.757 -3.8570001 3.131 35
27.264 -0.75199997 -1.505 56
27.204 -0.72100002 -1.054 76
30.982 -0.78899997 -0.69199997 78
31.080999 -0.75999999 -0.186 56
31.577999 -0.74000001 0.32699999 69
135.133 -3.0350001 3.6040001 32
27.271 -0.58899999 -1.404 55
27.207001 -0.56 -0.95499998 58
31.132999 -0.60799998 -0.58399999 57
31.079 -0.57499999 -0.075000003 81
31.851 -0.55500001 0.44299999 57
137.272 -2.2590001 4.1430001 14
27.089001 -0.421 -1.296 79
0 0 0 0
30.966999 -0.41800001 -0.47099999 75
31.204 -0.38800001 0.033 73
32.122002 -0.36700001 0.55699998 17
83.792999 -0.87400001 2.813 29
27.033001 -0.25600001 -1.198 63
29.545 -0.249 -0.829 33
31.077999 -0.229 -0.366 70
31.438 -0.2 0.139 79
93.468002 -0.5 1.932 23
83.913002 -0.361 3.096 9
26.959999 -0.089000002 -1.103 71
31.117001 -0.07 -0.76800001 47
31.24 -0.039000001 -0.26499999 59
31.761 -0.0070000002 0.245 74
93.541 0.071999997 2.2360001 54
83.848 0.152 3.362 9
26.914 0.077 -1.012 76
31.250999 0.121 -0.66900003 73
31.382999 0.155 -0.164 73
32.238998 0.191 0.35100001 28
117.629 0.82300001 3.1830001 63
117.939 0.949 5.0970001 29
27.120001 0.24600001 -0.93300003 71
31.597 0.31900001 -0.57700002 61
31.700001 0.352 -0.068000004 68
41.368999 0.50300002 0.57700002 56
117.462 1.554 3.5350001 61
98.306999 1.4 4.5419998 7
28.011 0.43000001 -0.87800002 35
31.753 0.52200001 -0.48300001 55
32.263 0.56400001 0.028000001 34
40.639 0.75099999 0.68900001 58
149.767 2.928 4.9499998 16
116.843 2.404 5.7410002 28
0 0 0 0
32.424999 0.73799998 -0.398 37
39.881001 0.949 0.15000001 56
40.150002 0.99599999 0.79500002 57
41.669998 1.08 1.4960001 11
84.499001 2.277 4.3909998 7
29.549999 0.833 -0.75099999 4
39.813 1.1619999 -0.375 57
39.490002 1.194 0.25999999 53
39.824001 1.2460001 0.89999998 56
41.249001 1.332 1.594 53
120.64 4.0279999 6.5970001 50
33.200001 1.149 -0.75300002 18
39.352001 1.401 -0.264 52
39.259998 1.441 0.36500001 54
39.609001 1.495 1.002 56
40.688 1.579 1.6799999 59
126.722 5.0570002 7.2649999 21
30.881001 1.27 -0.61799997 34
30.819 1.3 -0.125 34
39.070999 1.6900001 0.465 58
39.418999 1.747 1.099 51
40.480999 1.837 1.776 60
0 0 0 0
30.493999 1.456 -0.53100002 33
30.503 1.488 -0.046 56
30.878 1.5369999 0.44400001 3
27.659 1.405 0.838 67
27.598 1.431 1.277 27
0 0 0 0
30.18 1.64 -0.45199999 45
30.330999 1.6799999 0.027000001 49
27.523001 1.552 0.46200001 4
27.49 1.579 0.89899999 71
27.461 1.607 1.335 20
0 0 0 0
27.577999 1.682 -0.34900001 5
30.084 1.865 0.096000001 56
27.403 1.729 0.523 11
27.341 1.7539999 0.95599997 101
40.196999 2.622 2.046 56
0 0 0 0
29.809999 2.0190001 -0.31 59
30.059999 2.0669999 0.162 45
30.566999 2.132 0.64899999 60
39.040001 2.7639999 1.449 54
40.140999 2.8870001 2.1289999 39
0 0 0 0
29.726999 2.2160001 -0.24600001 59
29.906 2.2579999 0.22400001 52
30.539 2.3369999 0.71200001 54
38.946999 3.0220001 1.526 54
40.168999 3.1589999 2.211 17
0 0 0 0
29.639 2.4119999 -0.185 61
29.9 2.4630001 0.28400001 51
30.568001 2.5480001 0.773 50
38.918999 3.286 1.601 55
40.262001 3.4430001 2.2950001 8
0 0 0 0
29.586 2.6110001 -0.12800001 65
29.864 2.664 0.34 56
30.472 2.75 0.82800001 44
38.948002 3.556 1.674 54
40.48 3.74 2.381 2
0 0 0 0
29.589001 2.8139999 -0.075999998 56
30.055 2.8859999 0.39500001 32
30.575001 2.9679999 0.88300002 44
38.936001 3.822 1.7410001 54
122.222 12.132 7.401 15
0 0 0 0
29.615999 3.0209999 -0.026000001 51
29.934999 3.0829999 0.44299999 45
30.662001 3.1889999 0.93699998 38
38.995998 4.0960002 1.806 55
120.269 12.769 7.4770002 34
0 0 0 0
29.546 3.2190001 0.018999999 59
29.976999 3.296 0.49000001 48
30.823 3.4200001 0.98900002 15
39.034 4.3730001 1.868 54
106.704 12.066 6.7919998 30
0 0 0 0
29.660999 3.4400001 0.061999999 43
29.938999 3.5020001 0.53299999 60
31.082001 3.6670001 1.0420001 1
39.133999 4.6570001 1.928 55
97.483002 11.708 6.3429999 30
126.469 15.334 10.23 16
29.704 3.655 0.102 44
30.143999 3.737 0.57599998 54
38.386002 4.7950001 1.336 69
39.248001 4.9439998 1.984 56
96.948997 12.32 6.4310002 31
94.397003 12.103 7.757 15
29.784 3.872 0.139 52
30.285999 3.9660001 0.616 50
38.462002 5.0760002 1.385 65
39.476002 5.2490001 2.043 57
94.606003 12.685 6.3889999 24
93.328003 12.621 7.7779999 43
29.846001 4.092 0.17200001 51
30.546 4.217 0.65399998 47
38.512001 5.3569999 1.4299999 61
39.709 5.5630002 2.099 58
90.896004 12.836 6.2379999 24
92.475998 13.165 7.8080001 37
30.040001 4.3330002 0.204 42
30.893999 4.4840002 0.69300002 6
38.754002 5.6630001 1.476 54
39.904999 5.8730001 2.148 55
89.518997 13.27 6.2290001 30
89.722 13.404 7.6609998 23
30.24 4.579 0.23199999 42
38.271 5.8309999 0.89200002 75
38.797001 5.9489999 1.512 55
40.301998 6.2199998 2.204 17
89.528 13.915 6.3080001 19
89.521004 14.018 7.7220001 17
30.716999 4.8709998 0.259 21
38.374001 6.1209998 0.92400002 54
38.918999 6.244 1.5470001 55
40.567001 6.5539999 2.25 1
91.282997 14.843 6.5029998 11
89.727997 14.694 7.809 21
38.358002 6.362 0.34999999 45
38.66 6.4460001 0.95700002 48
39.285999 6.5879998 1.587 56
89.288002 15.065 5.0110002 19
89.862 15.256 6.4590001 33
91.379997 15.619 8.0120001 25
38.529999 6.6690001 0.37200001 44
38.735001 6.737 0.97899997 48
39.554001 6.9190001 1.62 57
90.431999 15.912 5.1259999 11
89.445 15.832 6.4790001 46
91.369003 16.278 8.0620003 41
38.742001 6.9879999 0.39199999 67
38.969002 7.0630002 1.003 55
40.139 7.3150001 1.6619999 56
95.664001 17.532 5.4650002 23
92.362 17.027 6.7319999 30
92.894997 17.233 8.2390003 20
39.023998 7.3280001 0.40700001 52
39.41 7.4349999 1.027 49
40.806999 7.7360001 1.704 16
95.634003 18.228001 5.4959998 20
92.227997 17.679001 6.7540002 41
93.230003 17.978001 8.3009996 30
39.426998 7.6950002 0.41999999 45
40.008999 7.8429999 1.052 59
0 0 0 0
102.745 20.34 5.9289999 21
102.822 20.465 7.5539999 27
105.052 21.025 9.3789997 6
31.757 6.4320002 0.34200001 33
0 0 0 0
135.405 27.658001 5.6989999 14
97.612 20.030001 5.6440001 7
97.485001 20.108999 7.1729999 26
105.016 21.783001 9.3879995 28
31.292999 6.5679998 0.336 36
154.20599 32.501999 4.0739999 33
105.635 22.355 4.448 12
96.032997 20.417 5.5539999 22
96.097 20.533001 7.073 30
96.683998 20.77 8.6459999 36
30.974001 6.7309999 0.33000001 36
31.615 6.8959999 0.83099997 10
104.341 22.847 4.381 24
95.527 21.01 5.5139999 25
95.494003 21.104 7.0190001 39
96.361 21.41 8.6110001 34
30.631001 6.8860002 0.31900001 42
31.337999 7.0689998 0.81699997 37
97.994003 22.188 4.0939999 10
94.515999 21.487 5.4380002 37
95.538002 21.819 7.0050001 25
95.467003 21.907 8.5129995 33
30.469999 7.0739999 0.30700001 50
31.038 7.23 0.79799998 40
97.139999 22.707001 4.027 36
94.389999 22.149 5.401 22
93.380997 22.009001 6.8189998 34
95.592003 22.643 8.4989996 27
30.374001 7.277 0.29300001 49
30.983 7.4460001 0.78399998 46
0 0 0 0
92.986 22.514999 5.2820001 23
92.43 22.476 6.7129998 42
93.440002 22.822001 8.2690001 35
30.281 7.4819999 0.27399999 51
30.740999 7.619 0.76099998 52
0 0 0 0
92.194 23.014 5.1890001 6
91.980003 23.054001 6.6329999 41
92.753998 23.351999 8.1619997 28
30.193001 7.691 0.25299999 61
30.697001 7.8390002 0.73900002 44
112.136 28.721001 4.4689999 13
91.599998 23.548 5.0999999 32
91.654999 23.655001 6.5549998 33
92.213997 23.902 8.0600004 31
30.195999 7.9180002 0.229 61
30.665001 8.0620003 0.71499997 47
146.66 38.681999 5.7360001 13
93.603996 24.767 5.1430001 27
91.342003 24.26 6.467 23
91.349998 24.363001 7.921 33
30.224001 8.1529999 0.20299999 61
30.719999 8.3070002 0.68900001 53
94.122002 25.525999 3.599 24
93.459 25.431999 5.0560002 12
91.010002 24.855 6.368 20
90.300003 24.756001 7.7579999 21
30.254999 8.3909998 0.17200001 61
30.775999 8.5559998 0.66000003 50
107.869 30.063999 4.0219998 16
93.875 26.243999 4.9879999 9
96.195999 26.987 6.6409998 13
90.738998 25.549999 7.7119999 20
30.399 8.6599998 0.139 50
30.950001 8.8339996 0.63 47
99.383003 28.441 3.598 30
107.03 30.724001 5.5770001 9
90.646004 26.108 6.1659999 22
0 0 0 0
30.691 8.9750004 0.103 36
31.287001 9.1680002 0.59899998 9
0 0 0 0
0 0 0 0
88.848 26.247 5.9429998 6
90.294998 26.77 7.4829998 18
30.865 9.257 0.061999999 55
45.228001 13.59 0.80800003 44
0 0 0 0
88.063004 26.597 4.3759999 19
95.654999 28.979 6.2800002 7
90.344002 27.464001 7.3769999 6
44.306 13.627 0.026000001 51
44.668999 13.762 0.73500001 57
69.899002 21.577999 2.263 21
70.010002 21.667 3.382 23
90.818001 28.184999 5.8410001 6
87.856003 27.360001 7.0619998 11
44.040001 13.879 -0.041000001 47
44.341 13.996 0.662 60
70.389 22.263 2.1730001 68
70.672997 22.403 3.312 25
89.450996 28.434999 5.6240001 16
70.555 22.5 5.5679998 4
43.896 14.169 -0.114 44
44.113998 14.26 0.58700001 58
0 0 0 0
102.42 33.241001 4.6389999 8
88.095001 28.667999 5.4029999 22
0 0 0 0
43.813 14.473 -0.192 39
43.918999 14.528 0.50800002 65
44.799 14.844 1.234 6
94.547997 31.4 4.1240001 13
0 0 0 0
92.970001 31.041 7.0479999 7
36.655998 12.389 -0.229 36
36.999001 12.52 0.359 33
44.650002 15.135 1.151 13
89.581001 30.427 3.7479999 21
88.126999 30.006001 5.105 11
93.181999 31.812 6.9029999 12
36.155998 12.496 -0.29800001 52
36.289001 12.554 0.28299999 47
41.425999 14.352 0.98799998 7
93.569 32.473999 3.74 21
89.147003 31.014999 4.9990001 11
84.644997 29.524 6.1160002 24
35.775002 12.636 -0.368 43
35.914001 12.695 0.207 49
36.653 12.974 0.801 42
94.056999 33.352001 3.5739999 10
0 0 0 0
92.712997 33.028 6.5229998 7
35.519001 12.813 -0.44400001 44
35.661999 12.875 0.12800001 43
36.233002 13.099 0.71499997 52
129.744 46.976002 4.6630001 11
0 0 0 0
0 0 0 0
35.362 13.025 -0.52200001 39
35.499001 13.084 0.048 41
35.903 13.245 0.63 51
0 0 0 0
128.302 47.498001 6.4120002 14
87.647003 32.522999 5.8039999 9
35.301998 13.268 -0.60600001 47
35.342999 13.292 -0.034000002 37
35.651001 13.421 0.54299998 44
67.348999 25.389999 2.1199999 58
67.281998 25.41 3.211 55
88.014999 33.311001 5.6370001 23
29.736 11.402 -0.58499998 2
35.209 13.506 -0.121 49
35.465 13.614 0.454 47
36.502998 14.032 1.063 2
66.872002 25.75 3.0369999 58
87.500999 33.761002 5.4050002 6
28.565001 11.168 -0.63599998 11
35.139 13.743 -0.20999999 46
35.414001 13.859 0.366 37
36.105999 14.146 0.96200001 14
66.463997 26.077999 2.859 53
88.226997 34.686001 5.2379999 18
28.054001 11.179 -0.699 33
35.203999 14.031 -0.303 41
35.324001 14.086 0.27399999 46
36.064999 14.396 0.86900002 12
66.070999 26.409 2.677 60
65.975998 26.422001 3.7539999 9
27.784 11.279 -0.77100003 53
35.269001 14.318 -0.40099999 42
35.368 14.364 0.178 51
36.007 14.636 0.77200001 21
65.676003 26.739 2.4860001 59
65.582001 26.745001 3.562 37
27.827999 11.507 -0.85299999 49
33.660999 13.918 -0.47799999 2
35.466999 14.668 0.079000004 42
36.220001 14.989 0.67799997 8
65.285004 27.051001 2.296 50
65.211998 27.065001 3.3670001 53
27.931 11.759 -0.94 59
33.584 14.134 -0.57499999 30
35.813999 15.076 -0.023 42
64.961998 27.362 1.03 57
64.921997 27.375999 2.1010001 53
64.844002 27.382 3.171 55
28.066 12.022 -1.03 54
28.299999 12.118 -0.57099998 2
0 0 0 0
64.588997 27.674999 0.83700001 64
64.532997 27.676001 1.906 55
64.487999 27.695999 2.9719999 57
28.271999 12.318 -1.126 42
28.169001 12.268 -0.65399998 29
40.533001 17.65 -0.26800001 4
64.238998 27.983999 0.63999999 59
64.178001 27.983 1.704 56
64.111 27.988001 2.7679999 52
28.403 12.584 -1.225 4
28.323999 12.54 -0.74800003 42
39.958 17.688 -0.391 22
63.870998 28.282 0.43700001 63
63.844002 28.291 1.498 59
63.755001 28.284 2.559 54
28.506001 12.836 -1.324 3
28.488001 12.818 -0.847 29
36.772999 16.544001 -0.47799999 13
63.542 28.591999 0.233 63
63.493 28.584999 1.294 61
63.435001 28.591 2.3510001 57
28.632999 13.104 -1.429 6
32.712002 14.957 -1.084 46
32.792999 14.987 -0.53600001 15
63.173 28.870001 0.026000001 63
63.127998 28.871 1.082 58
63.112999 28.889999 2.1400001 55
27.34 12.711 -1.461 5
32.613998 15.148 -1.194 35
32.455002 15.064 -0.64099997 37
62.830002 29.162001 -0.186 51
62.819 29.167999 0.86699998 56
62.771 29.171 1.919 53
25.506001 12.041 -1.456 4
32.262001 15.215 -1.295 17
32.569 15.35 -0.75800002 45
40.479 19.073999 -0.25999999 6
62.481998 29.450001 0.64999998 60
62.441002 29.451 1.702 54
24.120001 11.561 -1.467 5
0 0 0 0
32.189999 15.399 -0.86500001 45
37.318001 17.846001 -0.37200001 3
62.173 29.735001 0.43200001 59
62.088001 29.714001 1.478 58
22.854 11.118 -1.477 5
29.172001 14.172 -1.3890001 5
32.242001 15.651 -0.98500001 45
32.676998 15.853 -0.44299999 1
61.832001 29.999001 0.208 57
61.805 30.002001 1.2539999 55
21.735001 10.728 -1.489 5
27.306999 13.457 -1.403 5
31.841 15.675 -1.0930001 36
32.019001 15.754 -0.55400002 17
61.549999 30.284 -0.016000001 58
61.509998 30.274 1.029 59
20.811001 10.419 -1.508 7
25.49 12.738 -1.408 4
31.649 15.798 -1.207 32
31.643 15.783 -0.66399997 44
61.942001 30.889 -0.244 6
61.923 30.885 0.81099999 3
19.806 10.052 -1.515 11
24.143 12.23 -1.4299999 4
31.344999 15.858 -1.318 21
31.482 15.916 -0.78200001 44
39.117001 19.768999 -0.303 6
63.083 31.886 0.58700001 12
18.927 9.7379999 -1.528 15
22.872 11.744 -1.449 5
0 0 0 0
31.25 16.007999 -0.89899999 43
36.376999 18.625999 -0.42199999 11
62.299 31.896999 0.345 37
18.02 9.3940001 -1.529 14
21.632999 11.254 -1.459 6
27.781 14.428 -1.391 3
31.343 16.26 -1.027 45
32.337002 16.766001 -0.50300002 12
61.858002 32.073002 0.102 55
17.285999 9.1269999 -1.541 13
20.667999 10.89 -1.48 8
25.896 13.621 -1.403 4
31.806999 16.708 -1.17 44
31.504 16.537001 -0.61500001 43
61.853001 32.462002 -0.141 35
16.629 8.8920002 -1.5549999 13
19.643 10.48 -1.49 10
24.257 12.916 -1.415 4
32.192001 17.117001 -1.316 7
31.808001 16.899 -0.74900001 46
58.536999 31.087 -0.36399999 7
15.976 8.6479998 -1.563 11
18.792 10.146 -1.507 14
22.927 12.355 -1.437 4
30.384001 16.348 -1.3710001 4
32.599998 17.523001 -0.90399998 45
36.403 19.559999 -0.37599999 5
15.381 8.427 -1.574 11
17.899 9.7799997 -1.5140001 13
21.681 11.82 -1.451 5
28.214001 15.358 -1.3940001 7
34.075001 18.525999 -1.086 25
33.574001 18.243 -0.486 13
14.792 8.198 -1.58 10
17.143 9.474 -1.526 13
20.722 11.426 -1.476 7
25.892 14.252 -1.388 5
0 0 0 0
0 0 0 0
14.217 7.9689999 -1.5829999 9
16.452999 9.1949997 -1.538 12
19.684999 10.974 -1.489 9
24.226 13.479 -1.404 4
0 0 0 0
0 0 0 0
13.717 7.7729998 -1.591 9
15.834 8.9449997 -1.552 11
18.722 10.549 -1.501 11
22.858999 12.855 -1.426 4
30.007 16.85 -1.341 4
0 0 0 0
13.226 7.5770001 -1.597 8
15.204 8.6809998 -1.561 11
17.851 10.164 -1.511 12
21.615999 12.281 -1.4450001 6
28.370001 16.091 -1.392 3
36.654999 20.768 -1.152 1
12.751 7.381 -1.6 8
14.616 8.4309998 -1.568 10
17.062 9.8140001 -1.522 13
20.528999 11.781 -1.464 5
25.775 14.764 -1.378 3
0 0 0 0
12.344 7.2179999 -1.608 7
14.069 8.1969995 -1.576 9
16.396 9.5240002 -1.538 12
19.497 11.298 -1.48 8
24.195 13.993 -1.403 4
31.497 18.191 -1.267 3
11.908 7.0320001 -1.609 8
13.542 7.967 -1.581 9
15.723 9.2209997 -1.55 11
18.487 10.813 -1.488 9
22.650999 13.222 -1.416 4
29.202 17.021 -1.3049999 2
11.507 6.8610001 -1.6109999 9
13.056 7.7540002 -1.5880001 8
15.107 8.9420004 -1.5599999 11
17.715 10.456 -1.508 12
21.445 12.63 -1.439 5
27.403 16.111 -1.347 3
11.133 6.698 -1.613 9
12.627 7.5669999 -1.596 8
14.549 8.6879997 -1.571 10
16.959999 10.098 -1.523 13
20.306999 12.064 -1.456 5
25.530001 15.139 -1.373 3
10.784 6.5479999 -1.617 10
12.181 7.3639998 -1.599 7
13.971 8.4160004 -1.577 9
16.233 9.7489996 -1.535 12
19.346001 11.589 -1.478 6
23.945 14.316 -1.398 4
10.475 6.415 -1.623 9
11.765 7.1729999 -1.603 8
13.438 8.1619997 -1.581 9
15.553 9.4160004 -1.543 11
18.41 11.116 -1.4910001 10
22.344999 13.465 -1.406 4
10.179 6.2849998 -1.628 10
11.389 7 -1.607 9
12.982 7.947 -1.59 8
14.967 9.132 -1.557 11
17.594 10.704 -1.508 12
21.33 12.95 -1.4400001 5
9.908 6.1669998 -1.6339999 10
11.007 6.8179998 -1.607 9
12.529 7.7290001 -1.595 8
14.414 8.8610001 -1.568 10
16.816999 10.307 -1.52 12
20.101 12.291 -1.451 6
9.6549997 6.0549998 -1.641 9
10.67 6.6589999 -1.6109999 9
12.105 7.5219998 -1.599 7
13.882 8.5950003 -1.576 9
16.080999 9.9259996 -1.529 11
19.177999 11.808 -1.474 7
9.3380003 5.9000001 -1.635 10
10.365 6.5149999 -1.6160001 10
11.703 7.323 -1.604 7
13.334 8.3109999 -1.5779999 9
15.449 9.599 -1.5420001 12
18.198 11.278 -1.482 8
9.0480003 5.756 -1.6289999 23
10.082 6.3800001 -1.622 10
11.322 7.132 -1.607 9
12.893 8.0889997 -1.5880001 8
14.857 9.29 -1.554 11
17.409 10.856 -1.501 10
8.8699999 5.6799998 -1.642 43
9.8269997 6.2589998 -1.63 10
10.971 6.9549999 -1.61 9
12.47 7.8720002 -1.596 7
14.336 9.0190001 -1.567 10
16.639999 10.437 -1.512 11
8.6859999 5.5970001 -1.653 46
9.5620003 6.1279998 -1.6339999 9
10.643 6.7870002 -1.614 10
12.021 7.6329999 -1.596 7
13.764 8.7069998 -1.569 9
15.983 10.081 -1.526 12
8.4899998 5.5029998 -1.658 46
9.3059998 5.9980001 -1.636 10
10.343 6.6329999 -1.619 9
11.653 7.4400001 -1.603 6
13.268 8.4390001 -1.576 9
15.372 9.7460003 -1.54 11
8.3149996 5.421 -1.666 44
9.052 5.8670001 -1.636 11
10.069 6.4910002 -1.625 10
11.265 7.2290001 -1.604 9
12.827 8.1999998 -1.584 8
14.783 9.4189997 -1.55 11
8.1750002 5.3579998 -1.679 29
8.8000002 5.7329998 -1.6339999 33
9.8120003 6.3579998 -1.632 10
10.933 7.0500002 -1.609 9
12.426 7.98 -1.5930001 7
14.278 9.1370001 -1.563 10
7.9569998 5.2410002 -1.674 11
8.6300001 5.6479998 -1.645 49
9.559 6.2220001 -1.636 9
10.63 6.8850002 -1.615 9
12.006 7.743 -1.596 7
13.748 8.835 -1.569 9
7.7779999 5.1469998 -1.675 9
8.441 5.5489998 -1.65 50
9.302 6.0809999 -1.636 9
10.327 6.7160001 -1.618 9
11.607 7.5149999 -1.597 8
13.273 8.5620003 -1.577 9
7.6149998 5.0609999 -1.678 10
8.276 5.4629998 -1.658 49
9.0799999 5.9590001 -1.641 9
10.05 6.5609999 -1.622 10
11.283 7.3330002 -1.605 9
12.816 8.2969999 -1.582 8
7.474 4.9860001 -1.684 10
8.1210003 5.381 -1.6670001 42
8.8030005 5.7969999 -1.633 14
9.7810001 6.4070001 -1.625 19
10.943 7.1350002 -1.607 9
12.423 8.0670004 -1.59 7
7.3260002 4.9039998 -1.687 10
8.0200005 5.3319998 -1.6849999 20
8.6239996 5.698 -1.641 39
9.5970001 6.3060002 -1.6390001 15
10.65 6.9640002 -1.614 10
12.02 7.8270001 -1.5930001 7
7.1939998 4.8309999 -1.691 9
7.7859998 5.1919999 -1.673 10
8.4790001 5.618 -1.653 51
9.3240004 6.1430001 -1.636 10
10.354 6.7880001 -1.6160001 9
11.623 7.5869999 -1.594 9
7.0229998 4.73 -1.6849999 16
7.625 5.098 -1.675 9
8.3109999 5.5209999 -1.659 52
9.1110001 6.0170002 -1.64 9
10.092 6.6300001 -1.6210001 10
11.31 7.3979998 -1.602 9
6.9120002 4.6659999 -1.691 30
7.4879999 5.0180001 -1.6799999 10
8.1389999 5.4180002 -1.663 52
8.8900003 5.8829999 -1.641 10
9.7910004 6.4450002 -1.617 22
10.994 7.2030001 -1.605 9
6.8109999 4.6069999 -1.698 34
7.3520002 4.9359999 -1.683 10
8.0279999 5.3530002 -1.677 36
8.658 5.7379999 -1.637 28
9.6619997 6.369 -1.6390001 21
10.698 7.0180001 -1.61 10
6.6900001 4.533 -1.699 34
7.2189999 4.8540001 -1.6849999 10
7.8569999 5.2459998 -1.676 12
8.5240002 5.6560001 -1.65 49
9.3900003 6.1960001 -1.6339999 10
10.424 6.8449998 -1.614 10
6.5939999 4.474 -1.705 35
7.0770001 4.7639999 -1.684 11
7.6929998 5.1420002 -1.675 10
8.3620005 5.553 -1.655 51
9.1780005 6.0609999 -1.637 9
10.174 6.6849999 -1.619 9
6.4910002 4.408 -1.7079999 33
6.9450002 4.678 -1.684 36
7.5650001 5.0599999 -1.681 10
8.21 5.4549999 -1.661 51
8.9840002 5.9349999 -1.641 9
9.8590002 6.4790001 -1.6109999 17
6.3940001 4.3439999 -1.711 32
6.8590002 4.6230001 -1.693 48
7.428 4.9689999 -1.683 10
8.092 5.3769999 -1.671 42
8.7370005 5.7709999 -1.633 17
9.7349997 6.3969998 -1.631 20
6.336 4.3060002 -1.723 29
6.744 4.5450001 -1.693 48
7.3099999 4.8899999 -1.686 10
7.9850001 5.3049998 -1.682 16
8.5909996 5.6719999 -1.641 45
9.5439997 6.2680001 -1.638 14
6.2680001 4.2579999 -1.7309999 18
6.6550002 4.4829998 -1.699 46
7.1849999 4.803 -1.687 10
7.7779999 5.1630001 -1.671 10
8.474 5.5900002 -1.653 50
9.3059998 6.1059999 -1.635 9
6.1669998 4.1869998 -1.729 8
6.5560002 4.4130001 -1.701 38
7.027 4.6929998 -1.679 26
7.6570001 5.0780001 -1.676 10
8.323 5.4840002 -1.6569999 51
9.1099997 5.9689999 -1.637 9
6.0890002 4.1290002 -1.732 9
6.4660001 4.3470001 -1.704 38
6.9559999 4.6389999 -1.6900001 47
7.5300002 4.987 -1.678 11
8.198 5.3940001 -1.664 46
8.8610001 5.796 -1.627 15
6.0180001 4.0760002 -1.7359999 9
6.4180002 4.3080001 -1.716 32
6.862 4.5689998 -1.694 49
7.4190001 4.9039998 -1.682 10
8.118 5.3299999 -1.679 22
8.7150002 5.6890001 -1.633 35
5.9439998 4.0180001 -1.738 9
6.3649998 4.2639999 -1.726 15
6.7670002 4.4970002 -1.696 45
7.3140001 4.8239999 -1.6849999 10
7.9229999 5.1900001 -1.669 10
8.6219997 5.6139998 -1.648 48
5.8790002 3.9649999 -1.7410001 9
6.2670002 4.1880002 -1.724 9
6.6849999 4.4310002 -1.7 40
7.1459999 4.7010002 -1.673 29
7.8010001 5.0970001 -1.671 10
8.4779997 5.5050001 -1.651 47
5.7969999 3.8989999 -1.738 9
6.2069998 4.1370001 -1.73 10
6.6059999 4.3660002 -1.704 41
7.0890002 4.6490002 -1.6849999 46
7.6900001 5.0079999 -1.675 10
8.3599997 5.4109998 -1.658 47
5.7319999 3.8440001 -1.739 10
6.1329999 4.0749998 -1.7309999 9
6.5479999 4.3140001 -1.712 35
7.006 4.579 -1.6900001 47
7.579 4.9190001 -1.678 11
8.2849998 5.3429999 -1.6720001 28
5.678 3.7950001 -1.742 9
6.0710001 4.02 -1.734 9
6.507 4.2709999 -1.724 16
6.9190001 4.5050001 -1.692 42
7.4759998 4.8330002 -1.6799999 10
8.1029997 5.2049999 -1.663 9
5.6259999 3.7460001 -1.745 9
6.0229998 3.9719999 -1.74 9
6.4109998 4.191 -1.719 9
6.8460002 4.4400001 -1.697 42
7.3210001 4.7129998 -1.669 27
7.994 5.1129999 -1.666 10
5.527 3.665 -1.732 15
5.9180002 3.885 -1.729 10
6.3569999 4.1370001 -1.725 10
6.7649999 4.3670001 -1.698 41
7.2579999 4.651 -1.678 44
7.8860002 5.02 -1.669 10
5.4910002 3.6240001 -1.738 25
5.895 3.8529999 -1.74 9
6.2919998 4.0749998 -1.727 9
6.7259998 4.3210001 -1.709 36
7.1950002 4.5879998 -1.6849999 44
7.7820001 4.928 -1.671 10
5.4580002 3.5840001 -1.744 29
5.809 3.777 -1.732 10
6.2420001 4.0219998 -1.732 9
6.6820002 4.27 -1.7180001 14
7.1220002 4.5170002 -1.689 36
7.698 4.848 -1.675 10
5.4120002 3.5350001 -1.745 28
5.7620001 3.7260001 -1.735 10
6.1830001 3.9619999 -1.733 9
6.6020002 4.1950002 -1.716 10
7.0469999 4.4439998 -1.691 37
7.5190001 4.7080002 -1.658 26
5.3759999 3.4909999 -1.748 29
5.6960001 3.6619999 -1.7309999 27
6.1040001 3.888 -1.727 10
6.5450001 4.1329999 -1.719 10
6.9749999 4.3709998 -1.693 40
7.494 4.6630001 -1.673 43
5.3390002 3.4449999 -1.75 27
5.6560001 3.6129999 -1.733 47
6.0560002 3.8329999 -1.73 11
6.4970002 4.0770001 -1.724 10
6.9559999 4.3299999 -1.707 31
7.427 4.5910001 -1.678 45
5.3070002 3.402 -1.752 26
5.619 3.5650001 -1.7359999 61
6.0370002 3.7950001 -1.74 9
6.4419999 4.0149999 -1.725 10
6.8979998 4.2649999 -1.71 11
7.3670001 4.5219998 -1.683 36
5.2659998 3.352 -1.751 25
5.5799999 3.516 -1.737 43
5.9349999 3.704 -1.724 13
6.3979998 3.9590001 -1.729 10
6.829 4.191 -1.71 10
7.302 4.4489999 -1.686 38
5.2340002 3.3080001 -1.753 24
5.5469999 3.4690001 -1.74 57
5.8959999 3.652 -1.726 37
6.3400002 3.8929999 -1.727 9
6.777 4.1279998 -1.712 10
7.243 4.3790002 -1.689 39
5.217 3.2720001 -1.758 21
5.5170002 3.424 -1.7410001 48
5.8660002 3.605 -1.73 51
6.309 3.8440001 -1.733 10
6.7360001 4.0700002 -1.717 10
7.23 4.336 -1.702 29
5.1989999 3.234 -1.762 12
5.4780002 3.372 -1.74 39
5.8319998 3.5550001 -1.732 55
6.2600002 3.7820001 -1.732 9
6.691 4.0089998 -1.719 10
7.1500001 4.2519999 -1.698 11
5.171 3.1889999 -1.762 9
5.461 3.3329999 -1.745 29
5.7919998 3.5 -1.7309999 59
6.1430001 3.6789999 -1.711 28
6.6409998 3.944 -1.719 10
7.0960002 4.1820002 -1.699 10
5.145 3.145 -1.762 9
5.4299998 3.2839999 -1.745 29
5.77 3.4560001 -1.735 49
6.1360002 3.641 -1.721 39
6.572 3.868 -1.7130001 11
7.0489998 4.1170001 -1.701 10
5.1209998 3.102 -1.762 9
5.4419999 3.2609999 -1.757 17
5.7480001 3.4100001 -1.737 41
6.105 3.589 -1.722 41
6.5619998 3.825 -1.722 10
7.0149999 4.0580001 -1.705 11
5.0960002 3.0569999 -1.761 10
5.3979998 3.2030001 -1.751 9
5.7280002 3.365 -1.74 28
6.0799999 3.539 -1.725 37
6.4889998 3.7449999 -1.7130001 12
6.98 3.9979999 -1.7079999 11
5.0869999 3.0209999 -1.7640001 9
5.3779998 3.1600001 -1.752 9
5.6999998 3.3150001 -1.74 24
6.0549998 3.4890001 -1.727 37
6.4330001 3.675 -1.7079999 30
6.928 3.927 -1.706 10
5.079 2.9849999 -1.767 9
5.355 3.1129999 -1.751 10
5.6999998 3.2809999 -1.747 19
6.026 3.4360001 -1.726 37
6.4330001 3.6370001 -1.717 39
6.8790002 3.859 -1.704 11
5.0679998 2.947 -1.7690001 9
5.3400002 3.0710001 -1.752 10
5.6859999 3.2379999 -1.749 10
6.0110002 3.3900001 -1.729 34
6.3959999 3.5769999 -1.715 37
6.8730001 3.813 -1.711 10
5.0450001 2.901 -1.766 9
5.3239999 3.0280001 -1.752 9
5.677 3.1960001 -1.752 8
5.9990001 3.346 -1.732 33
6.3699999 3.5220001 -1.715 37
6.7789998 3.7179999 -1.696 22
5.0300002 2.859 -1.765 9
5.3210001 2.9920001 -1.756 10
5.652 3.1459999 -1.75 9
6.0009999 3.3080001 -1.738 28
6.3449998 3.467 -1.715 35
6.7789998 3.674 -1.7029999 35
5.0229998 2.822 -1.766 10
5.3080001 2.9489999 -1.756 9
5.6409998 3.102 -1.751 9
5.9809999 3.2579999 -1.738 10
6.342 3.424 -1.72 33
6.7670002 3.6240001 -1.707 41
5.0190001 2.7850001 -1.767 9
5.3000002 2.9089999 -1.756 9
5.6240001 3.0550001 -1.75 10
5.9990001 3.2279999 -1.748 8
6.3299999 3.3759999 -1.722 32
6.7550001 3.573 -1.709 38
5.013 2.747 -1.767 9
5.2930002 2.869 -1.757 10
5.625 3.0179999 -1.753 11
5.9650002 3.1689999 -1.742 10
6.329 3.3329999 -1.726 31
6.7470002 3.523 -1.712 36
5.0100002 2.71 -1.768 9
5.289 2.8299999 -1.758 10
5.605 2.9679999 -1.75 10
5.9580002 3.125 -1.743 9
6.3530002 3.302 -1.7359999 19
6.7249999 3.467 -1.711 37
4.9889998 2.6630001 -1.762 22
5.2880001 2.7920001 -1.758 9
5.6009998 2.927 -1.75 10
5.9419999 3.075 -1.74 10
6.323 3.243 -1.73 10
6.7329998 3.424 -1.716 33
5.0009999 2.6340001 -1.766 25
5.283 2.7509999 -1.758 9
5.5929999 2.8829999 -1.749 10
5.9489999 3.036 -1.744 10
6.3169999 3.1960001 -1.7309999 9
6.7210002 3.3710001 -1.715 34
5.0050001 2.599 -1.768 24
5.2859998 2.7149999 -1.7589999 10
5.605 2.848 -1.7539999 10
5.9450002 2.9920001 -1.744 10
6.3130002 3.148 -1.7309999 10
6.7620001 3.3440001 -1.728 27
5.0050001 2.562 -1.767 24
5.2750001 2.6700001 -1.755 46
5.6059999 2.809 -1.7539999 10
5.9460001 2.95 -1.744 11
6.323 3.108 -1.735 11
6.724 3.277 -1.719 11
5.0110002 2.5280001 -1.768 21
5.2839999 2.6359999 -1.757 48
5.6020002 2.766 -1.752 10
5.947 2.9070001 -1.744 11
6.3150001 3.059 -1.732 10
6.73 3.2320001 -1.721 11
5.0219998 2.4960001 -1.7690001 21
5.2919998 2.6010001 -1.758 45
5.6059999 2.7260001 -1.752 12
5.9429998 2.862 -1.742 11
6.323 3.017 -1.734 11
6.737 3.187 -1.723 10
5.0209999 2.457 -1.767 21
5.3000002 2.5650001 -1.7589999 45
5.5970001 2.681 -1.747 45
5.9520001 2.823 -1.743 11
6.3270001 2.973 -1.734 10
6.7360001 3.1370001 -1.721 10
5.0310001 2.424 -1.767 21
5.3060002 2.529 -1.758 35
5.6199999 2.6500001 -1.751 63
5.9619999 2.783 -1.744 11
6.3299999 2.927 -1.733 10
6.7490001 3.0940001 -1.723 11
5.0370002 2.388 -1.766 22
5.3080001 2.4879999 -1.755 39
5.6269999 2.6099999 -1.751 53
5.9710002 2.743 -1.744 12
6.3499999 2.8889999 -1.735 11
6.7579999 3.0480001 -1.723 11
5.0560002 2.358 -1.768 23
5.3319998 2.4590001 -1.7589999 51
5.6430001 2.575 -1.752 53
5.961 2.6930001 -1.737 42
6.3449998 2.8399999 -1.73 10
6.7740002 3.0050001 -1.723 11
5.0710001 2.326 -1.7690001 26
5.3400002 2.4219999 -1.757 40
5.6490002 2.5350001 -1.749 59
5.9840002 2.6589999 -1.74 57
6.375 2.8050001 -1.735 11
6.789 2.961 -1.723 11
5.0949998 2.2980001 -1.772 24
5.3540001 2.388 -1.757 56
5.6680002 2.5 -1.75 57
5.9990001 2.6199999 -1.739 55
6.3740001 2.7579999 -1.729 12
6.8070002 2.9189999 -1.723 10
5.1170001 2.2679999 -1.774 13
5.3720002 2.3540001 -1.757 48
5.6890001 2.467 -1.751 50
6.02 2.5840001 -1.74 52
6.3829999 2.714 -1.727 34
6.8169999 2.872 -1.721 12
5.1199999 2.2290001 -1.7690001 9
5.381 2.3169999 -1.7539999 51
5.7150002 2.434 -1.753 65
6.039 2.546 -1.739 37
6.4229999 2.6819999 -1.7309999 39
6.8499999 2.835 -1.723 11
5.1479998 2.201 -1.772 9
5.4349999 2.2980001 -1.765 25
5.7340002 2.398 -1.752 59
6.0640001 2.51 -1.739 35
6.4450002 2.6429999 -1.73 37
6.869 2.7909999 -1.721 10
5.1570001 2.165 -1.767 11
5.454 2.263 -1.763 9
5.7579999 2.3640001 -1.752 38
6.0900002 2.4749999 -1.739 44
6.473 2.6040001 -1.73 35
6.8639998 2.737 -1.712 29
5.178 2.1329999 -1.767 12
5.4790001 2.2309999 -1.763 10
5.7909999 2.332 -1.7539999 57
6.1199999 2.4400001 -1.74 55
6.5079999 2.569 -1.732 35
6.927 2.71 -1.719 38
5.2090001 2.1040001 -1.7690001 12
5.4980001 2.1960001 -1.761 11
5.849 2.3110001 -1.763 20
6.1550002 2.4059999 -1.7410001 55
6.5359998 2.53 -1.73 37
6.9619999 2.6700001 -1.719 38
5.2399998 2.076 -1.77 11
5.5310001 2.1659999 -1.762 11
5.8649998 2.2720001 -1.758 12
6.1869998 2.372 -1.7410001 39
6.5679998 2.494 -1.729 37
7.0009999 2.6340001 -1.719 38
5.2740002 2.0480001 -1.772 11
5.5599999 2.1340001 -1.762 10
5.8930001 2.237 -1.757 12
6.2360001 2.3429999 -1.744 41
6.6160002 2.461 -1.7309999 43
7.033 2.592 -1.716 38
5.2930002 2.013 -1.768 11
5.5939999 2.1029999 -1.762 12
5.9180002 2.201 -1.7539999 11
6.2919998 2.3150001 -1.749 13
6.6690001 2.4300001 -1.734 37
7.085 2.5569999 -1.717 38
5.3309999 1.9859999 -1.77 11
5.6240001 2.0710001 -1.76 10
5.9549999 2.1689999 -1.753 12
6.322 2.279 -1.7460001 11
6.7059999 2.3929999 -1.732 36
7.1339998 2.5220001 -1.717 39
5.3559999 1.954 -1.767 11
5.6690001 2.0439999 -1.763 11
5.9949999 2.1370001 -1.753 11
6.3660002 2.2460001 -1.7460001 11
6.7729998 2.365 -1.737 33
7.184 2.4849999 -1.716 42
5.3979998 1.927 -1.7690001 11
5.7030001 2.0120001 -1.761 11
6.0339999 2.105 -1.752 11
6.4070001 2.211 -1.744 11
6.829 2.3329999 -1.738 13
7.2360001 2.4489999 -1.715 36
5.4390001 1.899 -1.77 12
5.7389998 1.98 -1.76 10
6.0879998 2.0769999 -1.755 11
6.4569998 2.1800001 -1.745 11
6.882 2.3 -1.737 12
7.2930002 2.414 -1.714 35
5.4809999 1.872 -1.77 11
5.777 1.949 -1.758 10
6.1259999 2.0439999 -1.752 12
6.5029998 2.1470001 -1.743 11
6.9320002 2.2650001 -1.735 12
7.3800001 2.3889999 -1.719 32
5.5139999 1.841 -1.767 11
5.8270001 1.9220001 -1.7589999 11
6.178 2.0150001 -1.753 12
6.5510001 2.1140001 -1.7410001 11
6.987 2.2320001 -1.734 13
7.448 2.3559999 -1.719 13
5.5599999 1.813 -1.768 10
5.8649998 1.89 -1.756 10
6.2389998 1.988 -1.755 12
6.6139998 2.085 -1.742 11
7.0450001 2.198 -1.732 13
7.5019999 2.3180001 -1.714 11
5.6100001 1.7869999 -1.7690001 10
5.921 1.863 -1.757 10
6.2930002 1.9579999 -1.7539999 12
6.691 2.059 -1.7460001 10
7.118 2.168 -1.732 12
7.5840001 2.2869999 -1.715 13
5.6220002 1.748 -1.757 20
5.9679999 1.834 -1.756 11
6.3410001 1.926 -1.751 11
6.7420001 2.0250001 -1.742 11
7.1760001 2.1340001 -1.729 12
7.6599998 2.2550001 -1.714 13
5.6880002 1.726 -1.762 26
6.027 1.806 -1.756 11
6.402 1.897 -1.751 11
6.8109999 1.997 -1.742 12
7.2529998 2.1040001 -1.729 14
7.73 2.2190001 -1.71 12
5.744 1.7 -1.763 25
6.04 1.766 -1.743 30
6.454 1.865 -1.747 11
6.869 1.9630001 -1.738 12
7.3200002 2.0699999 -1.725 13
7.8330002 2.1919999 -1.712 13
5.796 1.6720001 -1.761 24
6.1269999 1.7460001 -1.75 67
6.526 1.8380001 -1.748 12
6.941 1.934 -1.737 12
7.402 2.04 -1.724 12
7.9310002 2.1630001 -1.712 13
5.8509998 1.6440001 -1.76 25
6.1859999 1.7180001 -1.749 44
6.5539999 1.798 -1.7359999 28
7.0110002 1.902 -1.734 12
7.4970002 2.0120001 -1.724 12
8.0459995 2.1370001 -1.714 12
5.9099998 1.618 -1.7589999 26
6.2579999 1.692 -1.749 46
6.6459999 1.775 -1.74 81
7.0960002 1.874 -1.734 13
7.6100001 1.988 -1.728 11
8.1549997 2.108 -1.7130001 11
5.9710002 1.59 -1.758 24
6.3210001 1.663 -1.747 60
6.7140002 1.745 -1.737 57
7.1259999 1.832 -1.719 24
7.6810002 1.9529999 -1.721 13
8.2620001 2.0780001 -1.711 12
6.0250001 1.561 -1.753 25
6.3969998 1.637 -1.747 55
6.7989998 1.719 -1.737 43
7.2529998 1.812 -1.726 45
7.7919998 1.926 -1.722 13
8.3590002 2.0439999 -1.705 11
6.1030002 1.5369999 -1.755 24
6.4720001 1.609 -1.745 41
6.8839998 1.692 -1.7359999 49
7.3319998 1.781 -1.722 40
7.8920002 1.896 -1.7180001 12
8.4969997 2.0190001 -1.707 11
6.1750002 1.511 -1.755 26
6.5450001 1.582 -1.743 49
6.967 1.663 -1.733 46
7.4380002 1.755 -1.722 40
7.954 1.8559999 -1.705 45
8.6210003 1.99 -1.704 12
6.2529998 1.4859999 -1.7539999 28
6.6240001 1.5549999 -1.7410001 56
7.0640001 1.638 -1.733 59
7.5440001 1.729 -1.721 44
8.1059999 1.836 -1.711 51
8.7539997 1.962 -1.701 12
6.3179998 1.4579999 -1.75 29
6.7220001 1.531 -1.743 52
7.1560001 1.61 -1.7309999 59
7.6479998 1.7 -1.7180001 45
8.2460003 1.812 -1.712 48
8.8999996 1.934 -1.699 13
6.4050002 1.433 -1.75 32
6.8080001 1.5039999 -1.74 40
7.2509999 1.582 -1.727 42
7.7709999 1.675 -1.717 44
8.3690004 1.783 -1.7079999 46
9.026 1.901 -1.691 48
6.4920001 1.408 -1.749 42
6.9109998 1.479 -1.74 46
7.3759999 1.559 -1.73 43
7.8940001 1.648 -1.715 46
8.4989996 1.7539999 -1.7029999 44
9.2030001 1.877 -1.691 49
6.6030002 1.387 -1.753 12
7.0100002 1.4529999 -1.738 39
7.4949999 1.534 -1.729 45
8.033 1.624 -1.716 47
8.6639996 1.7309999 -1.705 51
9.3830004 1.853 -1.6900001 48
6.6960001 1.362 -1.752 12
7.1459999 1.434 -1.744 32
7.618 1.5089999 -1.728 52
8.165 1.598 -1.7130001 48
8.8240004 1.706 -1.7029999 52
9.5740004 1.83 -1.689 49
6.7919998 1.336 -1.75 11
7.276 1.413 -1.747 10
7.7410002 1.483 -1.726 46
8.3280001 1.576 -1.715 49
8.9949999 1.681 -1.702 52
9.7639999 1.804 -1.686 47
6.9039998 1.313 -1.75 12
7.3909998 1.386 -1.745 10
7.927 1.4680001 -1.735 26
8.4770002 1.55 -1.712 46
9.1669998 1.655 -1.698 52
9.9460001 1.774 -1.678 48
7.0120001 1.288 -1.748 12
7.4829998 1.355 -1.7359999 12
8.0450001 1.438 -1.728 11
8.6490002 1.526 -1.712 47
9.3579998 1.631 -1.696 57
10.148 1.747 -1.671 30
7.1290002 1.263 -1.747 12
7.6240001 1.332 -1.737 13
8.1940002 1.413 -1.727 11
8.901 1.515 -1.725 36
9.5509996 1.605 -1.691 60
10.465 1.737 -1.681 14
7.2589998 1.24 -1.747 12
7.7550001 1.306 -1.733 12
8.3470001 1.387 -1.723 11
9.0179996 1.479 -1.71 11
9.7950001 1.585 -1.694 53
10.73 1.715 -1.679 12
7.4169998 1.22 -1.753 10
7.927 1.286 -1.737 11
8.5179996 1.363 -1.722 11
9.2069998 1.454 -1.706 11
10.099 1.574 -1.704 32
11.016 1.6950001 -1.677 13
7.5159998 1.191 -1.744 12
8.0579996 1.258 -1.7309999 11
8.6899996 1.3380001 -1.719 11
9.4239998 1.431 -1.706 12
10.265 1.538 -1.687 12
11.348 1.679 -1.679 13
7.684 1.17 -1.747 11
8.2209997 1.234 -1.729 11
8.8699999 1.313 -1.715 11
9.6269999 1.405 -1.7 12
10.536 1.518 -1.686 12
11.694 1.6619999 -1.6799999 12
7.836 1.146 -1.7460001 11
8.3870001 1.209 -1.726 11
9.0690002 1.289 -1.7130001 12
9.8540001 1.381 -1.697 12
10.828 1.497 -1.6849999 13
12.065 1.646 -1.6799999 13
7.9699998 1.119 -1.74 11
8.5629997 1.184 -1.723 11
9.283 1.265 -1.711 11
10.107 1.358 -1.694 13
11.141 1.476 -1.683 12
12.435 1.626 -1.675 14
8.1260004 1.0930001 -1.7359999 11
8.7639999 1.161 -1.723 11
9.5059996 1.2410001 -1.7079999 12
10.366 1.334 -1.6900001 12
11.494 1.459 -1.684 12
12.857 1.61 -1.673 13
8.3030005 1.069 -1.734 11
8.9610004 1.136 -1.719 11
9.7279997 1.215 -1.702 13
10.666 1.313 -1.688 13
11.856 1.438 -1.681 12
13.303 1.591 -1.669 14
8.493 1.046 -1.732 12
9.1700001 1.1109999 -1.714 12
9.9729996 1.1900001 -1.697 13
10.977 1.29 -1.6849999 13
12.272 1.4220001 -1.682 12
13.797 1.576 -1.665 13
8.677 1.0190001 -1.727 11
9.3959999 1.087 -1.711 11
10.263 1.168 -1.696 13
11.341 1.271 -1.686 13
12.706 1.403 -1.6799999 13
14.345 1.561 -1.6619999 13
8.9029999 0.99699998 -1.728 12
9.6330004 1.061 -1.706 12
10.554 1.1440001 -1.693 12
11.731 1.252 -1.687 13
13.17 1.385 -1.676 12
14.935 1.546 -1.6569999 13
9.1090002 0.97000003 -1.721 12
9.882 1.036 -1.701 11
10.876 1.1210001 -1.6900001 13
12.142 1.232 -1.6849999 13
13.673 1.3660001 -1.673 12
15.583 1.533 -1.652 14
9.3299999 0.94400001 -1.715 43
10.099 1.005 -1.687 38
11.235 1.099 -1.689 13
12.594 1.2130001 -1.684 13
14.229 1.348 -1.669 13
16.284 1.5190001 -1.6440001 14
9.5839996 0.92000002 -1.7130001 43
10.462 0.98699999 -1.694 12
11.633 1.079 -1.689 12
13.079 1.192 -1.681 13
14.812 1.329 -1.661 13
17.084 1.508 -1.637 13
9.8549995 0.89499998 -1.709 45
10.786 0.96200001 -1.6900001 12
12.067 1.058 -1.689 12
13.587 1.171 -1.676 12
15.512 1.3150001 -1.659 13
18.02 1.502 -1.633 12
10.113 0.86699998 -1.7 39
11.167 0.94 -1.6900001 12
12.53 1.0369999 -1.688 12
14.14 1.149 -1.671 13
16.222 1.296 -1.65 13
19.115999 1.501 -1.633 13
10.37 0.838 -1.688 16
11.563 0.91600001 -1.688 14
13.016 1.013 -1.684 12
14.786 1.13 -1.668 12
17.045 1.28 -1.643 10
20.365999 1.502 -1.63 15
10.784 0.81800002 -1.697 13
12.001 0.89300001 -1.688 13
13.545 0.98900002 -1.679 12
15.444 1.107 -1.659 13
18.044001 1.27 -1.642 12
21.808001 1.507 -1.628 17
11.173 0.79400003 -1.696 13
12.497 0.87099999 -1.688 11
14.136 0.96600002 -1.675 14
16.257999 1.09 -1.658 11
19.110001 1.257 -1.6339999 13
23.58 1.522 -1.632 15
11.592 0.76899999 -1.696 12
12.99 0.84500003 -1.683 12
14.756 0.94099998 -1.6670001 13
17.093 1.069 -1.649 11
20.405001 1.251 -1.633 15
25.82 1.552 -1.6440001 24
12.038 0.74400002 -1.6950001 12
13.542 0.81999999 -1.6799999 12
15.485 0.91799998 -1.664 12
18.08 1.051 -1.6440001 12
21.973 1.251 -1.637 17
26.620001 1.4859999 -1.549 32
12.524 0.71799999 -1.692 12
14.136 0.79299998 -1.674 12
16.274 0.89399999 -1.6569999 12
19.252001 1.035 -1.642 14
23.819 1.2539999 -1.64 10
26.653999 1.375 -1.4 66
13.051 0.69099998 -1.6900001 12
14.79 0.76599997 -1.668 12
17.212999 0.87199998 -1.654 11
20.576 1.0190001 -1.638 15
26.121 1.267 -1.651 22
26.639 1.2640001 -1.247 67
13.613 0.66299999 -1.684 12
15.525 0.73900002 -1.6619999 12
18.222 0.847 -1.648 12
22.228001 1.0089999 -1.643 17
26.709 1.186 -1.535 39
26.622 1.154 -1.092 66
14.247 0.634 -1.6799999 12
16.364 0.71100003 -1.6569999 9
19.408001 0.82300001 -1.643 14
24.176001 1 -1.646 11
26.938999 1.089 -1.392 50
26.771999 1.0549999 -0.94300002 48
14.933 0.60399997 -1.673 12
17.318001 0.68199998 -1.652 11
20.844999 0.801 -1.643 15
26.355 0.98799998 -1.642 24
26.674 0.97399998 -1.222 67
0 0 0 0
15.71 0.57300001 -1.668 13
18.364 0.65200001 -1.6440001 12
22.573999 0.77999997 -1.646 16
26.820999 0.90100002 -1.51 56
26.65 0.87199998 -1.062 78
33.228001 1.057 -0.77700001 26
16.608 0.542 -1.665 11
19.6 0.62099999 -1.6390001 14
24.645 0.759 -1.651 11
26.809 0.80199999 -1.352 64
26.861 0.78100002 -0.912 56
33.167999 0.93599999 -0.57999998 0
17.584 0.50700003 -1.6569999 11
21.108999 0.58999997 -1.638 16
26.632 0.722 -1.624 25
26.721001 0.70200002 -1.187 70
29.511 0.75099999 -0.82300001 32
32.402 0.80000001 -0.37 14
18.735001 0.472 -1.653 13
22.945999 0.55900002 -1.642 13
26.813 0.63200003 -1.474 56
26.714001 0.60799998 -1.026 77
32.148998 0.708 -0.70300001 52
32.18 0.68400002 -0.17200001 49
20.069 0.43399999 -1.649 15
25.044001 0.523 -1.641 11
26.806999 0.53899997 -1.3099999 70
27.049 0.523 -0.87300003 27
31.739 0.59100002 -0.498 54
32.187 0.57499999 0.028000001 37
21.753 0.39500001 -1.654 16
26.827999 0.46799999 -1.592 24
26.841999 0.44800001 -1.146 63
0 0 0 0
31.639999 0.48500001 -0.301 63
32.358002 0.47400001 0.229 9
23.733 0.35100001 -1.6569999 12
27.011999 0.38100001 -1.436 53
26.899 0.361 -0.98000002 80
31.52 0.40200001 -0.62400001 58
31.621 0.384 -0.102 72
41.743 0.47999999 0.55800003 1
26.302 0.303 -1.6720001 21
26.943001 0.294 -1.2640001 78
28.503 0.29300001 -0.86199999 30
31.375999 0.303 -0.426 64
31.781 0.287 0.097999997 71
51.68 0.43799999 1.018 36
26.965 0.226 -1.545 36
26.927 0.20999999 -1.0930001 81
31.304001 0.22499999 -0.74800003 67
31.34 0.208 -0.227 70
32.061001 0.19599999 0.30000001 37
93.523003 0.52200001 2.4349999 125
27.013 0.145 -1.378 81
27.000999 0.13 -0.92699999 66
31.174 0.133 -0.54799998 76
31.455 0.118 -0.028999999 67
51.589001 0.168 0.81300002 68
93.530998 0.26199999 3.029 150
26.92 0.066 -1.2029999 73
30.084999 0.057999998 -0.84200001 42
31.190001 0.045000002 -0.35100001 68
31.632 0.030999999 0.17299999 74
93.834999 0.048999999 2.0799999 41
83.834 0.0060000001 3.2620001 14
27.023001 -0.0099999998 -1.035 51
31.097 -0.026000001 -0.66900003 61
31.190001 -0.039999999 -0.149 81
31.98 -0.054000001 0.38100001 49
94.509003 -0.2 2.7079999 25
82.991997 -0.20999999 3.7720001 12
0 0 0 0
31.059 -0.108 -0.46900001 81
31.356001 -0.122 0.050999999 67
0 0 0 0
83.871002 -0.39199999 2.9560001 11
100.56 -0.50800002 5.2360001 7
30.951 -0.176 -0.78600001 63
31.065001 -0.189 -0.266 63
31.580999 -0.20299999 0.25799999 85
93.579002 -0.634 2.3380001 90
83.367996 -0.59299999 3.487 13
88.011002 -0.65499997 5.1659999 56
30.959999 -0.25400001 -0.58399999 76
31.155001 -0.266 -0.064999998 78
31.971001 -0.28299999 0.47 36
83.822998 -0.76599997 2.6429999 39
89.137001 -0.83999997 4.316 15
81.157997 -0.78799999 5.303 13
31.065001 -0.33000001 -0.38299999 54
31.301001 -0.34 0.138 78
83.867996 -0.935 1.785 42
136.817 -1.562 5.2280002 19
88.669998 -1.034 4.8889999 5
81.797997 -0.97399998 5.8979998 38
31.047001 -0.40099999 -0.178 74
31.66 -0.41600001 0.35100001 75
83.837997 -1.12 2.345 29
127.037 -1.723 5.698 21
88.570999 -1.2180001 5.4710002 5
73.646004 -1.029 5.809 45
31.18 -0.47099999 0.027000001 77
32.129002 -0.491 0.56999999 15
137.60699 -2.128 4.7680001 14
84.058998 -1.312 4.3340001 36
82.261002 -1.2970001 5.6409998 36
73.560997 -1.171 6.3000002 45
31.455999 -0.54000002 0.235 72
135.786 -2.3499999 3.3099999 73
137.52699 -2.4000001 5.6890001 19
83.022003 -1.459 4.8460002 5
73.232002 -1.295 5.5240002 30
82.809998 -1.473 7.664 35
31.922001 -0.611 0.454 36
0 0 0 0
136.91299 -2.645 6.5890002 24
82.406998 -1.597 5.3660002 12
73.102997 -1.4220001 6.0110002 64
83.001999 -1.619 8.2469997 37
135.472 -2.8429999 2.826 50
136.91701 -2.882 5.1820002 19
102.046 -2.152 5.599 31
73.100998 -1.543 5.2600002 4
73.231003 -1.548 6.526 36
83.025002 -1.755 8.8260002 45
135.459 -3.082 3.7460001 35
136.841 -3.112 6.1020002 48
82.564003 -1.8789999 5.0970001 5
73.089996 -1.661 5.7610002 45
