# .PCD v0.7 - Point Cloud Data file format
VERSION 0.7
FIELDS x y z intensity
SIZE 4 4 4 4
TYPE F F F F
COUNT 1 1 1 1
WIDTH 1761
HEIGHT 1
VIEWPOINT 0 0 0 1 0 0 0
POINTS 1761
DATA ascii
7.9130001 -1.058 -1.7690001 47
8.5030003 -1.1339999 -1.7690001 12
9.1549997 -1.219 -1.763 12
9.9309998 -1.3200001 -1.762 13
10.845 -1.4400001 -1.761 12
7.2880001 -1.0190001 -1.781 29
7.7529998 -1.081 -1.772 45
8.3059998 -1.155 -1.768 11
8.941 -1.24 -1.765 12
9.6730003 -1.34 -1.763 13
10.533 -1.457 -1.76 13
7.158 -1.0420001 -1.785 29
7.6149998 -1.105 -1.778 49
8.151 -1.1799999 -1.775 11
8.7370005 -1.262 -1.767 12
9.4440002 -1.362 -1.766 13
10.247 -1.475 -1.76 13
7.0310001 -1.064 -1.788 29
7.4590001 -1.126 -1.778 44
7.987 -1.202 -1.778 11
8.5360003 -1.2819999 -1.767 11
9.224 -1.383 -1.768 13
9.9879999 -1.495 -1.763 11
6.9099998 -1.087 -1.79 29
7.3070002 -1.146 -1.776 42
7.8400002 -1.226 -1.7819999 10
8.3660002 -1.3049999 -1.771 11
9.0129995 -1.403 -1.7690001 12
9.75 -1.515 -1.7640001 11
6.8000002 -1.1109999 -1.795 28
7.1659999 -1.1670001 -1.776 28
7.7020001 -1.25 -1.7869999 10
8.2110004 -1.33 -1.776 11
8.8140001 -1.425 -1.77 12
9.5290003 -1.5369999 -1.767 12
6.6859999 -1.133 -1.7970001 28
7.0890002 -1.197 -1.79 13
7.5819998 -1.277 -1.794 11
8.0649996 -1.355 -1.781 11
8.6429996 -1.449 -1.774 11
9.3179998 -1.559 -1.77 13
6.5760002 -1.155 -1.798 30
6.9829998 -1.222 -1.796 11
7.4429998 -1.299 -1.794 11
7.9380002 -1.382 -1.789 12
8.4700003 -1.471 -1.776 12
9.118 -1.581 -1.771 12
6.4689999 -1.177 -1.798 29
6.8509998 -1.242 -1.793 11
7.316 -1.322 -1.7970001 12
7.8039999 -1.406 -1.7920001 11
8.3059998 -1.494 -1.777 12
8.9350004 -1.604 -1.774 12
6.3790002 -1.201 -1.802 29
6.7459998 -1.266 -1.796 10
7.2210002 -1.351 -1.8049999 10
7.6750002 -1.431 -1.796 11
8.1700001 -1.52 -1.783 12
8.7559996 -1.625 -1.775 12
6.2610002 -1.219 -1.7970001 24
6.664 -1.293 -1.803 10
7.0939999 -1.3710001 -1.804 9
7.5510001 -1.455 -1.799 10
8.0270004 -1.543 -1.785 12
8.5740004 -1.645 -1.773 16
6.1919999 -1.2460001 -1.8049999 13
6.5669999 -1.316 -1.8049999 10
6.9720001 -1.392 -1.802 12
7.4289999 -1.479 -1.801 10
7.9180002 -1.573 -1.793 11
8.4040003 -1.665 -1.771 35
6.1220002 -1.272 -1.8099999 10
6.474 -1.339 -1.807 11
6.862 -1.415 -1.802 12
7.302 -1.5 -1.799 13
7.7859998 -1.596 -1.794 11
8.2729998 -1.691 -1.776 38
6.0320001 -1.293 -1.809 9
6.3909998 -1.364 -1.8099999 9
6.763 -1.439 -1.804 11
7.2199998 -1.53 -1.808 10
7.6750002 -1.622 -1.799 10
8.1400003 -1.716 -1.779 38
5.954 -1.316 -1.811 9
6.3099999 -1.3890001 -1.813 9
6.6830001 -1.466 -1.809 10
7.0929999 -1.55 -1.804 10
7.5469999 -1.6440001 -1.798 10
8.0139999 -1.742 -1.7819999 37
5.888 -1.341 -1.8150001 9
6.2160001 -1.41 -1.811 10
6.5929999 -1.49 -1.811 10
7 -1.576 -1.807 12
7.4380002 -1.67 -1.8 11
7.901 -1.7690001 -1.786 36
5.816 -1.365 -1.817 10
6.1339998 -1.433 -1.811 10
6.5089998 -1.515 -1.813 10
6.9000001 -1.6 -1.808 11
7.3600001 -1.702 -1.809 15
7.777 -1.794 -1.786 37
5.7490001 -1.39 -1.819 9
6.0619998 -1.4579999 -1.814 10
6.4239998 -1.539 -1.814 10
6.8140001 -1.626 -1.811 10
7.2459998 -1.724 -1.807 26
7.6589999 -1.818 -1.7869999 39
5.6859999 -1.414 -1.821 9
5.9860001 -1.482 -1.814 10
6.3520002 -1.566 -1.817 9
6.7259998 -1.652 -1.812 11
7.1389999 -1.748 -1.806 38
7.5609999 -1.846 -1.79 39
5.6290002 -1.4400001 -1.825 10
5.921 -1.507 -1.817 10
6.2690001 -1.589 -1.816 10
6.6420002 -1.677 -1.813 10
7.0339999 -1.77 -1.803 36
7.4660001 -1.874 -1.793 38
5.5669999 -1.464 -1.825 10
5.848 -1.53 -1.816 9
6.1919999 -1.613 -1.816 10
6.559 -1.702 -1.813 10
6.9429998 -1.796 -1.804 35
7.3740001 -1.902 -1.795 38
5.5050001 -1.487 -1.826 9
5.7930002 -1.557 -1.819 9
6.1389999 -1.643 -1.822 10
6.494 -1.7309999 -1.817 10
6.8590002 -1.822 -1.8049999 33
7.29 -1.9299999 -1.798 37
5.4520001 -1.512 -1.827 9
5.7379999 -1.584 -1.822 10
6.0650001 -1.6670001 -1.821 10
6.4390001 -1.762 -1.823 12
6.7849998 -1.85 -1.807 33
7.197 -1.956 -1.7970001 41
5.4070001 -1.539 -1.831 10
5.6760001 -1.608 -1.822 9
6.0019999 -1.692 -1.822 9
6.3740001 -1.79 -1.825 24
6.6950002 -1.873 -1.804 43
7.1240001 -1.987 -1.801 42
5.349 -1.562 -1.83 9
5.6269999 -1.635 -1.825 10
5.9429998 -1.7180001 -1.823 9
6.2800002 -1.809 -1.818 31
6.632 -1.903 -1.807 45
7.0489998 -2.016 -1.803 42
5.3000002 -1.587 -1.831 10
5.5799999 -1.6619999 -1.8279999 9
5.8800001 -1.743 -1.822 9
6.2020001 -1.831 -1.814 32
6.573 -1.933 -1.8099999 67
6.9790001 -2.046 -1.8049999 40
5.2540002 -1.613 -1.8329999 9
5.533 -1.689 -1.83 9
5.8340001 -1.772 -1.825 9
6.1479998 -1.86 -1.817 33
6.5139999 -1.9630001 -1.813 62
6.9169998 -2.0769999 -1.808 39
5.2160001 -1.64 -1.836 10
5.4790001 -1.7130001 -1.829 9
5.7909999 -1.802 -1.829 9
6.0970001 -1.888 -1.819 36
6.4619999 -1.993 -1.816 47
6.8509998 -2.1059999 -1.809 37
5.1719999 -1.665 -1.836 10
5.4299998 -1.738 -1.8279999 9
5.756 -1.8329999 -1.835 22
6.04 -1.915 -1.819 62
6.3899999 -2.0179999 -1.813 43
6.7670002 -2.1289999 -1.8049999 32
5.1420002 -1.694 -1.841 9
5.3940001 -1.767 -1.832 9
5.678 -1.851 -1.826 52
5.9819999 -1.941 -1.817 47
6.3449998 -2.05 -1.817 48
6.7069998 -2.1589999 -1.8049999 22
5.098 -1.719 -1.841 9
5.3520002 -1.793 -1.8329999 9
5.6360002 -1.8789999 -1.827 63
5.948 -1.973 -1.822 69
6.3000002 -2.082 -1.8200001 56
6.6919999 -2.2030001 -1.817 9
5.0630002 -1.7460001 -1.842 8
5.3099999 -1.8200001 -1.8329999 9
5.5960002 -1.9069999 -1.829 57
5.9029999 -2.0020001 -1.823 57
6.2519999 -2.112 -1.821 52
6.632 -2.2320001 -1.816 9
5.0359998 -1.775 -1.846 9
5.289 -1.853 -1.84 16
5.5489998 -1.933 -1.8279999 63
5.8600001 -2.0309999 -1.824 61
6.198 -2.1389999 -1.819 52
6.5879998 -2.2650001 -1.819 9
4.9990001 -1.8 -1.846 9
5.244 -1.877 -1.8380001 37
5.506 -1.96 -1.827 66
5.8140001 -2.0580001 -1.823 74
6.1529999 -2.1689999 -1.8200001 49
6.5440001 -2.2980001 -1.8200001 10
4.9629998 -1.825 -1.846 9
5.1939998 -1.899 -1.8329999 40
5.474 -1.99 -1.829 69
5.7880001 -2.0929999 -1.8279999 58
6.0819998 -2.1889999 -1.811 27
6.5050001 -2.332 -1.822 9
4.928 -1.851 -1.845 9
5.1750002 -1.931 -1.8380001 49
5.4419999 -2.0190001 -1.831 75
5.7519999 -2.1229999 -1.829 74
6.0949998 -2.2390001 -1.827 10
6.4650002 -2.365 -1.824 9
4.927 -1.8890001 -1.8559999 15
5.1479998 -1.961 -1.84 48
5.414 -2.05 -1.8329999 77
5.723 -2.155 -1.831 71
6.0840001 -2.28 -1.836 8
6.4390001 -2.404 -1.8279999 9
4.8790002 -1.908 -1.849 21
5.1170001 -1.988 -1.84 50
5.3839998 -2.079 -1.8329999 73
5.6960001 -2.188 -1.8329999 64
6.046 -2.312 -1.836 9
6.4070001 -2.4389999 -1.83 9
4.8439999 -1.932 -1.847 22
5.0939999 -2.0179999 -1.842 50
5.3579998 -2.1099999 -1.835 90
5.6570001 -2.2149999 -1.831 54
6.0079999 -2.342 -1.834 9
6.3639998 -2.47 -1.8279999 9
4.8189998 -1.96 -1.847 20
5.0689998 -2.0469999 -1.8430001 56
5.3330002 -2.1400001 -1.836 88
5.6149998 -2.2409999 -1.827 18
5.9829998 -2.3759999 -1.836 9
6.3460002 -2.5090001 -1.832 8
4.8010001 -1.989 -1.85 22
5.0510001 -2.0780001 -1.846 48
5.3119998 -2.1719999 -1.8380001 84
5.6300001 -2.289 -1.841 8
5.967 -2.414 -1.84 8
6.3200002 -2.5450001 -1.8329999 9
4.7740002 -2.0150001 -1.848 21
5.0320001 -2.109 -1.847 51
5.2859998 -2.2019999 -1.8380001 66
5.605 -2.3210001 -1.841 8
5.9460001 -2.4489999 -1.842 8
6.2909999 -2.5799999 -1.8329999 8
4.7589998 -2.046 -1.851 20
5.0089998 -2.1370001 -1.847 55
5.2690001 -2.234 -1.84 62
5.5799999 -2.352 -1.841 9
5.9219999 -2.483 -1.842 9
6.3070002 -2.632 -1.845 8
4.7389998 -2.073 -1.85 22
4.9899998 -2.1670001 -1.848 59
5.244 -2.263 -1.8380001 18
5.572 -2.3900001 -1.845 8
5.908 -2.5209999 -1.844 9
6.256 -2.6559999 -1.837 8
4.7319999 -2.1070001 -1.855 22
4.974 -2.198 -1.849 58
5.2600002 -2.309 -1.851 9
5.559 -2.4260001 -1.847 8
5.8969998 -2.559 -1.847 8
6.2399998 -2.6949999 -1.8380001 9
4.7140002 -2.135 -1.855 27
4.961 -2.23 -1.85 60
5.2410002 -2.3399999 -1.85 8
5.5380001 -2.457 -1.847 8
5.9089999 -2.6070001 -1.857 7
6.256 -2.747 -1.848 10
4.697 -2.1630001 -1.854 23
4.9419999 -2.2590001 -1.849 65
5.2270002 -2.372 -1.851 7
5.5250001 -2.4920001 -1.847 8
5.8870001 -2.641 -1.855 7
6.244 -2.7869999 -1.849 22
4.684 -2.1919999 -1.855 40
4.9200001 -2.2850001 -1.846 20
5.2249999 -2.4100001 -1.855 8
5.5110002 -2.526 -1.847 7
5.881 -2.6800001 -1.857 7
6.2059999 -2.8139999 -1.842 26
4.677 -2.224 -1.857 35
4.9330001 -2.3280001 -1.8559999 7
5.217 -2.444 -1.857 8
5.5050001 -2.5639999 -1.849 8
5.8470001 -2.707 -1.85 8
6.1939998 -2.8529999 -1.841 27
4.6669998 -2.2550001 -1.858 39
4.9190001 -2.358 -1.855 7
5.211 -2.4790001 -1.858 8
5.546 -2.622 -1.8660001 7
5.836 -2.743 -1.849 8
6.1820002 -2.891 -1.84 27
4.6599998 -2.286 -1.859 27
4.9130001 -2.391 -1.8559999 8
5.2020001 -2.5139999 -1.858 8
5.5190001 -2.6489999 -1.86 6
5.8520002 -2.793 -1.857 17
6.1669998 -2.927 -1.8380001 30
4.6469998 -2.3139999 -1.857 14
4.9039998 -2.4219999 -1.8559999 7
5.2010002 -2.55 -1.86 7
5.526 -2.6919999 -1.864 7
5.8260002 -2.8210001 -1.85 26
6.1680002 -2.971 -1.839 31
4.6659999 -2.3570001 -1.868 7
4.9120002 -2.461 -1.8609999 7
5.1999998 -2.5869999 -1.862 7
5.54 -2.737 -1.8710001 7
5.8049998 -2.8510001 -1.844 28
6.1719999 -3.0150001 -1.84 31
4.6609998 -2.388 -1.868 7
4.9130001 -2.4960001 -1.863 7
5.2059999 -2.6259999 -1.865 7
5.5300002 -2.77 -1.868 7
5.816 -2.895 -1.848 28
6.1880002 -3.0639999 -1.845 32
4.6539998 -2.418 -1.867 7
4.9109998 -2.53 -1.863 7
5.2010002 -2.6589999 -1.864 8
5.5110002 -2.7980001 -1.862 9
5.8179998 -2.9349999 -1.848 28
6.1859999 -3.1040001 -1.8430001 31
4.6620002 -2.454 -1.8710001 7
4.9099998 -2.563 -1.863 7
5.2030001 -2.6949999 -1.865 7
5.5019999 -2.8299999 -1.858 21
5.8169999 -2.974 -1.846 32
6.1760001 -3.1400001 -1.8380001 27
4.658 -2.484 -1.869 7
4.9109998 -2.5969999 -1.864 8
5.2080002 -2.733 -1.865 7
5.493 -2.862 -1.853 26
5.8260002 -3.017 -1.847 33
6.1690001 -3.1760001 -1.8329999 14
4.6609998 -2.5179999 -1.87 7
4.915 -2.632 -1.864 7
5.2470002 -2.7880001 -1.878 6
5.4990001 -2.901 -1.853 26
5.8390002 -3.0599999 -1.848 34
6.2519999 -3.2590001 -1.854 7
4.6630001 -2.55 -1.87 7
4.928 -2.671 -1.868 7
5.2290001 -2.812 -1.869 8
5.5120001 -2.9430001 -1.855 25
5.8509998 -3.1040001 -1.848 35
6.2779999 -3.3110001 -1.857 8
4.6669998 -2.5829999 -1.87 7
4.9219999 -2.7 -1.863 8
5.2389998 -2.8510001 -1.87 20
5.5229998 -2.983 -1.854 31
5.8639998 -3.1470001 -1.848 37
6.2839999 -3.3529999 -1.853 8
4.6680002 -2.6129999 -1.869 7
4.9450002 -2.744 -1.869 7
5.2259998 -2.8759999 -1.862 27
5.5339999 -3.023 -1.854 31
5.8520002 -3.1760001 -1.84 26
6.3060002 -3.402 -1.854 8
4.6869998 -2.6530001 -1.873 7
5.0009999 -2.806 -1.887 6
5.237 -2.914 -1.8609999 27
5.539 -3.0599999 -1.851 30
5.9299998 -3.253 -1.858 7
6.3400002 -3.4579999 -1.857 8
4.6919999 -2.6849999 -1.872 7
4.9590001 -2.812 -1.867 8
5.2470002 -2.951 -1.86 29
5.5669999 -3.108 -1.854 31
5.9590001 -3.3039999 -1.86 7
6.349 -3.4990001 -1.852 6
4.697 -2.7160001 -1.869 7
4.9879999 -2.858 -1.873 16
5.2659998 -2.9920001 -1.8609999 43
5.5830002 -3.1489999 -1.853 34
5.9850001 -3.352 -1.8609999 7
6.3920002 -3.559 -1.8559999 7
4.7160001 -2.7539999 -1.872 7
4.9780002 -2.881 -1.863 25
5.2810001 -3.0309999 -1.86 46
5.5949998 -3.1860001 -1.85 26
6.0120001 -3.4000001 -1.8609999 7
6.4239998 -3.612 -1.8559999 7
4.7280002 -2.789 -1.8710001 7
4.9879999 -2.914 -1.8609999 25
5.2989998 -3.0699999 -1.859 42
5.6360002 -3.2409999 -1.8559999 10
6.0450001 -3.4519999 -1.863 7
6.4580002 -3.664 -1.8559999 8
4.7490001 -2.8269999 -1.874 7
5.013 -2.9560001 -1.863 25
5.3210001 -3.1110001 -1.859 42
5.697 -3.3050001 -1.867 7
6.0780001 -3.5020001 -1.863 7
6.5089998 -3.727 -1.86 14
4.79 -2.8770001 -1.883 14
5.0359998 -2.9960001 -1.864 36
5.3509998 -3.1559999 -1.8609999 42
5.7340002 -3.3559999 -1.869 7
6.1160002 -3.5539999 -1.863 7
6.5430002 -3.7780001 -1.857 25
4.7909999 -2.902 -1.876 22
5.066 -3.04 -1.867 38
5.369 -3.1930001 -1.858 31
5.7589998 -3.398 -1.867 7
6.158 -3.608 -1.865 7
6.566 -3.823 -1.851 28
4.8000002 -2.931 -1.87 24
5.0869999 -3.076 -1.865 33
5.3909998 -3.2320001 -1.855 16
5.7909999 -3.444 -1.8660001 7
6.1950002 -3.6589999 -1.863 7
6.6209998 -3.8859999 -1.852 28
4.822 -2.9679999 -1.87 23
5.118 -3.119 -1.8660001 40
5.4759998 -3.3080001 -1.873 7
5.8330002 -3.4960001 -1.867 7
6.257 -3.723 -1.868 7
6.677 -3.948 -1.853 27
4.8530002 -3.0079999 -1.872 22
5.151 -3.1619999 -1.867 32
5.5110002 -3.3529999 -1.873 6
5.8730001 -3.5450001 -1.867 6
6.2979999 -3.7739999 -1.8660001 21
6.7150002 -3.9990001 -1.848 30
4.8769999 -3.0439999 -1.87 24
5.1799998 -3.2019999 -1.8660001 29
5.5479999 -3.3989999 -1.873 6
5.9180002 -3.596 -1.867 7
6.3119998 -3.8080001 -1.855 29
6.7670002 -4.0560002 -1.846 31
4.908 -3.0840001 -1.8710001 24
5.1999998 -3.2349999 -1.8609999 24
5.5869999 -3.4449999 -1.872 6
5.9660001 -3.6489999 -1.867 7
6.3670001 -3.8659999 -1.855 29
6.7839999 -4.092 -1.8329999 21
4.9369998 -3.1210001 -1.869 23
5.2940001 -3.3139999 -1.881 7
5.6290002 -3.4920001 -1.872 7
6.0120001 -3.6989999 -1.8660001 7
6.434 -3.9300001 -1.857 27
6.9349999 -4.2080002 -1.855 7
4.9770002 -3.164 -1.8710001 21
5.3280001 -3.3540001 -1.8789999 7
5.671 -3.5380001 -1.87 7
6.0869999 -3.766 -1.873 13
6.4920001 -3.987 -1.8559999 29
7.0029998 -4.2729998 -1.853 7
5.0170002 -3.2060001 -1.872 23
5.362 -3.3929999 -1.876 6
5.7199998 -3.5869999 -1.87 7
6.1209998 -3.8069999 -1.865 28
6.5510001 -4.0450001 -1.854 35
7.0700002 -4.3369999 -1.85 7
5.0489998 -3.243 -1.87 19
5.4169998 -3.444 -1.8789999 7
5.777 -3.6400001 -1.872 7
6.1599998 -3.8499999 -1.858 30
6.5910001 -4.0890002 -1.845 27
7.1539998 -4.4089999 -1.85 6
5.092 -3.2850001 -1.87 9
5.4520001 -3.4820001 -1.874 7
5.823 -3.6860001 -1.868 7
6.223 -3.9070001 -1.858 30
6.6810002 -4.1630001 -1.849 10
7.2410002 -4.4819999 -1.85 6
5.1890001 -3.3610001 -1.8890001 7
5.506 -3.5309999 -1.875 7
5.9169998 -3.7609999 -1.8789999 8
6.296 -3.9690001 -1.859 30
6.7940001 -4.2509999 -1.858 7
7.3390002 -4.5609999 -1.851 6
5.2360001 -3.404 -1.888 7
5.5549998 -3.576 -1.873 6
5.9590001 -3.8010001 -1.873 23
6.3590002 -4.0229998 -1.857 33
6.875 -4.3169999 -1.857 6
7.4369998 -4.6389999 -1.85 7
5.2740002 -3.4400001 -1.8839999 6
5.618 -3.628 -1.875 7
5.9949999 -3.8369999 -1.863 31
6.4450002 -4.0910001 -1.859 33
6.9549999 -4.381 -1.854 5
7.5219998 -4.7069998 -1.845 7
5.3200002 -3.4809999 -1.881 6
5.6760001 -3.6760001 -1.874 7
6.053 -3.885 -1.859 31
6.4850001 -4.1279998 -1.847 21
7.0500002 -4.454 -1.855 6
7.6290002 -4.7880001 -1.844 7
5.3800001 -3.5280001 -1.882 7
5.7350001 -3.724 -1.872 6
6.1279998 -3.9430001 -1.86 31
6.6139998 -4.2199998 -1.86 6
7.1399999 -4.5219998 -1.852 6
7.7420001 -4.8709998 -1.842 8
5.4349999 -3.572 -1.881 6
5.8200002 -3.7869999 -1.877 15
6.2030001 -4 -1.859 34
6.7030001 -4.2859998 -1.859 6
7.2540002 -4.6040001 -1.854 6
7.8600001 -4.9559999 -1.84 7
5.4980001 -3.6199999 -1.881 7
5.8670001 -3.8239999 -1.869 26
6.2870002 -4.0609999 -1.86 37
6.7979999 -4.355 -1.859 6
7.3530002 -4.6750002 -1.85 6
7.9949999 -5.0500002 -1.841 7
5.5630002 -3.6670001 -1.88 7
5.9169998 -3.862 -1.8609999 30
6.355 -4.1100001 -1.854 32
6.8870001 -4.4180002 -1.8559999 6
7.4699998 -4.756 -1.85 7
8.1330004 -5.1440001 -1.84 7
5.6240001 -3.711 -1.877 6
5.9910002 -3.914 -1.86 29
6.4250002 -4.1589999 -1.848 13
6.9970002 -4.4920001 -1.857 6
7.5910001 -4.8379998 -1.849 7
8.2840004 -5.2449999 -1.841 7
5.7119999 -3.7709999 -1.882 7
6.073 -3.9690001 -1.859 28
6.5749998 -4.2589998 -1.863 6
7.099 -4.5609999 -1.854 6
7.7059999 -4.914 -1.844 7
8.4490004 -5.3520002 -1.842 7
5.789 -3.822 -1.882 21
6.1690001 -4.033 -1.8609999 36
6.6719999 -4.323 -1.862 6
7.2259998 -4.6430001 -1.8559999 6
7.8439999 -5.0029998 -1.844 7
8.592 -5.4439998 -1.837 7
5.836 -3.852 -1.87 25
6.2579999 -4.0900002 -1.86 38
6.7779999 -4.3899999 -1.8609999 6
7.349 -4.7210002 -1.855 7
7.9879999 -5.0949998 -1.8430001 7
8.7749996 -5.559 -1.8380001 7
5.908 -3.8970001 -1.8660001 26
6.3210001 -4.1290002 -1.85 29
6.8800001 -4.454 -1.859 7
7.4580002 -4.789 -1.85 7
8.1479998 -5.1939998 -1.844 7
8.9530001 -5.6690001 -1.836 7
5.9850001 -3.944 -1.863 26
6.454 -4.211 -1.859 7
7.0019999 -4.5279999 -1.859 6
7.5939999 -4.8709998 -1.848 6
8.3039999 -5.2880001 -1.841 7
9.1479998 -5.7880001 -1.834 7
6.086 -4.0050001 -1.865 26
6.5780001 -4.2859998 -1.864 6
7.1139998 -4.5949998 -1.8559999 7
7.7259998 -4.9499998 -1.845 7
8.4709997 -5.388 -1.84 7
9.3629999 -5.9159999 -1.836 7
6.1820002 -4.0609999 -1.864 27
6.6830001 -4.348 -1.862 7
7.2490001 -4.6739998 -1.8559999 7
7.8769999 -5.0380001 -1.844 7
8.6490002 -5.4920001 -1.839 7
9.6440001 -6.0840001 -1.846 17
6.2750001 -4.1129999 -1.8609999 26
6.7870002 -4.4060001 -1.858 6
7.368 -4.7410002 -1.852 7
8.0340004 -5.1290002 -1.8430001 7
8.8479996 -5.6069999 -1.84 7
9.8999996 -6.2340002 -1.849 46
6.3509998 -4.1529999 -1.852 15
6.9060001 -4.4720001 -1.8559999 6
7.5110002 -4.8210001 -1.851 7
8.2119999 -5.23 -1.845 6
9.033 -5.711 -1.835 7
10.08 -6.3319998 -1.835 54
6.5149999 -4.2470002 -1.8660001 6
7.0289998 -4.539 -1.854 6
7.6529999 -4.8990002 -1.848 7
8.3870001 -5.3270001 -1.842 7
9.2620001 -5.8400002 -1.837 7
10.297 -6.4510002 -1.826 34
6.6290002 -4.3070002 -1.865 6
7.1669998 -4.6129999 -1.854 6
7.796 -4.9749999 -1.844 7
8.5579996 -5.4180002 -1.8380001 7
9.5310001 -5.9910002 -1.844 16
10.606 -6.625 -1.83 7
6.744 -4.3660002 -1.862 6
7.3150001 -4.6919999 -1.855 6
7.9650002 -5.0650001 -1.844 7
8.7690001 -5.5320001 -1.84 7
9.783 -6.1290002 -1.845 47
10.926 -6.802 -1.8329999 7
6.8699999 -4.4310002 -1.8609999 6
7.4450002 -4.756 -1.85 7
8.1459999 -5.1599998 -1.845 7
8.974 -5.6409998 -1.839 7
9.9910002 -6.2360001 -1.836 54
11.23 -6.9660001 -1.83 6
7 -4.4949999 -1.86 6
7.5999999 -4.835 -1.849 7
8.3330002 -5.256 -1.844 7
9.2180004 -5.77 -1.842 9
10.157 -6.3140001 -1.8150001 18
11.536 -7.1259999 -1.822 7
7.1389999 -4.5630002 -1.858 6
7.7449999 -4.9050002 -1.844 7
8.5150003 -5.3460002 -1.841 7
9.5190001 -5.9320002 -1.854 37
10.572 -6.5430002 -1.837 7
11.879 -7.3060002 -1.818 6
7.29 -4.6360002 -1.858 6
7.9099998 -4.9840002 -1.841 7
8.71 -5.4429998 -1.8380001 7
9.684 -6.006 -1.837 60
10.863 -6.691 -1.8329999 6
12.256 -7.5019999 -1.816 7
7.4369998 -4.704 -1.8559999 6
8.092 -5.072 -1.841 7
8.9399996 -5.5570002 -1.84 7
9.8660002 -6.0869999 -1.821 35
11.182 -6.8530002 -1.831 7
12.683 -7.7249999 -1.816 8
7.5749998 -4.7639999 -1.849 7
8.2930002 -5.1690001 -1.842 7
9.2270002 -5.7049999 -1.851 28
10.246 -6.2859998 -1.839 7
11.504 -7.0110002 -1.826 6
13.144 -7.9629998 -1.817 8
7.743 -4.8400002 -1.848 6
8.4809999 -5.2550001 -1.839 7
9.408 -5.7820001 -1.8380001 62
10.531 -6.4250002 -1.836 7
11.84 -7.1750002 -1.819 6
13.692 -8.2469997 -1.823 8
7.9120002 -4.915 -1.845 7
8.6809998 -5.3449998 -1.836 7
9.5799999 -5.8509998 -1.822 44
10.837 -6.5710001 -1.834 8
12.188 -7.3410001 -1.811 7
14.223 -8.5159998 -1.824 9
8.0979996 -4.9970002 -1.845 7
8.9759998 -5.4899998 -1.85 19
9.9200001 -6.02 -1.835 7
11.14 -6.711 -1.8279999 6
12.668 -7.5819998 -1.818 8
14.764 -8.783 -1.8200001 10
8.2969999 -5.0840001 -1.845 7
9.1309996 -5.5469999 -1.834 50
10.223 -6.1609998 -1.837 8
11.463 -6.8590002 -1.822 6
13.106 -7.7909999 -1.8150001 8
15.328 -9.059 -1.813 11
8.4989996 -5.1700001 -1.8430001 7
9.2840004 -5.5999999 -1.8150001 37
10.511 -6.289 -1.834 8
11.827 -7.026 -1.819 6
13.66 -8.0629997 -1.823 9
15.95 -9.3610001 -1.807 9
8.7089996 -5.257 -1.841 7
9.6239996 -5.7600002 -1.83 8
10.817 -6.4239998 -1.831 7
12.197 -7.1929998 -1.813 7
14.236 -8.3409996 -1.827 9
16.645 -9.698 -1.803 8
9.0209999 -5.4029999 -1.858 20
9.9069996 -5.8829999 -1.831 7
11.147 -6.5689998 -1.829 6
12.621 -7.3860002 -1.812 7
14.759 -8.5819998 -1.821 10
17.408001 -10.064 -1.8 6
9.1190004 -5.4169998 -1.8279999 11
10.203 -6.0100002 -1.831 8
11.486 -6.7140002 -1.824 6
13.122 -7.6170001 -1.816 8
15.334 -8.8459997 -1.814 10
18.278999 -10.484 -1.8 6
9.408 -5.5409999 -1.836 7
10.499 -6.132 -1.83 7
11.832 -6.8579998 -1.818 6
13.663 -7.8649998 -1.822 9
15.928 -9.1120005 -1.8049999 9
19.174 -10.907 -1.795 5
9.6709995 -5.645 -1.835 7
10.804 -6.2550001 -1.826 7
12.195 -7.007 -1.811 7
14.166 -8.0839996 -1.818 9
16.636 -9.4350004 -1.804 8
20.146999 -11.363 -1.788 4
9.9309998 -5.744 -1.832 7
11.122 -6.381 -1.821 6
12.633 -7.1939998 -1.812 7
14.716 -8.3240004 -1.816 9
17.364 -9.7609997 -1.7970001 7
21.236 -11.872 -1.781 4
10.248 -5.8720002 -1.835 7
11.46 -6.513 -1.817 6
13.127 -7.4050002 -1.816 8
15.353 -8.6029997 -1.816 10
18.243999 -10.161 -1.798 6
22.535999 -12.483 -1.781 4
10.543 -5.9819999 -1.832 7
11.84 -6.664 -1.816 6
13.643 -7.6230001 -1.818 8
15.944 -8.8500004 -1.808 8
19.114 -10.546 -1.7920001 5
23.834 -13.079 -1.77 4
10.833 -6.085 -1.826 6
12.215 -6.8070002 -1.811 7
14.184 -7.8470001 -1.8200001 9
16.652 -9.151 -1.806 8
20.079 -10.969 -1.786 5
25.392 -13.797 -1.766 4
11.179 -6.2140002 -1.825 6
12.64 -6.9710002 -1.8099999 7
14.756 -8.0799999 -1.819 10
17.381001 -9.4549999 -1.801 8
21.250999 -11.492 -1.788 4
26.966 -14.504 -1.748 4
11.531 -6.342 -1.824 6
13.091 -7.1440001 -1.808 8
15.326 -8.3039999 -1.813 10
18.204 -9.7989998 -1.7970001 6
22.478001 -12.029 -1.784 4
28.660999 -15.256 -1.725 4
11.897 -6.4710002 -1.821 6
13.57 -7.3249998 -1.807 8
15.937 -8.5419998 -1.808 9
19.030001 -10.133 -1.788 6
23.709 -12.551 -1.77 4
31.225 -16.444 -1.735 3
12.262 -6.5949998 -1.8150001 7
14.119 -7.5359998 -1.8099999 9
16.584 -8.7889996 -1.801 9
19.98 -10.521 -1.783 4
25.441 -13.319 -1.7819999 4
33.198002 -17.289 -1.693 1
12.699 -6.7509999 -1.8150001 7
14.699 -7.7550001 -1.812 9
17.341999 -9.085 -1.799 10
21.08 -10.974 -1.781 4
26.83 -13.888 -1.756 4
35.233002 -18.142 -1.6390001 1
13.135 -6.9000001 -1.813 8
15.256 -7.954 -1.808 10
18.127001 -9.3859997 -1.7970001 9
22.209 -11.426 -1.774 4
28.35 -14.503 -1.726 4
0 0 0 0
13.606 -7.0609999 -1.811 8
15.876 -8.177 -1.8049999 9
18.938 -9.6870003 -1.788 6
23.611 -12.001 -1.778 4
0 0 0 0
0 0 0 0
14.13 -7.2410002 -1.813 9
16.504 -8.3950005 -1.798 9
19.849001 -10.029 -1.783 5
25.033001 -12.567 -1.773 5
0 0 0 0
0 0 0 0
14.704 -7.4390001 -1.817 9
17.17 -8.6230001 -1.791 11
20.822001 -10.386 -1.775 5
26.386999 -13.081 -1.751 4
35.375 -17.438999 -1.6849999 1
53.798 -26.388 -1.564 6
15.26 -7.619 -1.8150001 9
17.906 -8.875 -1.7869999 9
21.92 -10.792 -1.771 5
28.386 -13.89 -1.76 4
0 0 0 0
53.984001 -26.135 -1.339 7
15.88 -7.823 -1.814 11
18.723 -9.1560001 -1.783 8
23.274 -11.305 -1.778 5
29.879999 -14.425 -1.724 8
0 0 0 0
58.564999 -27.973 -1.212 32
16.452 -7.9920001 -1.804 11
19.545 -9.427 -1.775 5
24.572001 -11.774 -1.772 4
0 0 0 0
0 0 0 0
58.962002 -27.787001 -0.98299998 14
17.104 -8.1940002 -1.8 11
20.474001 -9.7379999 -1.77 6
26.068001 -12.318 -1.768 5
0 0 0 0
0 0 0 0
55.216999 -25.660999 -0.70200002 7
17.768 -8.3900003 -1.793 9
21.356001 -10.013 -1.756 4
27.607 -12.858 -1.757 4
0 0 0 0
54.839001 -25.250999 -1.478 9
65.445999 -29.982 -0.574 10
18.548 -8.6289997 -1.791 10
22.527 -10.406 -1.757 5
29.200001 -13.402 -1.74 5
0 0 0 0
54.980999 -24.948999 -1.268 2
64.522003 -29.132999 -0.31799999 20
19.35 -8.8690004 -1.7869999 7
23.829 -10.846 -1.761 4
30.676001 -13.871 -1.704 4
42.937 -19.296 -1.602 1
59.765999 -26.712 -1.145 24
0 0 0 0
20.17 -9.1020002 -1.779 6
25.223 -11.303 -1.761 5
0 0 0 0
0 0 0 0
60.199001 -26.496 -0.92900002 10
66.345001 -29.056999 0.168 21
21.160999 -9.3999996 -1.781 6
26.438 -11.662 -1.742 4
0 0 0 0
0 0 0 0
60.662998 -26.288 -0.713 4
0 0 0 0
22.216 -9.71 -1.7819999 6
27.801001 -12.068 -1.726 4
0 0 0 0
54.271 -23.268 -1.413 2
65.209999 -27.806999 -0.53100002 22
65.343002 -27.728001 0.62900001 11
23.299 -10.019 -1.779 6
29.356001 -12.537 -1.712 9
0 0 0 0
0 0 0 0
75.024002 -31.478001 -0.34999999 4
65.656998 -27.409 0.85500002 18
24.479 -10.35 -1.777 5
31.771999 -13.342 -1.735 6
0 0 0 0
49.889999 -20.695 -0.94599998 37
65.954002 -27.209 -0.081 69
65.967003 -27.083 1.081 25
25.542 -10.617 -1.76 4
0 0 0 0
49.811001 -20.433001 -1.6569999 2
50.053001 -20.410999 -0.778 20
66.337997 -26.905001 0.134 17
66.342003 -26.774 1.301 9
12.508 -5.1090002 -0.81800002 64
12.46 -5.0539999 -0.59200001 62
12.57 -5.066 -0.375 14
50.095001 -20.073 -0.61299998 74
50.228001 -20.017 0.26699999 3
112.953 -44.797001 2.575 35
12.444 -4.993 -0.76899999 60
12.495 -4.9790001 -0.55199999 67
12.572 -4.9780002 -0.33399999 9
50.208 -19.766001 -0.454 45
72.455002 -28.365 0.60900003 12
0 0 0 0
12.466 -4.9109998 -0.72899997 67
12.539 -4.9060001 -0.51300001 64
12.934 -5.0279999 -0.30199999 5
58.019001 -22.423 -0.34200001 81
57.990002 -22.287001 0.66600001 34
58.009998 -22.184 1.674 44
12.423 -4.802 -0.685 25
12.693 -4.8730001 -0.47799999 30
13.184 -5.0300002 -0.26699999 0
0 0 0 0
0 0 0 0
82.176003 -30.844 2.6099999 26
12.555 -4.7620001 -0.65200001 65
0 0 0 0
58.198002 -21.782 -1.003 6
63.375 -23.579 0.0049999999 12
63.778999 -23.599001 1.1059999 6
82.185997 -30.261 2.839 27
12.686 -4.7179999 -0.62 55
0 0 0 0
61.924 -22.726 -0.88700002 4
63.422001 -23.138 0.184 28
63.539001 -23.052 1.277 4
82.334999 -29.721001 3.0680001 19
13.55 -4.9390001 -0.62099999 1
0 0 0 0
63.98 -23.011999 -0.73400003 28
63.444 -22.679001 0.36199999 33
82.496002 -29.330999 1.881 25
101.403 -35.869999 4.0450001 8
38.191002 -13.639 -1.642 1
56.705002 -20.111 -1.465 2
67.736 -23.871 -0.59200001 49
63.882 -22.378 0.53299999 26
78.952003 -27.506001 2.003 16
112.98 -39.148998 4.789 25
0 0 0 0
56.978001 -19.788 -1.319 2
67.75 -23.377001 -0.41299999 37
64.078003 -21.979 0.69700003 28
79.068001 -26.969 2.2030001 35
114.966 -39.016998 5.1500001 29
0 0 0 0
58.952999 -20.042 -1.21 9
67.792999 -22.896999 -0.241 21
64.304001 -21.587 0.85600001 15
112.656 -37.605999 3.4059999 18
79.933998 -26.548 3.7650001 12
0 0 0 0
62.542 -20.799999 -1.1289999 12
68.015999 -22.473 -0.078000002 6
64.142998 -21.066 1.006 4
112.132 -36.618 3.648 46
113.496 -36.863998 5.599 33
0 0 0 0
63.214001 -20.552999 -0.98900002 18
70.024002 -22.621 0.079999998 4
115.779 -37.171001 2.0780001 11
113.162 -36.123001 3.931 36
0 0 0 0
0 0 0 0
66.035004 -20.978001 -0.88099998 26
91.797997 -28.973 0.31 12
0 0 0 0
113.888 -35.521 4.1919999 25
117.869 -36.566002 6.3070002 28
0 0 0 0
66.735001 -20.712 -0.74599999 48
0 0 0 0
114.029 -34.932999 2.529 42
114.037 -34.737 4.4250002 10
81.633003 -24.732 4.526 5
58.615002 -17.882 -1.508 2
66.577003 -20.169001 -0.60699999 36
102.703 -30.903 0.76999998 31
102.014 -30.502001 2.4590001 31
61.414001 -18.254 2.4990001 4
116.914 -34.560001 6.697 92
58.740002 -17.485001 -1.391 2
66.717003 -19.712999 -0.47600001 39
74.142998 -21.757999 0.69800001 10
61.775002 -18.013 1.603 39
61.519001 -17.834 2.612 7
61.435001 -17.709999 3.6240001 36
61.058998 -17.716 -1.327 15
61.805 -17.805 -0.32499999 82
61.856998 -17.695 0.69199997 33
102.665 -29.174 2.8440001 29
115.943 -32.754002 5.119 29
117.632 -33.042999 7.1300001 31
61.466 -17.375999 -1.225 23
68.068001 -19.101 -0.23800001 25
73.610001 -20.516001 0.94999999 15
115.304 -31.927 3.381 19
0 0 0 0
118.045 -32.305 7.3340001 19
61.591999 -16.955 -1.1210001 8
68.271004 -18.650999 -0.127 24
73.681999 -19.988001 1.068 5
103.251 -27.823 3.1860001 37
116.637 -31.240999 5.5040002 45
0 0 0 0
65.317001 -17.493 -1.085 18
37.575001 -9.9899998 -0.012 43
73.57 -19.42 1.174 7
103.537 -27.146999 3.3410001 40
116.932 -30.459999 5.6760001 37
0 0 0 0
34.858002 -9.0760002 -0.52700001 150
39.549999 -10.219 0.043000001 25
73.829002 -18.943001 1.279 17
104.1 -26.528 3.494 31
118.034 -29.885 5.8800001 19
116.824 -29.4 7.7179999 10
33.389 -8.4449997 -0.458 77
40.937 -10.276 0.098999999 4
101.482 -25.292999 1.887 24
117.24 -29.007 4.0780001 28
116.986 -28.761 5.961 32
116.551 -28.476999 7.8270001 19
33.459 -8.2150002 -0.41800001 2
78.434998 -19.108 0.28400001 8
101.549 -24.559999 2.0050001 20
115.701 -27.780001 4.1479998 10
116.564 -27.801001 6.0609999 19
118.91 -28.183001 8.1029997 15
42.671001 -10.158 -0.48300001 24
78.254997 -18.481001 0.37 12
101.995 -23.91 2.1210001 32
70.502998 -16.409 2.5999999 3
114.74 -26.528999 6.0760002 28
117.542 -26.993 8.1149998 32
43.222 -9.9659996 -0.44400001 7
78.830002 -18.034 0.44999999 17
0 0 0 0
70.550003 -15.902 2.6630001 25
69.495003 -15.555 3.7379999 41
119.116 -26.488001 8.3190002 31
44.182999 -9.8599997 -0.414 34
44.464001 -9.8409996 0.29300001 2
44.026001 -9.6680002 0.99299997 14
69.596001 -15.173 2.681 39
87.496002 -18.940001 4.77 10
87.245003 -18.759001 6.1529999 8
44.626999 -9.6309996 -0.38100001 9
97.539001 -20.874001 0.71799999 13
70.156998 -14.898 1.633 49
69.442001 -14.63 2.721 43
69.513 -14.539 3.832 5
64.579002 -13.414 4.5910001 8
45.493 -9.4820004 -0.35699999 20
45.714001 -9.4469995 0.366 11
70.056999 -14.359 1.673 35
70.353996 -14.311 2.7969999 37
65.007004 -13.122 3.619 8
64.640999 -12.953 4.6259999 13
46.119999 -9.2700005 -0.33399999 8
65.234001 -12.998 0.55800003 28
65.217003 -12.889 1.589 35
65.200996 -12.784 2.622 31
86.310997 -16.794001 4.8390002 29
86.732002 -16.753 6.2389998 21
46.75 -9.0550003 -0.31600001 1
87.679001 -16.832001 0.78799999 27
71.071999 -13.524 1.7589999 16
71.121002 -13.423 2.8840001 34
86.736 -16.240999 4.8889999 30
73.849998 -13.725 5.3319998 15
47.213001 -8.7959995 -0.30199999 12
75.263 -13.894 0.69999999 47
71.778 -13.138 1.7970001 9
71.484001 -12.971 2.914 33
74.099998 -13.337 4.1900001 27
65.056 -11.619 4.7059999 7
74.403 -13.316 -0.45899999 20
101.055 -17.917999 0.95999998 31
75.482002 -13.267 1.901 7
75.691002 -13.188 3.096 23
87.279999 -15.086 4.9429998 18
75.926003 -13.019 5.4959998 4
48.236 -8.2849998 -0.29100001 15
0 0 0 0
86.189003 -14.531 2.1760001 14
99.441002 -16.615999 4.0700002 10
76.029999 -12.595 4.3049998 10
69.120003 -11.36 4.9990001 32
48.705002 -8.0129995 -0.292 60
92.525002 -15.073 0.88499999 27
87.200996 -14.07 2.1960001 23
0 0 0 0
99.578003 -15.788 5.6230001 37
71.779999 -11.284 5.1789999 17
35.548 -5.592 -0.21699999 3
0 0 0 0
0 0 0 0
0 0 0 0
0 0 0 0
64.329002 -9.6479998 4.6230001 5
35.502998 -5.3260002 -0.22400001 13
49.816002 -7.395 0.458 13
84.214996 -12.378 2.0840001 22
0 0 0 0
0 0 0 0
68.597 -9.8000002 4.9050002 6
35.584999 -5.0830002 -0.236 6
73.132004 -10.333 0.64700001 7
84.167 -11.771 2.0510001 27
0 0 0 0
0 0 0 0
69.012001 -9.3669996 4.9000001 19
35.780998 -4.855 -0.25299999 2
73.040001 -9.7959995 0.61199999 12
84.161003 -11.168 2.0079999 23
0 0 0 0
68.803001 -8.9429998 3.776 9
68.124001 -8.7659998 4.796 27
36.16 -4.6469998 -0.27599999 64
69.237 -8.7950001 0.53899997 5
69.225998 -8.6929998 1.608 50
69.004997 -8.5690002 2.671 31
69.273003 -8.5120001 3.7550001 29
69.402 -8.4379997 4.8390002 19
35.977001 -4.3649998 -0.29899999 70
121.909 -14.612 0.86400002 34
84.998001 -10.066 1.913 43
0 0 0 0
0 0 0 0
69.072998 -7.9070001 4.7589998 8
35.897999 -4.0999999 -0.32600001 81
121.318 -13.674 0.75999999 35
0 0 0 0
127.291 -14.001 4.7210002 12
127.919 -13.902 6.7189999 31
0 0 0 0
35.948002 -3.852 -0.35800001 70
72.296997 -7.6440001 0.38699999 22
130.121 -13.578 2.698 22
126.555 -13.042 4.572 38
127.097 -12.932 6.5510001 21
130.005 -13.064 8.7069998 31
36.112999 -3.6129999 -0.39700001 70
72.230003 -7.1259999 0.31200001 5
0 0 0 0
71.480003 -6.862 2.5050001 30
71.274002 -6.7540002 3.5940001 17
71.189003 -6.6570001 4.6869998 15
36.452 -3.3940001 -0.44100001 2
71.188004 -6.5300002 0.227 8
70.977997 -6.415 1.314 27
70.761002 -6.3000002 2.395 32
70.565002 -6.1890001 3.4719999 29
129.16701 -11.176 8.3430004 29
47.953999 -4.1259999 -0.63999999 23
77.739998 -6.586 0.149 59
139.69901 -11.649 2.4070001 30
129.155 -10.602 4.2049999 17
128.11501 -10.35 6.1339998 41
0 0 0 0
42.243 -3.3380001 -0.62199998 2
77.928001 -6.053 0.041999999 57
117.256 -8.9549999 1.855 10
130.061 -9.7609997 4.046 21
130.62199 -9.6409998 6.0650001 30
135.03 -9.802 8.342 24
43.097 -3.1029999 -0.69800001 9
80.071999 -5.6589999 -0.077 63
117.327 -8.1459999 1.679 29
129.353 -8.8240004 3.8299999 34
130.884 -8.7679996 5.8779998 31
131.039 -8.6149998 7.8899999 22
43.696999 -2.845 -0.778 11
77.436996 -4.941 -0.198 56
88.356003 -5.5289998 1.1210001 22
129.36301 -7.9400001 3.619 65
130.226 -7.835 5.6339998 39
130.095 -7.6719999 7.619 37
30.275 -1.7640001 -0.58999997 28
77.474998 -4.4130001 -0.331 41
82.291 -4.5840001 0.90100002 13
130.11099 -7.0949998 3.4119999 22
130.23399 -6.9450002 5.4050002 22
72.619003 -3.7869999 4.1240001 11
29.802 -1.5319999 -0.63499999 69
30.018 -1.507 -0.182 60
81.986 -4.0110002 0.74800003 42
0 0 0 0
72.447998 -3.3710001 2.8710001 6
73.288002 -3.3239999 4.0229998 8
29.745001 -1.327 -0.69099998 56
29.677999 -1.2869999 -0.23800001 61
30.25 -1.275 0.21699999 5
131.701 -5.4029999 2.954 17
130.41299 -5.197 4.914 12
72.177002 -2.793 3.8210001 16
29.524 -1.117 -0.74599999 52
29.48 -1.08 -0.29699999 62
29.832001 -1.059 0.153 59
144.31 -4.9549999 2.9389999 15
0 0 0 0
0 0 0 0
29.295 -0.912 -0.80299997 58
29.254 -0.87599999 -0.35699999 79
29.547001 -0.85000002 0.086999997 64
135.12399 -3.74 2.4590001 13
135.306 -3.5910001 4.5219998 18
136.901 -3.4779999 6.6620002 14
29.118 -0.71399999 -0.86400002 69
29.134001 -0.68000001 -0.42199999 80
29.375999 -0.65200001 0.02 61
29.969999 -0.63200003 0.477 5
136.01801 -2.723 4.2399998 19
0 0 0 0
28.469999 -0.51200002 -0.91100001 55
29.016001 -0.48800001 -0.48800001 70
29.205 -0.45899999 -0.046999998 65
29.858 -0.43700001 0.40599999 32
134.573 -1.823 3.878 18
135.814 -1.684 5.9790001 13
0 0 0 0
29.056999 -0.29899999 -0.56099999 48
29.134001 -0.26800001 -0.119 59
29.617001 -0.23999999 0.329 63
133.82401 -0.94099998 3.523 23
0 0 0 0
25.268999 -0.123 -0.93699998 24
29.014 -0.109 -0.63499999 61
29.033001 -0.079000004 -0.19400001 66
29.479 -0.046999998 0.25 69
133.627 -0.068999998 3.1689999 36
134.638 0.075000003 5.2410002 24
25.128 0.041000001 -1 69
28.927 0.078000002 -0.71100003 76
28.972 0.109 -0.27200001 60
29.368 0.142 0.17 67
133.407 0.78200001 2.8050001 18
135.73 0.94599998 4.9169998 13
25.011 0.20100001 -1.0650001 68
28.973 0.264 -0.79400003 66
28.952999 0.294 -0.35299999 62
29.257999 0.32699999 0.088 74
30.146 0.36899999 0.54900002 3
81.891998 1.089 2.7379999 6
25.031 0.361 -1.14 52
28.416 0.44 -0.861 57
28.983 0.47799999 -0.43700001 51
29.188 0.51099998 0.003 74
30.024 0.55800003 0.46000001 21
81.863998 1.603 2.5009999 11
24.93 0.51899999 -1.211 71
27.348 0.597 -0.912 42
28.996 0.662 -0.52499998 69
29.237 0.69700003 -0.083999999 73
30.030001 0.745 0.37 32
91.383003 2.359 2.5190001 78
24.864 0.67400002 -1.286 60
25.858999 0.72600001 -0.94300002 28
29.115 0.847 -0.61799997 58
29.257 0.88 -0.175 73
30.021999 0.93300003 0.27599999 32
91.431 2.937 2.2320001 78
24.9 0.83200002 -1.369 77
24.905001 0.85500002 -0.98900002 72
29.254999 1.033 -0.71499997 61
29.358999 1.067 -0.271 66
30.072001 1.122 0.18000001 44
49.678001 1.9 1.054 22
25.046 0.99199998 -1.461 61
24.77 1.0039999 -1.066 65
29.598 1.228 -0.82200003 51
29.552 1.2539999 -0.37 60
30.226 1.311 0.082000002 21
39.073002 1.732 0.70099998 46
24.888 1.1390001 -1.538 42
24.719 1.154 -1.15 60
27.451 1.306 -0.85699999 27
29.846001 1.449 -0.47600001 52
38.019001 1.88 -0.026000001 51
38.084999 1.92 0.55400002 52
24.716 1.283 -1.6160001 36
24.676001 1.303 -1.2359999 66
0 0 0 0
38.016998 2.0739999 -0.74000001 47
37.720001 2.092 -0.15700001 49
37.617001 2.122 0.41600001 43
24.438 1.415 -1.687 21
24.646 1.447 -1.323 68
24.702 1.472 -0.94700003 65
31.145 1.8839999 -0.71799999 14
37.486 2.303 -0.292 50
37.236 2.322 0.27700001 53
23.252001 1.487 -1.694 16
24.681 1.599 -1.419 61
24.59 1.614 -1.0369999 64
31.037001 2.063 -0.83200002 25
37.162998 2.5050001 -0.428 49
36.998001 2.527 0.139 69
22.101 1.546 -1.697 17
24.742001 1.75 -1.5190001 49
24.511 1.7539999 -1.128 64
27.57 1.9960001 -0.84399998 30
28.66 2.099 -0.43900001 40
29.031 2.152 0 23
20.902 1.586 -1.689 15
24.561001 1.883 -1.6059999 31
24.538 1.901 -1.227 67
0 0 0 0
28.299999 2.2390001 -0.54400003 37
28.360001 2.2679999 -0.111 49
19.837999 1.623 -1.686 14
24.084999 1.989 -1.675 21
24.516001 2.043 -1.325 67
24.507999 2.062 -0.94800001 73
28.111 2.3870001 -0.65399998 41
28.054001 2.4089999 -0.22400001 41
18.818001 1.649 -1.679 13
22.698999 2.006 -1.673 14
24.532 2.1860001 -1.428 66
24.422001 2.1949999 -1.045 66
25.495001 2.312 -0.699 65
25.476999 2.3310001 -0.30700001 150
17.952999 1.678 -1.6799999 12
21.386999 2.013 -1.669 16
24.485001 2.323 -1.531 42
24.395 2.332 -1.148 70
27.153999 2.6170001 -0.85900003 42
27.725 2.6930001 -0.44999999 54
17.135 1.698 -1.679 11
20.253 2.02 -1.669 15
24.378 2.45 -1.631 27
24.396999 2.4690001 -1.253 68
25.214001 2.5710001 -0.90600002 29
27.667 2.8429999 -0.56800002 47
16.382 1.716 -1.6799999 10
19.153999 2.0190001 -1.665 13
23.57 2.4990001 -1.681 20
24.368 2.6010001 -1.36 58
24.34 2.6170001 -0.98199999 65
27.631001 2.9920001 -0.68800002 50
15.661 1.728 -1.679 12
18.216 2.0209999 -1.6670001 12
22.027 2.4579999 -1.6720001 17
24.434999 2.743 -1.474 57
24.305 2.7449999 -1.089 66
27.506001 3.128 -0.80699998 35
15.024 1.7410001 -1.682 13
17.302 2.0150001 -1.665 11
20.698 2.424 -1.668 15
24.393 2.8710001 -1.584 28
24.318001 2.8800001 -1.202 64
25.947001 3.0910001 -0.88 26
14.412 1.75 -1.684 12
16.521999 2.0150001 -1.67 10
19.556 2.3959999 -1.669 14
23.867001 2.9389999 -1.663 21
24.407 3.0209999 -1.3200001 49
24.391001 3.036 -0.94 47
13.853 1.756 -1.687 13
15.74 2.003 -1.668 13
18.459 2.3599999 -1.665 12
22.35 2.8710001 -1.665 18
24.356001 3.145 -1.434 45
24.216999 3.1429999 -1.049 62
13.381 1.768 -1.698 13
15.057 1.997 -1.671 12
17.495001 2.3299999 -1.665 11
20.885 2.793 -1.659 15
24.319 3.267 -1.55 39
24.236 3.2709999 -1.165 63
12.857 1.767 -1.698 13
14.435 1.9910001 -1.676 13
16.663 2.3050001 -1.669 10
19.683001 2.734 -1.661 14
24.013 3.349 -1.649 21
24.223 3.395 -1.285 61
12.384 1.767 -1.701 13
13.852 1.982 -1.6799999 13
15.822 2.2709999 -1.6670001 11
18.577 2.6760001 -1.663 13
22.534 3.2579999 -1.661 12
24.344999 3.5339999 -1.4119999 50
11.938 1.7640001 -1.7029999 12
13.338 1.976 -1.688 13
15.092 2.2420001 -1.668 13
17.538 2.615 -1.66 12
20.972 3.1370001 -1.653 16
24.348 3.6559999 -1.536 39
11.522 1.762 -1.706 12
12.822 1.965 -1.692 14
14.455 2.22 -1.675 12
16.66 2.566 -1.664 10
19.768999 3.0550001 -1.661 14
24.084 3.7349999 -1.643 21
11.13 1.758 -1.71 12
12.32 1.95 -1.693 12
13.846 2.1960001 -1.679 14
15.776 2.5079999 -1.661 9
18.558001 2.9590001 -1.658 13
22.459 3.592 -1.65 12
10.763 1.753 -1.714 13
11.884 1.939 -1.699 13
13.287 2.1730001 -1.6849999 14
15.065 2.4679999 -1.6670001 11
17.488001 2.8729999 -1.656 11
20.926001 3.448 -1.65 13
10.394 1.744 -1.716 12
11.428 1.92 -1.699 14
12.741 2.145 -1.687 13
14.39 2.428 -1.673 13
16.584999 2.8039999 -1.6619999 10
19.631001 3.3280001 -1.654 14
10.055 1.7359999 -1.7180001 12
11.04 1.908 -1.704 13
12.272 2.1240001 -1.694 13
13.74 2.382 -1.674 13
15.67 2.7219999 -1.656 9
18.42 3.2079999 -1.652 13
9.7250004 1.725 -1.719 11
10.655 1.892 -1.707 13
11.805 2.098 -1.697 13
13.187 2.3469999 -1.681 14
14.922 2.661 -1.661 12
17.346001 3.0999999 -1.652 11
9.415 1.715 -1.721 11
10.295 1.876 -1.71 12
11.354 2.0699999 -1.699 13
12.657 2.3110001 -1.686 13
14.27 2.609 -1.669 12
16.421 3.0079999 -1.655 10
9.1049995 1.7 -1.719 11
9.9499998 1.858 -1.712 12
10.952 2.046 -1.702 13
12.163 2.2739999 -1.691 13
13.65 2.556 -1.674 13
15.512 2.9100001 -1.652 11
8.8199997 1.686 -1.719 11
9.6169996 1.8380001 -1.7130001 11
10.578 2.023 -1.7079999 13
11.704 2.24 -1.6950001 12
13.054 2.5020001 -1.678 13
14.782 2.8369999 -1.659 14
8.5620003 1.675 -1.723 11
9.3000002 1.819 -1.714 11
10.214 1.998 -1.711 12
11.248 2.2019999 -1.697 14
12.536 2.4560001 -1.6849999 12
14.113 2.7690001 -1.6670001 13
8.3070002 1.6619999 -1.725 11
8.9910002 1.798 -1.7130001 11
9.8549995 1.971 -1.711 12
10.837 2.168 -1.701 13
12.025 2.4070001 -1.689 13
13.467 2.6989999 -1.671 12
8.0769997 1.651 -1.729 11
8.7130003 1.78 -1.716 12
9.5129995 1.943 -1.712 11
10.44 2.1329999 -1.704 12
11.548 2.3599999 -1.692 12
12.894 2.638 -1.677 12
7.8569999 1.64 -1.733 11
8.4569998 1.763 -1.72 12
9.1929998 1.916 -1.7130001 11
10.085 2.102 -1.7079999 12
11.092 2.313 -1.694 12
12.356 2.5780001 -1.682 12
7.6490002 1.6289999 -1.738 10
8.1999998 1.744 -1.721 11
8.9020004 1.892 -1.716 11
9.7229996 2.066 -1.709 11
10.685 2.2709999 -1.698 13
11.858 2.5220001 -1.688 12
7.4520001 1.618 -1.744 10
7.9679999 1.727 -1.725 11
8.6120005 1.865 -1.716 11
9.3800001 2.0309999 -1.709 11
10.325 2.2349999 -1.706 12
11.379 2.4630001 -1.6900001 11
7.2490001 1.603 -1.7460001 10
7.756 1.7130001 -1.7309999 11
8.3549995 1.8430001 -1.72 11
9.0740004 2 -1.711 11
9.9390001 2.1900001 -1.706 11
10.935 2.4089999 -1.693 12
7.073 1.592 -1.752 9
7.546 1.696 -1.735 10
8.0469999 1.806 -1.709 31
8.7770004 1.9680001 -1.712 11
9.5900002 2.1489999 -1.707 11
10.532 2.3599999 -1.697 12
6.8990002 1.58 -1.757 9
7.348 1.679 -1.739 10
7.836 1.788 -1.717 41
8.507 1.939 -1.716 11
9.257 2.108 -1.7079999 11
10.161 2.3139999 -1.702 11
6.6950002 1.559 -1.752 9
7.158 1.663 -1.744 9
7.6339998 1.771 -1.724 40
8.2349997 1.9069999 -1.716 12
8.9390001 2.069 -1.709 11
9.7910004 2.2650001 -1.704 11
6.52 1.543 -1.753 11
6.9780002 1.647 -1.749 9
7.4120002 1.7460001 -1.725 41
7.9520001 1.8710001 -1.711 42
8.6569996 2.0339999 -1.712 12
9.4490004 2.2190001 -1.706 11
6.3649998 1.529 -1.757 10
6.8000002 1.63 -1.752 9
7.2119999 1.725 -1.729 40
7.7410002 1.848 -1.7180001 49
8.3909998 2.0009999 -1.715 11
9.118 2.1719999 -1.706 11
6.2049999 1.513 -1.757 10
6.599 1.605 -1.747 10
7.0339999 1.707 -1.735 38
7.5279999 1.823 -1.722 45
8.066 1.95 -1.7029999 23
8.816 2.1300001 -1.7079999 12
6.0479999 1.4960001 -1.757 10
6.4369998 1.5880001 -1.751 10
6.8649998 1.689 -1.7410001 37
7.3260002 1.798 -1.726 42
7.8540001 1.925 -1.711 41
8.5410004 2.0910001 -1.712 12
5.901 1.48 -1.758 11
6.2719998 1.568 -1.751 10
6.697 1.67 -1.7460001 32
7.1240001 1.772 -1.728 42
7.6440001 1.898 -1.7180001 43
8.2690001 2.05 -1.7130001 11
5.7690001 1.467 -1.762 12
6.1149998 1.549 -1.752 10
6.5609999 1.6569999 -1.758 24
6.9369998 1.747 -1.7309999 39
7.427 1.867 -1.72 40
7.973 2.0009999 -1.705 31
5.6329999 1.45 -1.763 12
5.9689999 1.531 -1.7539999 10
6.3920002 1.635 -1.7589999 13
6.7670002 1.726 -1.737 39
7.2249999 1.8380001 -1.724 40
7.7540002 1.969 -1.712 37
5.5079999 1.436 -1.766 11
5.8309999 1.5140001 -1.757 10
6.2140002 1.608 -1.755 10
6.6110001 1.705 -1.744 36
7.0409999 1.812 -1.729 37
7.5479999 1.939 -1.7180001 36
5.388 1.421 -1.768 10
5.6999998 1.497 -1.76 11
6.0669999 1.5880001 -1.757 10
6.427 1.677 -1.7410001 33
6.849 1.7819999 -1.73 36
7.342 1.906 -1.722 35
5.2810001 1.409 -1.774 10
5.5739999 1.4809999 -1.763 11
5.9190001 1.567 -1.758 10
6.2690001 1.653 -1.744 33
6.6849999 1.758 -1.735 43
7.1409998 1.873 -1.724 34
5.1560001 1.391 -1.772 10
5.4520001 1.464 -1.766 11
5.777 1.545 -1.7589999 12
6.1420002 1.637 -1.753 38
6.5250001 1.734 -1.7410001 35
6.9530001 1.842 -1.727 33
5.0539999 1.378 -1.776 12
5.3390002 1.449 -1.77 10
5.6490002 1.526 -1.762 13
6.0149999 1.619 -1.761 23
6.3600001 1.706 -1.7410001 34
6.7820001 1.814 -1.732 34
4.9450002 1.362 -1.777 11
5.223 1.431 -1.771 10
5.527 1.507 -1.765 11
5.8509998 1.59 -1.755 12
6.2069998 1.6799999 -1.744 31
6.6110001 1.784 -1.734 34
4.8400002 1.346 -1.777 11
5.1149998 1.415 -1.774 10
5.408 1.489 -1.767 11
5.7249999 1.569 -1.7589999 11
6.0560002 1.654 -1.745 34
6.4510002 1.756 -1.738 30
4.7459998 1.332 -1.781 11
5.006 1.398 -1.775 11
5.296 1.471 -1.771 12
5.5949998 1.5470001 -1.761 10
5.9190001 1.63 -1.749 42
6.2950001 1.728 -1.7410001 29
4.6479998 1.317 -1.781 10
4.9029999 1.381 -1.777 10
5.1789999 1.451 -1.772 10
5.473 1.526 -1.7640001 11
5.8049998 1.612 -1.757 31
6.1420002 1.7 -1.743 30
4.566 1.3049999 -1.7869999 10
4.7989998 1.363 -1.777 10
5.072 1.433 -1.774 11
5.3639998 1.507 -1.768 10
5.6890001 1.592 -1.7640001 20
5.9990001 1.6720001 -1.745 30
4.4749999 1.289 -1.788 10
4.7080002 1.348 -1.781 11
4.9720001 1.415 -1.777 11
5.2319999 1.4809999 -1.7640001 10
5.5310001 1.559 -1.755 11
5.869 1.647 -1.749 27
4.4039998 1.278 -1.795 10
4.6170001 1.332 -1.7819999 11
4.869 1.396 -1.777 12
5.151 1.469 -1.775 10
5.4219999 1.539 -1.76 12
5.7350001 1.6210001 -1.75 29
4.309 1.26 -1.791 10
4.5310001 1.316 -1.785 11
4.7709999 1.377 -1.779 11
5.033 1.4450001 -1.772 10
5.2969999 1.513 -1.758 10
5.618 1.598 -1.755 27
4.2280002 1.2460001 -1.7920001 10
4.448 1.301 -1.788 11
4.6760001 1.359 -1.78 11
4.9349999 1.426 -1.775 10
5.1869998 1.4910001 -1.761 10
5.5289998 1.582 -1.767 19
4.1570001 1.233 -1.7970001 10
4.3699999 1.286 -1.7920001 10
4.5900002 1.342 -1.7819999 11
4.8330002 1.405 -1.775 11
5.099 1.474 -1.768 11
5.3740001 1.546 -1.756 10
4.073 1.216 -1.794 9
4.2849998 1.2690001 -1.791 10
4.5050001 1.325 -1.785 10
4.7360001 1.3839999 -1.775 10
5.006 1.455 -1.773 10
5.2620001 1.521 -1.757 10
4.0029998 1.202 -1.796 9
4.2119999 1.255 -1.794 10
4.427 1.309 -1.788 10
4.6529999 1.367 -1.779 10
4.9029999 1.432 -1.772 10
5.164 1.5 -1.762 10
3.9349999 1.188 -1.798 9
4.1329999 1.238 -1.794 11
4.3499999 1.293 -1.791 10
4.566 1.348 -1.781 10
4.8099999 1.411 -1.775 11
5.0770001 1.4809999 -1.7690001 10
3.8759999 1.177 -1.804 9
4.0640001 1.223 -1.7970001 11
4.2659998 1.274 -1.789 9
4.4809999 1.329 -1.7819999 10
4.711 1.388 -1.773 10
4.9759998 1.4579999 -1.77 10
3.8069999 1.1619999 -1.804 9
3.9949999 1.2079999 -1.799 10
4.1939998 1.258 -1.7920001 11
4.415 1.3150001 -1.789 10
4.6399999 1.373 -1.78 10
4.8850002 1.436 -1.772 10
3.753 1.15 -1.809 9
3.928 1.193 -1.8 10
4.1240001 1.242 -1.794 11
4.3309999 1.295 -1.788 10
4.5450001 1.349 -1.777 10
4.7919998 1.413 -1.773 10
3.694 1.137 -1.811 8
3.8610001 1.177 -1.8 9
4.053 1.225 -1.794 11
4.2639999 1.279 -1.7920001 10
4.4699998 1.331 -1.781 10
4.7030001 1.391 -1.773 10
3.638 1.124 -1.814 9
3.8039999 1.164 -1.804 10
3.987 1.209 -1.796 10
4.1890001 1.26 -1.7920001 10
4.401 1.314 -1.785 10
4.6149998 1.369 -1.772 10
3.579 1.11 -1.814 9
3.7449999 1.15 -1.806 9
3.9230001 1.194 -1.798 10
4.1149998 1.2410001 -1.791 11
4.3280001 1.296 -1.7869999 10
4.5440001 1.35 -1.777 10
3.526 1.097 -1.816 8
3.691 1.136 -1.809 9
3.859 1.177 -1.798 9
4.052 1.225 -1.794 10
4.256 1.277 -1.788 10
4.4660001 1.33 -1.779 10
3.4719999 1.084 -1.817 8
3.6329999 1.122 -1.8099999 9
3.8039999 1.163 -1.801 10
3.9860001 1.2079999 -1.794 10
4.1880002 1.258 -1.79 10
4.3969998 1.311 -1.7819999 9
3.4189999 1.0700001 -1.818 8
3.586 1.11 -1.814 9
3.743 1.147 -1.801 9
3.928 1.192 -1.7970001 10
4.1230001 1.24 -1.791 10
4.3299999 1.293 -1.785 9
3.3670001 1.056 -1.818 8
3.5280001 1.094 -1.813 9
3.7060001 1.137 -1.812 9
3.8659999 1.175 -1.7970001 10
4.0570002 1.222 -1.791 11
4.2620001 1.273 -1.786 9
3.323 1.044 -1.821 8
3.4749999 1.079 -1.813 9
3.6500001 1.1210001 -1.812 9
3.8099999 1.159 -1.798 9
3.9979999 1.205 -1.793 10
4.1950002 1.2539999 -1.7869999 10
3.2739999 1.03 -1.821 8
3.438 1.069 -1.8200001 9
3.5929999 1.105 -1.811 9
3.76 1.1440001 -1.802 9
3.9319999 1.1849999 -1.791 9
4.1360002 1.2359999 -1.79 10
3.2249999 1.016 -1.819 7
3.3829999 1.053 -1.817 8
3.55 1.092 -1.8150001 9
3.7079999 1.1289999 -1.804 9
3.881 1.17 -1.795 9
4.0749998 1.217 -1.791 10
3.1889999 1.005 -1.825 7
3.3369999 1.039 -1.818 8
3.4960001 1.075 -1.813 9
3.661 1.114 -1.807 9
3.8239999 1.152 -1.794 9
4.0159998 1.199 -1.791 9
3.1400001 0.99000001 -1.821 7
3.2939999 1.025 -1.819 8
3.457 1.063 -1.818 9
3.618 1.1 -1.811 9
3.777 1.137 -1.798 9
3.964 1.182 -1.794 9
3.102 0.97899997 -1.823 7
3.256 1.013 -1.823 8
3.4089999 1.048 -1.817 8
3.569 1.084 -1.811 9
3.7360001 1.123 -1.804 9
3.9030001 1.1619999 -1.7920001 9
3.063 0.96600002 -1.824 7
3.214 1 -1.823 7
3.3640001 1.033 -1.817 8
3.527 1.0700001 -1.814 9
3.6819999 1.105 -1.802 8
3.8540001 1.145 -1.793 9
3.023 0.95200002 -1.823 7
3.1700001 0.98500001 -1.821 8
3.325 1.02 -1.819 8
3.4790001 1.054 -1.813 8
3.6429999 1.091 -1.806 9
3.8069999 1.1289999 -1.796 9
2.9949999 0.94300002 -1.829 6
3.1389999 0.97399998 -1.826 8
3.2839999 1.005 -1.819 8
3.4349999 1.038 -1.812 8
3.605 1.077 -1.8099999 9
3.7650001 1.113 -1.799 8
2.9619999 0.93099999 -1.831 6
3.099 0.95999998 -1.825 7
3.244 0.991 -1.819 8
3.4030001 1.026 -1.817 8
3.5639999 1.062 -1.812 9
3.72 1.096 -1.8 8
2.925 0.91799998 -1.829 6
3.0680001 0.94800001 -1.827 8
3.2079999 0.977 -1.821 8
3.3640001 1.011 -1.818 8
3.526 1.0470001 -1.814 8
3.6849999 1.082 -1.8049999 8
0 0 0 0
3.0309999 0.93400002 -1.827 7
3.174 0.96399999 -1.822 7
3.3199999 0.995 -1.8150001 8
3.4760001 1.029 -1.8099999 8
3.6440001 1.066 -1.806 8
1.5420001 0.48100001 -0.986 3
2.9990001 0.921 -1.827 7
3.138 0.94999999 -1.821 7
3.2850001 0.98000002 -1.816 7
3.4389999 1.013 -1.811 8
3.609 1.051 -1.8099999 8
1.503 0.46799999 -0.972 4
2.97 0.90899998 -1.829 7
3.109 0.93699998 -1.824 8
3.2509999 0.96700001 -1.817 7
3.4059999 0.99900001 -1.814 8
3.5699999 1.035 -1.8099999 8
0 0 0 0
2.9419999 0.89700001 -1.831 7
3.079 0.92500001 -1.826 7
3.22 0.95300001 -1.819 7
