# .PCD v0.7 - Point Cloud Data file format
VERSION 0.7
FIELDS x y z intensity
SIZE 4 4 4 4
TYPE F F F F
COUNT 1 1 1 1
WIDTH 1957
HEIGHT 1
VIEWPOINT 0 0 0 1 0 0 0
POINTS 1957
DATA ascii
0 0 0 0
1.454 0.104 -0.949 3
0 0 0 0
3.1040001 0.21799999 -1.848 6
3.244 0.227 -1.845 7
0 0 0 0
0 0 0 0
1.431 0.097000003 -0.94099998 3
1.589 0.107 -0.99900001 1
3.075 0.206 -1.846 6
3.2160001 0.214 -1.844 7
0 0 0 0
0 0 0 0
1.4119999 0.090999998 -0.93699998 4
1.549 0.098999999 -0.98100001 2
3.049 0.19400001 -1.845 6
3.1889999 0.20100001 -1.8430001 6
0 0 0 0
0 0 0 0
0 0 0 0
1.524 0.092 -0.97299999 2
3.0369999 0.182 -1.851 6
3.1670001 0.189 -1.844 7
0 0 0 0
0 0 0 0
0 0 0 0
1.507 0.086000003 -0.96899998 2
3.0109999 0.17 -1.848 6
3.1459999 0.176 -1.845 6
0 0 0 0
0 0 0 0
0 0 0 0
1.483 0.079000004 -0.95999998 2
1.5930001 0.083999999 -0.98400003 0
3.1270001 0.164 -1.845 6
0 0 0 0
0 0 0 0
0 0 0 0
1.4630001 0.072999999 -0.95300001 2
0 0 0 0
3.112 0.152 -1.848 6
0 0 0 0
0 0 0 0
0 0 0 0
1.446 0.066 -0.94800001 2
1.7309999 0.079000004 -1.0829999 2
3.0910001 0.139 -1.847 6
0 0 0 0
0 0 0 0
0 0 0 0
1.4349999 0.061000001 -0.94599998 2
1.577 0.066 -0.99199998 1
3.0680001 0.127 -1.8430001 6
0 0 0 0
0 0 0 0
0 0 0 0
1.421 0.055 -0.94099998 2
1.553 0.059 -0.98199999 2
3.0639999 0.115 -1.851 6
0 0 0 0
0 0 0 0
0 0 0 0
1.4069999 0.048999999 -0.93699998 2
1.534 0.052000001 -0.97500002 2
3.052 0.103 -1.852 6
0 0 0 0
0 0 0 0
0 0 0 0
0 0 0 0
1.516 0.046 -0.96799999 2
3.0339999 0.090999998 -1.85 6
0 0 0 0
0 0 0 0
0 0 0 0
0 0 0 0
1.511 0.039999999 -0.96899998 2
3.0239999 0.079000004 -1.851 6
0 0 0 0
0 0 0 0
0 0 0 0
0 0 0 0
1.499 0.034000002 -0.96499997 2
3.0020001 0.067000002 -1.845 6
0 0 0 0
0 0 0 0
0 0 0 0
0 0 0 0
1.49 0.028000001 -0.963 2
1.624 0.029999999 -1.002 0
0 0 0 0
0 0 0 0
0 0 0 0
0 0 0 0
1.477 0.022 -0.95700002 2
2.9760001 0.043000001 -1.841 7
0 0 0 0
0 0 0 0
0 0 0 0
0 0 0 0
1.473 0.016000001 -0.95700002 2
0 0 0 0
0 0 0 0
0 0 0 0
0 0 0 0
0 0 0 0
1.462 0.0099999998 -0.95300001 2
2.006 0.013 -1.247 3
0 0 0 0
0 0 0 0
0 0 0 0
0 0 0 0
1.457 0.0040000002 -0.95099998 2
0 0 0 0
0 0 0 0
0 0 0 0
0 0 0 0
0 0 0 0
1.454 -0.001 -0.95099998 2
0 0 0 0
0 0 0 0
0 0 0 0
0 0 0 0
0 0 0 0
1.449 -0.0060000001 -0.94800001 2
0 0 0 0
0 0 0 0
0 0 0 0
0 0 0 0
0 0 0 0
1.449 -0.012 -0.949 2
0 0 0 0
0 0 0 0
0 0 0 0
0 0 0 0
0 0 0 0
1.45 -0.017999999 -0.94999999 2
0 0 0 0
0 0 0 0
0 0 0 0
0 0 0 0
0 0 0 0
1.449 -0.024 -0.94999999 2
0 0 0 0
0 0 0 0
0 0 0 0
0 0 0 0
0 0 0 0
1.449 -0.029999999 -0.94999999 2
0 0 0 0
0 0 0 0
0 0 0 0
0 0 0 0
0 0 0 0
1.449 -0.035999998 -0.949 2
0 0 0 0
0 0 0 0
0 0 0 0
0 0 0 0
0 0 0 0
1.4529999 -0.041999999 -0.95099998 2
0 0 0 0
0 0 0 0
0 0 0 0
0 0 0 0
0 0 0 0
1.457 -0.046999998 -0.95200002 2
0 0 0 0
0 0 0 0
0 0 0 0
0 0 0 0
0 0 0 0
1.472 -0.054000001 -0.95999998 2
0 0 0 0
0 0 0 0
0 0 0 0
0 0 0 0
0 0 0 0
1.474 -0.059 -0.95899999 2
2.9760001 -0.122 -1.847 8
0 0 0 0
0 0 0 0
0 0 0 0
0 0 0 0
1.479 -0.064999998 -0.95999998 2
2.9920001 -0.134 -1.852 6
0 0 0 0
0 0 0 0
0 0 0 0
0 0 0 0
1.492 -0.071999997 -0.96600002 2
3.003 -0.146 -1.854 6
0 0 0 0
0 0 0 0
0 0 0 0
0 0 0 0
1.501 -0.078000002 -0.96799999 2
3.016 -0.15800001 -1.855 6
0 0 0 0
0 0 0 0
0 0 0 0
0 0 0 0
1.515 -0.085000001 -0.97399998 2
3.0280001 -0.17 -1.8559999 6
0 0 0 0
0 0 0 0
0 0 0 0
0 0 0 0
1.529 -0.090999998 -0.97899997 2
3.039 -0.182 -1.855 6
0 0 0 0
0 0 0 0
0 0 0 0
1.4069999 -0.089000002 -0.94099998 3
1.55 -0.097999997 -0.98799998 2
3.056 -0.19499999 -1.857 6
0 0 0 0
0 0 0 0
0 0 0 0
0 0 0 0
1.573 -0.105 -0.99800003 1
3.0680001 -0.207 -1.855 6
0 0 0 0
0 0 0 0
0 0 0 0
1.439 -0.102 -0.95300001 2
1.702 -0.12 -1.074 2
3.0869999 -0.219 -1.857 6
0 0 0 0
0 0 0 0
0 0 0 0
1.448 -0.107 -0.954 2
0 0 0 0
3.1070001 -0.23199999 -1.858 6
0 0 0 0
0 0 0 0
0 0 0 0
1.473 -0.115 -0.96499997 2
2.974 -0.23199999 -1.8559999 7
3.118 -0.244 -1.854 6
0 0 0 0
0 0 0 0
0 0 0 0
1.494 -0.122 -0.97299999 2
2.9949999 -0.244 -1.857 6
3.1370001 -0.25600001 -1.853 6
0 0 0 0
0 0 0 0
0 0 0 0
1.512 -0.12800001 -0.97799999 2
3.02 -0.257 -1.86 6
3.1659999 -0.27000001 -1.858 8
1.126 -0.1 -0.83899999 1
0 0 0 0
0 0 0 0
1.539 -0.13600001 -0.98799998 2
3.04 -0.26899999 -1.859 6
3.1800001 -0.28099999 -1.853 9
0 0 0 0
0 0 0 0
1.413 -0.12899999 -0.94599998 5
1.568 -0.14399999 -1 1
3.0580001 -0.28 -1.857 6
3.2149999 -0.29499999 -1.86 9
0 0 0 0
0 0 0 0
1.429 -0.13600001 -0.94999999 4
0 0 0 0
3.085 -0.29300001 -1.859 6
3.2390001 -0.308 -1.859 10
0 0 0 0
0 0 0 0
1.46 -0.14300001 -0.96200001 3
2.938 -0.28799999 -1.845 5
3.109 -0.30500001 -1.859 6
3.257 -0.31999999 -1.854 8
0 0 0 0
0 0 0 0
1.484 -0.15000001 -0.97000003 2
2.9860001 -0.303 -1.859 5
3.1429999 -0.31799999 -1.863 8
3.293 -0.33399999 -1.859 7
0 0 0 0
0 0 0 0
1.5190001 -0.15899999 -0.98500001 2
3.0220001 -0.31600001 -1.865 6
3.1600001 -0.33000001 -1.857 7
3.3210001 -0.347 -1.858 6
0 0 0 0
0 0 0 0
1.554 -0.167 -0.99800003 2
3.043 -0.32699999 -1.8609999 6
3.1919999 -0.34299999 -1.858 7
3.3529999 -0.361 -1.858 7
0 0 0 0
0 0 0 0
1.6210001 -0.17900001 -1.031 1
3.069 -0.33899999 -1.859 6
3.2249999 -0.35600001 -1.86 7
3.382 -0.37400001 -1.857 7
0 0 0 0
1.448 -0.164 -0.95899999 6
2.911 -0.33000001 -1.835 4
3.1070001 -0.352 -1.864 6
3.256 -0.36899999 -1.859 7
3.4189999 -0.38699999 -1.858 7
0 0 0 0
1.478 -0.17200001 -0.97000003 4
2.987 -0.347 -1.865 5
3.132 -0.36399999 -1.8609999 6
3.2850001 -0.38100001 -1.857 7
3.4630001 -0.40200001 -1.863 7
0 0 0 0
1.522 -0.18099999 -0.98900002 2
3.023 -0.359 -1.868 6
3.1689999 -0.37599999 -1.863 6
3.322 -0.39399999 -1.859 7
3.493 -0.41499999 -1.859 8
0 0 0 0
1.561 -0.19 -1.003 2
3.0539999 -0.37099999 -1.867 6
3.1989999 -0.38800001 -1.8609999 7
3.362 -0.40799999 -1.8609999 9
3.5339999 -0.42899999 -1.86 7
0 0 0 0
0 0 0 0
3.086 -0.38299999 -1.867 6
3.237 -0.40099999 -1.863 7
3.4030001 -0.42199999 -1.863 17
3.573 -0.44299999 -1.86 8
1.452 -0.184 -0.95999998 5
1.567 -0.199 -0.98500001 0
3.119 -0.39500001 -1.865 6
3.263 -0.41299999 -1.857 10
3.431 -0.43399999 -1.857 10
3.612 -0.456 -1.858 7
1.489 -0.193 -0.97299999 3
3.003 -0.38800001 -1.867 6
3.1589999 -0.40700001 -1.868 9
3.3180001 -0.42699999 -1.8660001 17
3.4809999 -0.44800001 -1.862 8
3.6530001 -0.47 -1.8559999 8
1.544 -0.204 -0.99699998 2
3.0420001 -0.40000001 -1.869 6
3.181 -0.417 -1.858 17
3.3380001 -0.43799999 -1.855 14
3.523 -0.46200001 -1.8609999 8
3.704 -0.48500001 -1.859 8
1.707 -0.229 -1.09 2
3.082 -0.412 -1.8710001 6
3.237 -0.43200001 -1.868 16
3.3989999 -0.45300001 -1.865 17
3.5650001 -0.47499999 -1.859 8
3.7490001 -0.5 -1.857 8
2.9690001 -0.405 -1.8710001 8
3.115 -0.42300001 -1.867 7
3.263 -0.44299999 -1.86 18
3.428 -0.46399999 -1.858 10
3.612 -0.48899999 -1.86 8
3.7950001 -0.514 -1.8559999 8
3.0020001 -0.41499999 -1.869 6
3.161 -0.43599999 -1.8710001 16
3.3180001 -0.45699999 -1.867 18
3.487 -0.479 -1.865 8
3.6570001 -0.50199997 -1.858 7
3.848 -0.52899998 -1.857 8
3.0409999 -0.42699999 -1.869 6
3.1860001 -0.44600001 -1.8609999 19
3.3529999 -0.46799999 -1.863 8
3.5250001 -0.49200001 -1.8609999 8
3.71 -0.51700002 -1.86 8
3.8959999 -0.54299998 -1.854 8
3.082 -0.43799999 -1.869 6
3.2379999 -0.45899999 -1.867 13
3.4059999 -0.48199999 -1.867 7
3.5829999 -0.50599998 -1.8660001 7
3.757 -0.53100002 -1.858 8
3.9519999 -0.55800003 -1.855 8
3.1210001 -0.449 -1.868 6
3.2750001 -0.47 -1.863 8
3.45 -0.49399999 -1.865 8
3.632 -0.51999998 -1.865 8
3.8080001 -0.54400003 -1.8559999 8
4.007 -0.57300001 -1.853 8
3.1619999 -0.46000001 -1.8660001 8
3.329 -0.48300001 -1.868 7
3.503 -0.50800002 -1.867 8
3.684 -0.53299999 -1.865 8
3.862 -0.55900002 -1.8559999 8
4.0689998 -0.58899999 -1.854 9
3.2019999 -0.47099999 -1.864 7
3.372 -0.495 -1.865 8
3.5550001 -0.52100003 -1.868 8
3.7309999 -0.546 -1.8609999 8
3.9219999 -0.574 -1.8559999 8
4.1329999 -0.60500002 -1.854 8
3.2490001 -0.48300001 -1.864 7
3.424 -0.50800002 -1.8660001 8
3.6029999 -0.53299999 -1.8660001 8
3.78 -0.55900002 -1.857 8
3.98 -0.588 -1.855 8
4.2030001 -0.62099999 -1.8559999 8
3.299 -0.495 -1.8660001 7
3.4719999 -0.51999998 -1.865 8
3.655 -0.546 -1.864 8
3.8410001 -0.57300001 -1.859 8
4.0409999 -0.60299999 -1.854 8
4.2709999 -0.63700002 -1.8559999 9
3.3499999 -0.50700003 -1.8660001 7
3.5339999 -0.53399998 -1.87 8
3.7160001 -0.56 -1.867 8
3.895 -0.58700001 -1.8559999 8
4.1199999 -0.62 -1.86 8
4.3400002 -0.653 -1.855 9
3.4059999 -0.51999998 -1.868 7
3.5799999 -0.54500002 -1.865 8
3.773 -0.574 -1.865 8
3.9630001 -0.602 -1.858 8
4.1810002 -0.63499999 -1.857 9
4.415 -0.67000002 -1.855 8
3.4579999 -0.53200001 -1.868 7
3.6400001 -0.55900002 -1.8660001 8
3.8280001 -0.58600003 -1.862 8
4.0279999 -0.616 -1.858 8
4.2529998 -0.64999998 -1.857 9
4.4920001 -0.68699998 -1.8559999 9
3.5190001 -0.54500002 -1.8710001 7
3.7019999 -0.57200003 -1.868 8
3.8840001 -0.59899998 -1.859 8
4.0999999 -0.63200003 -1.859 8
4.329 -0.66600001 -1.859 8
4.5609999 -0.70200002 -1.851 9
3.5699999 -0.55599999 -1.868 8
3.7550001 -0.58399999 -1.865 8
3.951 -0.61299998 -1.86 8
4.171 -0.64600003 -1.86 9
4.402 -0.68199998 -1.857 8
4.6490002 -0.72000003 -1.853 9
3.6289999 -0.56800002 -1.868 8
3.816 -0.59600002 -1.864 8
4.0159998 -0.62599999 -1.859 9
4.244 -0.66100001 -1.86 9
4.4749999 -0.69700003 -1.855 9
4.7309999 -0.73699999 -1.851 9
3.6830001 -0.57999998 -1.865 8
3.878 -0.60900003 -1.862 8
4.085 -0.63999999 -1.858 9
4.3140001 -0.676 -1.857 9
4.5560002 -0.713 -1.854 9
4.8260002 -0.755 -1.853 9
3.7539999 -0.59299999 -1.869 8
3.9449999 -0.62199998 -1.862 8
4.1669998 -0.65600002 -1.862 9
4.3979998 -0.69199997 -1.859 8
4.6490002 -0.73100001 -1.857 9
4.921 -0.773 -1.854 10
3.8180001 -0.60600001 -1.868 9
4.0120001 -0.63499999 -1.86 8
4.2459998 -0.671 -1.864 9
4.4790001 -0.70700002 -1.859 9
4.7290001 -0.74599999 -1.853 9
5.0159998 -0.79100001 -1.852 10
3.8789999 -0.61699998 -1.865 8
4.0830002 -0.648 -1.86 9
4.3179998 -0.68400002 -1.8609999 9
4.5619998 -0.722 -1.858 9
4.8210001 -0.76300001 -1.852 9
5.1009998 -0.80699998 -1.846 9
3.9430001 -0.62900001 -1.863 8
4.1620002 -0.662 -1.862 9
4.4050002 -0.69999999 -1.864 9
4.6469998 -0.73699999 -1.857 9
4.915 -0.77899998 -1.851 10
5.2160001 -0.82700002 -1.849 10
4.0089998 -0.63999999 -1.86 8
4.2449999 -0.67699999 -1.864 10
4.48 -0.713 -1.86 9
4.7350001 -0.75300002 -1.855 10
5.0229998 -0.79799998 -1.854 10
5.3140001 -0.84399998 -1.845 10
4.0890002 -0.65399998 -1.862 8
4.322 -0.69 -1.862 9
4.5689998 -0.72799999 -1.86 9
4.8299999 -0.76800001 -1.854 9
5.1329999 -0.81599998 -1.855 10
5.4229999 -0.86199999 -1.842 10
4.1630001 -0.66600001 -1.86 9
4.4060001 -0.70300001 -1.862 9
4.6570001 -0.74199998 -1.858 10
4.9489999 -0.78799999 -1.8609999 10
5.2319999 -0.83200002 -1.851 9
5.566 -0.88499999 -1.849 10
4.2509999 -0.68000001 -1.864 9
4.4920001 -0.71700001 -1.862 10
4.7509999 -0.75700003 -1.858 10
5.0409999 -0.80299997 -1.857 10
5.336 -0.84899998 -1.848 10
5.6799998 -0.903 -1.845 10
4.3299999 -0.69199997 -1.862 9
4.5780001 -0.73000002 -1.86 10
4.8429999 -0.77100003 -1.8559999 10
5.1469998 -0.81900001 -1.8559999 10
5.4619999 -0.86799997 -1.85 9
5.8150001 -0.92400002 -1.845 9
4.4180002 -0.70599997 -1.863 9
4.6680002 -0.74400002 -1.858 10
4.9510002 -0.78799999 -1.857 11
5.2519999 -0.83399999 -1.853 9
5.5890002 -0.88700002 -1.851 10
5.9429998 -0.94300002 -1.842 10
4.506 -0.71799999 -1.862 9
4.7579999 -0.75700003 -1.855 10
5.0539999 -0.80299997 -1.8559999 9
5.3720002 -0.852 -1.854 9
5.7090001 -0.90499997 -1.847 9
6.0799999 -0.963 -1.839 11
4.5929999 -0.73000002 -1.86 9
4.8579998 -0.77100003 -1.855 9
5.1760001 -0.81999999 -1.86 10
5.4910002 -0.86900002 -1.852 10
5.8429999 -0.92400002 -1.846 9
6.2410002 -0.986 -1.841 9
4.6900001 -0.74400002 -1.86 9
4.9629998 -0.78500003 -1.855 10
5.283 -0.83399999 -1.8559999 10
5.612 -0.88499999 -1.85 10
5.9860001 -0.94300002 -1.846 10
6.3870001 -1.006 -1.837 10
4.7810001 -0.755 -1.857 9
5.0780001 -0.80000001 -1.857 10
5.3990002 -0.84899998 -1.855 10
5.744 -0.90200001 -1.849 10
6.1300001 -0.96200001 -1.844 10
6.5570002 -1.028 -1.837 10
4.882 -0.76800001 -1.855 9
5.1950002 -0.815 -1.858 10
5.5190001 -0.86400002 -1.853 10
5.8829999 -0.92000002 -1.849 11
6.2729998 -0.98000002 -1.84 10
6.7160001 -1.049 -1.8329999 10
4.987 -0.78100002 -1.854 9
5.309 -0.829 -1.8559999 9
5.651 -0.88099998 -1.853 9
6.027 -0.93800002 -1.848 9
6.434 -1 -1.839 9
6.8979998 -1.072 -1.832 10
5.1090002 -0.79500002 -1.858 9
5.4200001 -0.84200001 -1.852 10
5.7779999 -0.89499998 -1.849 9
6.1570001 -0.95300001 -1.841 10
6.6069999 -1.021 -1.839 9
7.0900002 -1.095 -1.831 10
5.2290001 -0.80900002 -1.859 9
5.5479999 -0.85600001 -1.851 9
5.9180002 -0.91100001 -1.848 10
6.322 -0.972 -1.8430001 10
6.7729998 -1.04 -1.836 10
7.3070002 -1.1210001 -1.834 9
5.3449998 -0.82099998 -1.858 9
5.677 -0.87 -1.85 10
6.066 -0.92699999 -1.848 9
6.4850001 -0.99000001 -1.841 10
6.9520001 -1.0599999 -1.8329999 9
7.4959998 -1.142 -1.827 9
5.4580002 -0.83200002 -1.853 10
5.8070002 -0.88300002 -1.847 11
6.1989999 -0.94099998 -1.841 9
6.6570001 -1.008 -1.841 10
7.1599998 -1.0829999 -1.835 9
7.7140002 -1.166 -1.824 10
5.5780001 -0.84299999 -1.849 11
5.941 -0.89600003 -1.8430001 10
6.3639998 -0.958 -1.842 10
6.8179998 -1.024 -1.834 10
7.369 -1.105 -1.835 9
7.9770002 -1.196 -1.829 29
5.723 -0.85799998 -1.852 10
6.0900002 -0.91000003 -1.842 10
6.54 -0.97500002 -1.8430001 9
7.0380001 -1.048 -1.84 9
7.5570002 -1.123 -1.826 9
8.1490002 -1.21 -1.809 38
5.8530002 -0.86900002 -1.848 9
6.2389998 -0.92299998 -1.839 10
6.7030001 -0.99000001 -1.8380001 10
7.2119999 -1.063 -1.832 9
7.7729998 -1.1440001 -1.822 9
8.3979998 -1.235 -1.8049999 42
5.993 -0.88 -1.845 9
6.4130001 -0.93900001 -1.841 10
6.8990002 -1.008 -1.84 8
7.4219999 -1.082 -1.831 9
8.0279999 -1.169 -1.823 11
8.6560001 -1.2589999 -1.798 39
6.1550002 -0.89399999 -1.846 10
6.5809999 -0.95300001 -1.839 10
7.0929999 -1.025 -1.8380001 9
7.6110001 -1.097 -1.822 9
8.29 -1.193 -1.822 33
8.9209995 -1.2819999 -1.79 46
6.296 -0.903 -1.84 10
6.7420001 -0.96499997 -1.8329999 10
7.2750001 -1.038 -1.831 9
7.8340001 -1.1160001 -1.818 9
8.4870005 -1.206 -1.804 44
9.224 -1.309 -1.785 50
6.4629998 -0.91500002 -1.839 10
6.9549999 -0.98199999 -1.8380001 9
7.4809999 -1.054 -1.8279999 9
8.059 -1.133 -1.811 9
8.7519999 -1.228 -1.798 45
9.5570002 -1.339 -1.7819999 51
6.631 -0.926 -1.835 10
7.151 -0.99599999 -1.836 9
7.6869998 -1.068 -1.821 9
8.3310003 -1.154 -1.812 10
9.0279999 -1.249 -1.791 44
9.8850002 -1.365 -1.775 57
6.8130002 -0.93800002 -1.835 9
7.329 -1.006 -1.8279999 9
7.908 -1.0829999 -1.817 9
8.6169996 -1.177 -1.813 35
9.3050003 -1.268 -1.781 53
10.232 -1.392 -1.767 61
7.0190001 -0.95200002 -1.8380001 9
7.5359998 -1.0190001 -1.824 9
8.1350002 -1.097 -1.811 10
8.8430004 -1.189 -1.799 49
9.6630001 -1.296 -1.7819999 60
10.623 -1.4220001 -1.761 62
7.2049999 -0.96100003 -1.8329999 9
7.7449999 -1.03 -1.818 9
8.3879995 -1.112 -1.807 10
9.118 -1.206 -1.79 49
9.9790001 -1.316 -1.771 65
11.024 -1.451 -1.752 70
7.4070001 -0.97100002 -1.829 9
7.9710002 -1.041 -1.813 10
8.6459999 -1.126 -1.801 10
9.4329996 -1.225 -1.786 49
10.341 -1.34 -1.7640001 61
11.416 -1.476 -1.7359999 54
7.6079998 -0.97899997 -1.823 9
8.2019997 -1.052 -1.807 10
9.0200005 -1.153 -1.8150001 18
9.7580004 -1.244 -1.779 53
10.765 -1.368 -1.762 67
11.88 -1.507 -1.727 15
7.8239999 -0.98799998 -1.818 9
8.4469995 -1.062 -1.801 10
9.2939997 -1.165 -1.8049999 38
10.073 -1.2589999 -1.767 64
11.165 -1.391 -1.751 73
12.494 -1.553 -1.732 11
8.0640001 -0.99699998 -1.816 9
8.7229996 -1.074 -1.7970001 10
9.5369997 -1.171 -1.785 53
10.449 -1.278 -1.761 68
11.597 -1.415 -1.7410001 84
13.037 -1.586 -1.72 11
8.2910004 -1.003 -1.808 9
8.9969997 -1.084 -1.791 10
9.8629999 -1.184 -1.778 54
10.835 -1.296 -1.753 74
12.094 -1.442 -1.7359999 85
13.657 -1.624 -1.7130001 12
8.5459995 -1.011 -1.803 10
9.2910004 -1.094 -1.785 10
10.179 -1.194 -1.766 61
11.275 -1.318 -1.749 74
12.514 -1.4579999 -1.7130001 40
14.399 -1.6720001 -1.712 12
8.8079996 -1.017 -1.7970001 11
9.599 -1.103 -1.779 10
10.562 -1.2079999 -1.761 61
11.747 -1.339 -1.744 75
13.099 -1.488 -1.707 14
15.185 -1.719 -1.707 12
9.0970001 -1.023 -1.793 10
9.9899998 -1.118 -1.783 15
10.941 -1.22 -1.751 67
12.243 -1.359 -1.737 77
13.809 -1.527 -1.709 13
16.091 -1.774 -1.705 12
9.3950005 -1.028 -1.7869999 11
10.387 -1.131 -1.784 41
11.392 -1.235 -1.748 78
12.784 -1.38 -1.73 78
14.593 -1.569 -1.712 12
17.125999 -1.835 -1.706 11
9.7019997 -1.0319999 -1.78 10
10.7 -1.132 -1.767 53
11.854 -1.248 -1.7410001 80
13.264 -1.39 -1.709 73
15.409 -1.608 -1.71 12
18.194 -1.891 -1.697 12
10.017 -1.033 -1.77 11
11.036 -1.132 -1.749 64
12.338 -1.2589999 -1.732 82
13.938 -1.416 -1.707 13
16.275999 -1.646 -1.704 9
19.395 -1.9529999 -1.688 14
10.377 -1.036 -1.765 12
11.44 -1.136 -1.738 68
12.882 -1.272 -1.725 78
14.716 -1.4450001 -1.7079999 12
17.336 -1.694 -1.705 11
20.785 -2.0220001 -1.679 15
10.727 -1.035 -1.7539999 11
11.92 -1.143 -1.734 72
13.354 -1.273 -1.7029999 51
15.555 -1.474 -1.707 8
18.409 -1.7359999 -1.696 12
22.408001 -2.102 -1.6720001 18
11.133 -1.035 -1.748 12
12.416 -1.147 -1.726 63
14.101 -1.294 -1.709 13
16.459 -1.501 -1.7029999 10
19.66 -1.783 -1.689 14
24.292999 -2.1919999 -1.665 13
11.565 -1.034 -1.7410001 11
12.958 -1.15 -1.72 63
14.838 -1.309 -1.706 12
17.458 -1.53 -1.7 11
20.988001 -1.8279999 -1.676 16
26.566 -2.3 -1.66 7
12.043 -1.0319999 -1.7359999 11
13.424 -1.142 -1.697 39
15.706 -1.327 -1.7079999 11
18.559999 -1.558 -1.693 12
22.658001 -1.8890001 -1.673 17
30.066 -2.49 -1.699 11
12.536 -1.027 -1.729 13
14.162 -1.151 -1.702 13
16.573999 -1.3380001 -1.702 10
19.797001 -1.586 -1.687 14
24.476 -1.948 -1.6619999 10
30.875999 -2.441 -1.5650001 27
13.069 -1.021 -1.722 19
14.918 -1.156 -1.7029999 12
17.562 -1.35 -1.697 11
21.117001 -1.6109999 -1.675 16
26.740999 -2.0239999 -1.658 6
30.806999 -2.313 -1.38 80
13.605 -1.01 -1.709 13
15.739 -1.158 -1.702 12
18.643 -1.359 -1.691 13
22.711 -1.642 -1.6670001 16
30.211 -2.1659999 -1.698 13
30.67 -2.1800001 -1.198 63
14.262 -1.001 -1.705 13
16.639 -1.1569999 -1.7 10
19.836 -1.3660001 -1.682 14
24.542999 -1.675 -1.66 8
30.707001 -2.0769999 -1.55 47
30.601999 -2.052 -1.024 69
15.01 -0.99299997 -1.706 12
17.572001 -1.15 -1.693 11
21.188 -1.373 -1.676 16
26.737 -1.714 -1.655 6
30.538 -1.939 -1.369 76
0 0 0 0
15.835 -0.98100001 -1.706 11
18.632999 -1.141 -1.686 13
22.684999 -1.374 -1.663 18
0 0 0 0
30.469 -1.804 -1.194 81
34.242001 -2.006 -0.76200002 72
16.695999 -0.963 -1.702 10
19.752001 -1.125 -1.675 14
24.539 -1.38 -1.661 9
30.608999 -1.701 -1.55 54
30.499001 -1.675 -1.028 58
34.203999 -1.8559999 -0.57499999 68
17.622999 -0.93900001 -1.696 11
21.031 -1.1059999 -1.664 16
26.596001 -1.3789999 -1.651 6
30.441999 -1.557 -1.373 77
30.782 -1.554 -0.86900002 23
34.182999 -1.7029999 -0.389 72
18.656 -0.912 -1.691 13
22.514 -1.084 -1.658 18
29.944 -1.419 -1.6950001 18
30.355 -1.418 -1.206 81
34.119999 -1.5700001 -0.78100002 74
34.18 -1.549 -0.20900001 76
19.743999 -0.87699997 -1.681 14
24.209999 -1.057 -1.651 12
30.434 -1.306 -1.561 49
30.322001 -1.28 -1.045 72
34.129002 -1.416 -0.60299999 65
34.271 -1.398 -0.032000002 73
20.973 -0.83600003 -1.673 16
26.215 -1.025 -1.648 6
30.351 -1.164 -1.397 70
30.511 -1.148 -0.89300001 29
34.144001 -1.26 -0.42699999 60
34.497002 -1.247 0.14399999 66
22.413 -0.78899997 -1.668 18
28.938 -0.99599999 -1.666 10
30.207001 -1.017 -1.233 85
33.91 -1.114 -0.815 44
34.137001 -1.097 -0.25099999 67
34.790001 -1.091 0.32300001 73
24.108999 -0.73400003 -1.6670001 12
30.341 -0.89899999 -1.5880001 30
30.195 -0.87 -1.075 80
34.083 -0.95599997 -0.64399999 72
34.261002 -0.93400002 -0.077 77
35.195999 -0.93300003 0.50400001 18
25.982 -0.66500002 -1.661 7
30.283001 -0.75099999 -1.431 73
30.237 -0.72500002 -0.92299998 32
34.144001 -0.79100001 -0.47400001 64
34.5 -0.77100003 0.093000002 74
96.633003 -2.0829999 1.864 21
28.687 -0.59299999 -1.688 9
30.179001 -0.59899998 -1.273 88
33.412998 -0.63599998 -0.85399997 47
34.264999 -0.62400001 -0.30700001 71
34.942001 -0.60699999 0.26499999 69
96.692001 -1.601 2.3340001 150
30.127001 -0.472 -1.6210001 29
30.108999 -0.44600001 -1.12 73
34.358002 -0.48100001 -0.70999998 60
34.476002 -0.454 -0.141 71
35.539001 -0.43799999 0.44100001 5
96.667999 -1.107 2.7980001 102
30.212 -0.31900001 -1.476 74
30.103001 -0.292 -0.97299999 54
34.460999 -0.30599999 -0.54500002 66
34.823002 -0.28 0.022 67
54.729 -0.39399999 0.93699998 53
120.723 -0.76499999 4.0560002 79
30.104 -0.163 -1.326 76
0 0 0 0
34.660999 -0.12800001 -0.384 76
35.391998 -0.1 0.189 16
55.257 -0.11 1.2029999 7
120.281 -0.133 4.5949998 19
30.016001 -0.0070000002 -1.181 62
33.028999 0.021 -0.75599998 0
35.132999 0.052000001 -0.228 65
43.48 0.104 0.43099999 56
44.592999 0.148 1.175 1
119.849 0.50700003 5.125 33
29.898001 0.15000001 -1.0369999 73
35.556 0.211 -0.65100002 45
43.078999 0.29300001 -0.083999999 63
43.226002 0.33199999 0.62199998 61
44.660999 0.38499999 1.374 14
87.623001 0.83600003 4.131 7
0 0 0 0
43.152 0.48899999 -0.59500003 64
42.706001 0.523 0.108 64
42.980999 0.56599998 0.81099999 59
44.535 0.62699997 1.567 25
123.819 1.862 6.3800001 34
32.556999 0.51599997 -0.83600003 27
42.611 0.71499997 -0.40000001 64
42.437 0.75400001 0.294 63
42.91 0.801 0.995 65
44.374001 0.87099999 1.753 14
124.851 2.573 6.9699998 16
34.167 0.73100001 -0.72799999 2
34.091 0.76200002 -0.17200001 2
42.297001 0.98400003 0.472 55
42.806999 1.038 1.174 65
44.386002 1.118 1.939 8
129.72 3.4000001 7.7849998 17
33.652 0.90899998 -0.57300001 47
33.874001 0.94700003 -0.028000001 44
42.191002 1.221 0.64899999 59
30.846001 0.92299998 0.97500002 64
44.702 1.383 2.141 3
101.93 3.2539999 6.5380001 20
33.479 1.095 -0.42899999 40
33.674 1.133 0.111 40
30.746 1.064 0.59899998 62
30.665001 1.092 1.094 88
0 0 0 0
101.42 3.8180001 6.9099998 19
30.733 1.1799999 -0.27000001 62
30.700001 1.2079999 0.22400001 145
30.587 1.233 0.71700001 81
30.547001 1.262 1.21 43
0 0 0 0
0 0 0 0
33.175999 1.465 -0.16 54
33.463001 1.511 0.37599999 55
30.448999 1.405 0.833 90
43.115002 2.0339999 1.875 66
0 0 0 0
0 0 0 0
33.063999 1.655 -0.030999999 55
33.500999 1.709 0.505 59
42.095001 2.191 1.312 63
43.257 2.2980001 2.0469999 51
0 0 0 0
0 0 0 0
33.007999 1.848 0.093000002 55
33.580002 1.914 0.63300002 60
42.118999 2.444 1.47 60
43.650002 2.579 2.2260001 7
0 0 0 0
0 0 0 0
33.057999 2.049 0.215 41
33.742001 2.1270001 0.75999999 47
42.243999 2.707 1.6289999 63
166.026 10.816 9.066 28
0 0 0 0
0 0 0 0
33.175999 2.257 0.33500001 40
33.813 2.336 0.88099998 33
42.417999 2.974 1.783 64
0 0 0 0
0 0 0 0
0 0 0 0
33.174 2.461 0.45100001 39
33.915001 2.55 1.001 10
42.581001 3.2479999 1.937 66
221.261 17.128 13.613 37
0 0 0 0
0 0 0 0
33.279999 2.6760001 0.56599998 55
41.737 3.4000001 1.373 62
42.880001 3.54 2.095 39
125.065 10.463 8.1110001 21
0 0 0 0
0 0 0 0
33.41 2.8940001 0.67699999 49
41.825001 3.668 1.512 62
43.216 3.8380001 2.2509999 5
124.881 11.231 8.5 30
0 0 0 0
0 0 0 0
33.887001 3.1500001 0.79500002 41
42.014 3.951 1.653 63
110.059 10.475 6.0819998 20
128.83501 12.413 9.177 17
0 0 0 0
0 0 0 0
34.175999 3.3959999 0.90899998 2
42.189999 4.2399998 1.79 64
100.733 10.239 5.8769999 26
100.308 10.31 7.4510002 17
0 0 0 0
0 0 0 0
41.585999 4.4000001 1.23 58
42.514999 4.546 1.9299999 67
100.168 10.822 6.1370001 29
97.652 10.663 7.5380001 19
224.38901 24.783001 20.912001 38
0 0 0 0
41.724998 4.6849999 1.354 61
43.048 4.882 2.0780001 51
97.568001 11.179 6.2579999 40
96.629997 11.185 7.7360001 40
0 0 0 0
0 0 0 0
42.018002 4.9920001 1.48 53
43.275002 5.191 2.2079999 14
94.057999 11.394 6.2909999 40
95.863998 11.727 7.9359999 44
97.103996 12.006 9.5939999 12
0 0 0 0
42.301998 5.3060002 1.605 56
93.393997 11.823 5.0170002 51
92.882004 11.865 6.46 30
95.737 12.35 8.1809998 29
0 0 0 0
0 0 0 0
42.664001 5.638 1.729 66
92.709999 12.355 5.2179999 42
92.721001 12.471 6.6890001 31
96.026001 13.037 8.4540005 36
0 0 0 0
0 0 0 0
43.214001 6.0019999 1.859 45
92.744003 12.985 5.4510002 21
93.267998 13.173 6.9569998 41
95.697998 13.638 8.6590004 32
0 0 0 0
0 0 0 0
44.013 6.4120002 2 10
93.157997 13.682 5.6989999 25
93.289001 13.816 7.1820002 24
95.863998 14.317 8.9020004 26
0 0 0 0
0 0 0 0
96.206001 14.68 4.5929999 12
93.078003 14.309 5.9070001 36
94.791 14.69 7.5139999 27
95.538002 14.931 9.0909996 45
0 0 0 0
0 0 0 0
99.112 15.804 4.947 30
93.103996 14.958 6.1100001 9
95.202003 15.413 7.7550001 28
0 0 0 0
0 0 0 0
0 0 0 0
98.963997 16.469 5.1469998 24
95.582001 16.017 6.4720001 41
96.353996 16.268 8.0469999 42
0 0 0 0
0 0 0 0
0 0 0 0
106.312 18.433001 5.737 22
106.492 18.597 7.4239998 38
219.87 38.667 18.799 51
0 0 0 0
0 0 0 0
0 0 0 0
102.212 18.443001 5.7090001 31
101.719 18.473 7.2789998 17
219.92999 40.226002 19.212 37
0 0 0 0
0 0 0 0
0 0 0 0
99.821999 18.712999 5.75 37
100.79 19.021 7.3930001 35
101.511 19.289 9.0489998 14
0 0 0 0
0 0 0 0
0 0 0 0
99.003998 19.271999 5.8699999 42
99.276001 19.451 7.4489999 36
100.018 19.726999 9.085 24
0 0 0 0
0 0 0 0
0 0 0 0
98.525002 19.893 5.9980001 28
98.944 20.1 7.5770001 44
100.409 20.525 9.276 27
0 0 0 0
0 0 0 0
0 0 0 0
97.459999 20.384001 6.0770001 21
99.023003 20.834 7.73 37
100.17 21.202999 9.4029999 19
0 0 0 0
0 0 0 0
0 0 0 0
95.964996 20.775 6.1160002 36
96.948997 21.108999 7.7020001 37
0 0 0 0
0 0 0 0
0 0 0 0
0 0 0 0
95.507004 21.377001 6.204 46
95.919998 21.587999 7.743 36
105.684 23.927 10.202 23
0 0 0 0
0 0 0 0
0 0 0 0
95.351997 22.045 6.3049998 28
95.851997 22.281 7.8460002 39
104.838 24.514999 10.244 27
0 0 0 0
0 0 0 0
0 0 0 0
95.402 22.768 6.4099998 22
95.206001 22.841 7.895 39
104.362 25.174 10.307 31
0 0 0 0
0 0 0 0
0 0 0 0
95.181999 23.424 6.4860001 15
95.241997 23.559 7.9899998 21
99.299004 24.697001 9.9040003 20
0 0 0 0
0 0 0 0
0 0 0 0
95.787003 24.285999 6.6059999 13
93.516998 23.832001 7.9260001 18
96.189003 24.643999 9.6780005 16
0 0 0 0
0 0 0 0
0 0 0 0
92.556999 24.167 6.4520001 16
93.758003 24.594999 8.0150003 18
92.266998 24.33 9.3520002 12
92.623001 24.561001 10.867 9
0 0 0 0
0 0 0 0
92.817001 24.934999 6.5300002 29
93.009003 25.105 8.0109997 24
72.641998 19.707001 7.4109998 17
0 0 0 0
0 0 0 0
0 0 0 0
92.879997 25.660999 6.5840001 12
90.224998 25.042 7.8210001 9
92.136002 25.700001 9.4519997 26
92.419998 25.917 10.961 21
0 0 0 0
0 0 0 0
73.713997 20.924 5.2550001 57
89.915001 25.639999 7.835 11
92.605003 26.535 9.5439997 7
91.771004 26.434 10.929 22
0 0 0 0
0 0 0 0
92.864998 27.075001 6.6500001 16
0 0 0 0
92.592003 27.235001 9.5740004 12
90.973 26.896 10.866 34
0 0 0 0
0 0 0 0
96.647003 28.923 6.9419999 10
89.467003 26.882999 7.8460002 30
91.848999 27.725 9.5209999 17
90.233002 27.374001 10.803 17
0 0 0 0
0 0 0 0
92.438004 28.375 6.652 9
89.431999 27.563999 7.855 9
91.514 28.333 9.5 20
90.573997 28.179001 10.86 25
0 0 0 0
0 0 0 0
96.082001 30.239 6.915 19
90.428001 28.573 7.9460001 19
90.832001 28.822001 9.4359999 16
91.009003 29.016001 10.921 27
0 0 0 0
0 0 0 0
88.518997 28.549 6.3629999 20
88.778 28.747999 7.7930002 9
0 0 0 0
90.566002 29.584999 10.865 30
0 0 0 0
0 0 0 0
88.526001 29.247 6.3439999 22
89.989998 29.837999 7.8860002 18
91.167 30.354 9.4519997 9
91.083 30.464001 10.916 18
0 0 0 0
0 0 0 0
88.450996 29.906 6.3099999 32
90.542999 30.728001 7.9089999 9
89.666 30.554001 9.2740002 22
92.053001 31.503 11.013 22
0 0 0 0
0 0 0 0
88.843002 30.73 6.303 25
90.190002 31.312 7.8400002 6
89.691002 31.257 9.243 23
0 0 0 0
0 0 0 0
0 0 0 0
88.976997 31.471001 6.2690001 29
89.385002 31.729 7.7290001 13
91.158997 32.483002 9.3529997 20
0 0 0 0
0 0 0 0
0 0 0 0
91.078003 32.93 6.362 16
88.594002 32.139 7.6110001 26
89.588997 32.622002 9.1440001 20
92.252998 33.727001 10.919 17
0 0 0 0
0 0 0 0
90.07 33.266998 6.2249999 21
88.644997 32.841999 7.5539999 29
91.378998 33.978001 9.2670002 12
91.574997 34.189999 10.78 30
0 0 0 0
0 0 0 0
88.291 33.305 6.0300002 18
88.572998 33.512001 7.4790001 26
90.676003 34.43 9.1280003 21
90.884003 34.646 10.633 12
0 0 0 0
0 0 0 0
87.435997 33.66 5.8920002 18
89.051003 34.384998 7.4390001 24
90.516998 35.076 9.0369997 27
91.075996 35.424999 10.585 12
0 0 0 0
0 0 0 0
88.170998 34.632999 5.8540001 26
76.099998 29.979 6.2839999 18
91.431999 36.140999 9.0389996 22
90.660004 35.972 10.45 16
0 0 0 0
0 0 0 0
76.403999 30.614 4.987 32
75.615997 30.384001 6.1620002 41
74.285004 29.941999 7.2680001 38
74.889 30.298 8.5579996 4
0 0 0 0
0 0 0 0
75.129997 30.684 4.8130002 38
74.167999 30.374001 5.9569998 6
73.831001 30.327999 7.1399999 34
73.388 30.250999 8.3070002 28
0 0 0 0
0 0 0 0
74.544998 31.028 4.6789999 31
75.530998 31.521999 5.9720001 21
73.212997 30.648001 6.9889998 12
73.016998 30.67 8.177 37
0 0 0 0
0 0 0 0
74.670998 31.660999 4.5799999 15
75.596001 32.131001 5.8730001 17
72.872002 31.065001 6.8590002 24
72.005997 30.802 7.9689999 36
73.445 31.542 9.3549995 24
0 0 0 0
74.975998 32.375 4.4879999 6
71.978996 31.153 5.4889998 8
72.039001 31.268999 6.6799998 13
71.848999 31.291 7.8530002 34
71.918999 31.437 9.0629997 37
0 0 0 0
74.843002 32.896999 4.3579998 5
70.982002 31.275999 5.3010001 20
71.809998 31.726 6.5510001 6
71.545998 31.712 7.7160001 19
71.887001 31.982 8.9549999 33
0 0 0 0
73.344002 32.807999 4.1479998 12
70.968002 31.813 5.1830001 40
74.551003 33.509998 6.6789999 22
71.114998 32.063 7.5580001 25
71.018997 32.136002 8.7379999 29
0 0 0 0
73.940002 33.646999 4.0500002 15
71.188004 32.460999 5.0760002 28
72.905998 33.331001 6.4089999 29
70.505997 32.328999 7.3769999 22
70.624001 32.498001 8.5760002 35
73.557999 33.984001 10.176 13
79.364998 36.721001 4.198 23
72.275002 33.513 5.0159998 4
72.017998 33.474998 6.1989999 18
70.347 32.796001 7.2319999 35
70.513 32.988998 8.4399996 39
73.529999 34.535999 10.048 30
79.227997 37.275002 4.0310001 7
71.639999 33.766998 4.835 10
70.561996 33.34 5.9390001 24
70.791 33.541 7.1490002 18
72.787003 34.604 8.5790005 28
73.611 35.130001 9.9259996 14
89.509003 42.789001 4.369 24
73.292 35.105 4.8000002 12
70.263 33.729 5.7789998 12
70.393997 33.887001 6.974 21
71.091003 34.334999 8.2460003 32
71.742996 34.784 9.54 42
89.714996 43.578999 4.1890001 10
71.466003 34.776001 4.5279999 6
76.747002 37.43 6.1500001 14
70.672997 34.561001 6.855 12
70.261002 34.470001 8.007 40
71.499001 35.206001 9.368 37
73.398003 36.210999 3.257 20
71.167999 35.168999 4.348 14
71.163002 35.244999 5.5479999 3
70.349998 34.93 6.6760001 28
70.18 34.953999 7.8530002 35
71.109001 35.543999 9.1730003 37
87.865997 44.014999 3.6919999 7
71.223999 35.730999 4.1890001 26
71.063004 35.723 5.3779998 13
70.643997 35.605 6.5469999 24
70.164001 35.466 7.7010002 35
70.853996 35.942001 8.9919996 40
0 0 0 0
71.186996 36.242001 4.0190001 31
70.822998 36.127998 5.1960001 15
71.063004 36.339001 6.421 22
69.778 35.783001 7.5 15
70.639 36.348999 8.8059998 40
0 0 0 0
71.07 36.706001 3.835 41
70.987 36.733002 5.0380001 24
0 0 0 0
70.991997 36.926998 7.4640002 34
70.898003 37.001999 8.6750002 36
0 0 0 0
0 0 0 0
70.413002 36.952999 4.8200002 6
64.574997 33.966 5.5229998 5
70.391998 37.125 7.2319999 26
70.896004 37.512001 8.5080004 37
0 0 0 0
73.230003 38.896999 3.569 7
70.317001 37.409 4.6290002 38
69.986 37.313 5.8060002 32
70.117996 37.484001 7.0240002 33
70.992996 38.075001 8.3439999 28
72.953003 39.233002 2.1170001 20
69.060997 37.176998 3.1819999 8
70.134003 37.813 4.4310002 39
69.574997 37.59 5.5910001 42
69.607002 37.701 6.7969999 41
69.880997 37.966 8.0360003 39
0 0 0 0
68.114998 37.150002 2.9460001 8
67.146004 36.674999 4.0549998 6
69.848999 38.227001 5.421 23
69.553001 38.159 6.6079998 35
69.907997 38.469002 7.8569999 29
0 0 0 0
0 0 0 0
67.412003 37.292999 3.882 21
67.769997 37.561001 5.073 15
68.984001 38.326 6.3600001 36
69.297997 38.615002 7.6009998 22
0 0 0 0
0 0 0 0
67.380997 37.744999 3.6830001 33
67.519997 37.887001 4.8629999 34
67.221001 37.806 6.0100002 35
67.343002 37.980999 7.197 48
75.816002 42.905998 1.2970001 5
0 0 0 0
67.307999 38.157001 3.4790001 35
67.032997 38.064999 4.6279998 29
67.101997 38.186001 5.8060002 28
67.263 38.380001 7 14
72.416 41.471001 1.011 5
66.903 38.334 2.0910001 6
66.433998 38.109001 3.2320001 22
66.883003 38.424 4.421 32
66.893997 38.512001 5.5910001 13
69.074997 39.873001 6.9850001 6
65.112 37.727001 0.69999999 4
109.884 63.695999 3.0869999 90
66.767998 38.737 3.04 20
70.834999 41.158001 4.4619999 23
70.496002 41.040001 5.678 17
70.023003 40.869999 6.8720002 35
64.773003 37.958 0.47999999 13
75.314003 44.146 1.872 7
67.132004 39.381001 2.8429999 8
69.369003 40.755001 4.152 27
0 0 0 0
69.633003 41.085999 6.6209998 20
64.786003 38.388 0.26300001 32
90.788002 53.803001 1.957 14
69.580002 41.264999 2.717 36
69.148003 41.061001 3.914 34
70.058998 41.681 5.2030001 18
69.738998 41.589001 6.4109998 17
64.650002 38.723999 0.037999999 33
131.776 78.939003 2.385 24
69.473999 41.644001 2.4760001 6
68.968002 41.387001 3.675 8
70.200996 42.199001 4.98 12
70.906998 42.723 6.289 19
62.157001 37.624001 -0.182 3
71.856003 43.491001 1.054 13
0 0 0 0
70.239998 42.577999 3.5090001 22
71.136002 43.191002 4.8119998 13
71.166 43.304001 6.0770001 16
59.838001 36.584 -0.38800001 3
64.619003 39.501999 0.71799999 10
0 0 0 0
0 0 0 0
71.056999 43.563999 4.5689998 13
71.932999 44.192001 5.9039998 31
56.648998 34.977001 -0.57499999 5
64.663002 39.916 0.486 21
0 0 0 0
70.821999 43.765999 3.0450001 11
70.532997 43.652 4.2909999 17
71.640999 44.424999 5.6350002 33
54.644001 34.062 -0.75700003 4
64.732002 40.334 0.25299999 19
149.12199 92.933998 3.23 23
73.069 45.570999 2.882 5
70.088997 43.768002 4.0159998 9
71.367996 44.650002 5.3639998 34
0 0 0 0
64.584999 40.606998 0.015 24
72.5 45.59 1.304 30
0 0 0 0
71.525002 45.057999 3.8429999 9
70.612 44.562 5.0570002 42
0 0 0 0
60.308998 38.25 -0.21600001 3
70.950996 45 1.016 7
67.042999 42.542 2.1619999 30
67.408997 42.821999 3.3800001 4
69.981003 44.533001 4.7600002 45
0 0 0 0
58.787998 37.601002 -0.435 5
64.834999 41.459999 0.68300003 17
0 0 0 0
0 0 0 0
70.082001 44.952 4.5149999 20
0 0 0 0
55.627998 35.867001 -0.62400001 7
64.561996 41.613998 0.43700001 23
0 0 0 0
70.337997 45.390999 3.0039999 12
69.107002 44.661999 4.1960001 24
0 0 0 0
53.304001 34.633999 -0.80400002 3
64.424004 41.842999 0.18700001 29
71.927002 46.726002 1.5039999 9
90.583 58.888 3.5309999 12
69.004997 44.921001 3.934 18
0 0 0 0
0 0 0 0
64.627998 42.278999 -0.064000003 20
71.553001 46.813 1.219 13
0 0 0 0
68.852997 45.133999 3.668 27
31.153999 20.559999 -1.2819999 1
0 0 0 0
64.615997 42.563999 -0.31600001 4
71.540001 47.120998 0.94700003 20
0 0 0 0
70.209 46.323002 3.47 18
29.517 19.612 -1.335 1
0 0 0 0
57.790001 38.318001 -0.50999999 6
64.579002 42.812 0.60299999 15
0 0 0 0
70.612999 46.881001 3.22 17
0 0 0 0
37.319 24.919001 -1.158 1
54.702 36.494999 -0.70300001 7
64.473999 43.002998 0.34200001 22
75.197998 50.171001 1.768 6
93.161003 62.213001 3.882 9
26.028 17.511999 -1.39 4
34.277 23.025999 -1.204 1
54.615002 36.653 -0.92299998 3
64.404999 43.205002 0.086000003 23
0 0 0 0
0 0 0 0
0 0 0 0
31.284 21.132999 -1.227 1
0 0 0 0
64.272003 43.348999 -0.169 14
71.847 48.463001 1.119 13
98.396004 66.417999 3.326 10
23.179001 15.77 -1.432 5
29.489 20.027 -1.28 1
0 0 0 0
0 0 0 0
64.436996 43.681999 0.741 6
0 0 0 0
22.132 15.134 -1.46 5
27.767 18.950001 -1.319 3
0 0 0 0
54.311001 36.987999 -0.58600003 5
64.324997 43.801998 0.48100001 18
0 0 0 0
21.128 14.515 -1.482 6
26.285 18.02 -1.359 4
36.528 25.006001 -1.215 1
51.077999 34.936001 -0.75800002 2
64.220001 43.915001 0.222 30
71.492996 48.904999 1.558 5
20.033001 13.822 -1.489 5
24.634001 16.959 -1.376 4
0 0 0 0
0 0 0 0
64.370003 44.183998 -0.037999999 14
70.771004 48.59 1.253 16
19.273001 13.349 -1.5140001 7
23.365 16.146999 -1.402 5
0 0 0 0
0 0 0 0
64.206001 44.224998 -0.29800001 6
70.664001 48.68 0.96600002 25
18.419001 12.804 -1.524 7
22.268999 15.443 -1.429 5
28.761 19.908001 -1.313 1
0 0 0 0
54.073002 37.361 -0.477 3
64.189003 44.352001 0.61400002 13
17.58 12.261 -1.53 11
21.224001 14.763 -1.451 5
27.115999 18.825001 -1.351 4
0 0 0 0
53.895 37.34 -0.69800001 5
64.272003 44.523998 0.34999999 22
16.906 11.824 -1.543 12
20.273001 14.14 -1.472 5
25.312 17.617001 -1.3660001 4
34.278999 23.825001 -1.214 1
0 0 0 0
64.188004 44.566002 0.093000002 17
16.275999 11.411 -1.553 14
19.364 13.537 -1.485 7
23.943001 16.701 -1.391 5
31.570999 21.989 -1.249 1
0 0 0 0
64.310997 44.734001 -0.17200001 6
15.717 11.042 -1.567 13
18.580999 13.016 -1.503 10
22.91 16.011 -1.425 5
0 0 0 0
0 0 0 0
0 0 0 0
15.189 10.689 -1.576 12
17.85 12.523 -1.517 12
21.783001 15.245 -1.444 5
27.593 19.277 -1.317 3
39.161999 27.326 -1.1440001 1
53.831001 37.541 -0.58399999 5
14.665 10.334 -1.584 11
17.115 12.022 -1.527 14
20.882999 14.631 -1.47 6
26.195999 18.318001 -1.357 3
0 0 0 0
53.675999 37.460999 -0.79699999 9
14.245 10.048 -1.597 11
16.504999 11.603 -1.539 14
19.917999 13.965 -1.485 6
24.908001 17.427999 -1.393 5
0 0 0 0
0 0 0 0
13.767 9.7159996 -1.601 10
15.951 11.219 -1.553 13
19.139999 13.424 -1.505 8
23.395 16.372 -1.404 5
30.966999 21.638 -1.284 1
0 0 0 0
13.339 9.4160004 -1.6059999 9
15.397 10.829 -1.563 12
18.322001 12.849 -1.516 11
22.334999 15.628 -1.4299999 5
0 0 0 0
0 0 0 0
12.97 9.1529999 -1.613 9
14.894 10.472 -1.571 12
17.568001 12.315 -1.524 14
21.316999 14.907 -1.452 5
27.118999 18.931 -1.3430001 8
37.247002 25.972 -1.158 1
12.509 8.8219995 -1.607 8
14.438 10.144 -1.581 11
16.948 11.871 -1.538 15
20.464001 14.297 -1.473 5
25.396 17.709999 -1.358 4
0 0 0 0
12.071 8.5050001 -1.599 29
14.006 9.8299999 -1.59 10
16.381001 11.459 -1.552 14
19.608999 13.682 -1.4910001 6
24.177999 16.836 -1.3890001 5
0 0 0 0
11.944 8.4040003 -1.63 56
13.582 9.5179996 -1.596 10
15.811 11.043 -1.561 13
18.808001 13.1 -1.5039999 7
23.068001 16.034 -1.4170001 5
30.110001 20.898001 -1.295 1
11.735 8.243 -1.648 38
13.189 9.2250004 -1.602 9
15.263 10.639 -1.566 12
18.142 12.61 -1.522 10
22.098 15.326 -1.444 5
27.937 19.344999 -1.3099999 2
11.431 8.0120001 -1.649 11
12.86 8.9750004 -1.6109999 8
14.816 10.303 -1.576 11
17.433001 12.087 -1.529 10
21.149 14.63 -1.4630001 6
26.683001 18.427 -1.355 4
11.051 7.7249999 -1.637 8
12.326 8.5799999 -1.591 25
14.408 9.9919996 -1.5880001 11
16.820999 11.629 -1.54 11
20.283001 13.99 -1.48 5
25.375 17.469999 -1.383 4
10.742 7.4879999 -1.631 27
12.149 8.4320002 -1.613 56
13.968 9.6569996 -1.591 10
16.295 11.23 -1.552 13
19.545 13.435 -1.501 6
23.791 16.323 -1.387 4
10.654 7.402 -1.6569999 57
12.002 8.3000002 -1.638 43
13.609 9.375 -1.601 9
15.783 10.838 -1.562 13
18.782 12.863 -1.51 7
22.999001 15.719 -1.427 5
10.488 7.2600002 -1.669 50
11.734 8.085 -1.6440001 16
13.239 9.0860004 -1.6059999 9
15.321 10.479 -1.572 12
18.114 12.355 -1.524 9
22.034 14.998 -1.448 5
10.305 7.1040001 -1.676 21
11.383 7.8099999 -1.636 6
12.747 8.7110004 -1.592 12
14.88 10.132 -1.581 11
17.462 11.857 -1.531 12
21.136 14.32 -1.466 6
10.051 6.8979998 -1.671 8
11.016 7.5240002 -1.622 27
12.448 8.467 -1.598 39
14.474 9.8100004 -1.5880001 11
16.893999 11.417 -1.541 13
20.379 13.74 -1.485 6
9.8669996 6.7399998 -1.674 8
10.91 7.4159999 -1.6440001 50
12.353 8.3599997 -1.6289999 57
14.094 9.5030003 -1.596 10
16.416 11.036 -1.5549999 12
19.551001 13.112 -1.493 7
9.6300001 6.5440001 -1.666 24
10.764 7.2779999 -1.658 47
12.118 8.1569996 -1.6390001 24
13.73 9.2080002 -1.601 10
15.873 10.612 -1.558 13
18.889 12.596 -1.508 7
9.5710001 6.4679999 -1.688 49
10.604 7.1290002 -1.668 22
11.769 7.8769999 -1.631 7
13.363 8.9090004 -1.602 9
15.441 10.261 -1.567 12
18.247999 12.095 -1.518 10
9.4370003 6.3400002 -1.6950001 52
10.321 6.8979998 -1.658 7
11.389 7.5760002 -1.615 22
12.878 8.5319996 -1.587 21
15.079 9.9580002 -1.581 11
17.659 11.63 -1.53 12
9.3439999 6.237 -1.707 45
10.164 6.7490001 -1.664 8
11.295 7.4660001 -1.637 52
12.649 8.3269997 -1.598 38
14.699 9.6429996 -1.5880001 11
17.169001 11.231 -1.5420001 12
9.2180004 6.1129999 -1.7130001 16
9.9490004 6.5619998 -1.66 29
11.132 7.3080001 -1.649 62
12.571 8.2180004 -1.6289999 32
14.344 9.3439999 -1.594 10
16.673 10.83 -1.551 13
9.0430002 5.9549999 -1.707 8
9.8470001 6.4489999 -1.6720001 51
11.018 7.1810002 -1.665 31
12.269 7.9619999 -1.627 7
14 9.0530005 -1.6 10
16.229 10.463 -1.5599999 13
8.927 5.835 -1.712 8
9.7250004 6.3210001 -1.6799999 58
10.733 6.9419999 -1.654 8
11.866 7.6420002 -1.609 15
13.668 8.7700005 -1.603 9
15.819 10.118 -1.569 12
8.8149996 5.717 -1.715 8
9.6630001 6.2319999 -1.698 41
10.564 6.7789998 -1.659 8
11.731 7.4949999 -1.625 44
13.351 8.4980001 -1.605 9
15.447 9.8009996 -1.577 11
8.6429996 5.5599999 -1.705 18
9.5209999 6.0900002 -1.699 13
10.318 6.5669999 -1.649 27
11.613 7.3579998 -1.642 59
13.084 8.2580004 -1.6109999 8
15.093 9.4949999 -1.585 11
8.5810003 5.474 -1.716 39
9.3549995 5.934 -1.6950001 8
10.253 6.4689999 -1.666 65
11.477 7.2090001 -1.653 32
12.85 8.04 -1.617 8
14.74 9.191 -1.59 10
8.5120001 5.382 -1.724 42
9.2580004 5.8200002 -1.701 9
10.129 6.3340001 -1.673 67
11.23 6.9910002 -1.648 9
12.493 7.7449999 -1.6059999 10
14.373 8.8809996 -1.589 10
8.4139996 5.2719998 -1.724 44
9.1379995 5.6919999 -1.701 9
10.076 6.243 -1.689 44
11.045 6.8119998 -1.649 8
12.241 7.5180001 -1.6059999 35
14.106 8.6330004 -1.597 10
8.3660002 5.1919999 -1.735 35
8.9820004 5.5419998 -1.694 35
9.915 6.0840001 -1.686 13
10.773 6.579 -1.635 28
12.19 7.4130001 -1.63 58
13.798 8.3599997 -1.598 9
8.2849998 5.0910001 -1.738 12
8.9280005 5.454 -1.705 52
9.7740002 5.9380002 -1.686 9
10.733 6.4879999 -1.655 58
12.103 7.2859998 -1.648 45
13.524 8.1110001 -1.6 9
8.1809998 4.9759998 -1.734 9
8.8369999 5.3429999 -1.707 52
9.6560001 5.8060002 -1.688 9
10.601 6.3429999 -1.659 63
11.875 7.0739999 -1.645 12
13.316 7.9029999 -1.607 8
8.1059999 4.8790002 -1.735 9
8.7609997 5.2410002 -1.712 52
9.5360003 5.6729999 -1.687 10
10.572 6.2579999 -1.678 38
11.642 6.8600001 -1.6390001 8
12.971 7.6149998 -1.596 16
8.0340004 4.7839999 -1.7359999 9
8.7709999 5.1900001 -1.732 29
9.4099998 5.5370002 -1.6849999 41
10.402 6.0900002 -1.674 11
11.338 6.6069999 -1.6210001 24
12.763 7.4089999 -1.598 36
7.9790001 4.698 -1.739 9
8.6140003 5.04 -1.7180001 9
9.3780003 5.4549999 -1.698 55
10.256 5.9359999 -1.671 9
11.3 6.5100002 -1.64 53
12.75 7.316 -1.624 42
7.8709998 4.5809999 -1.7309999 12
8.5439997 4.941 -1.72 9
9.2849998 5.3390002 -1.699 55
10.152 5.8070002 -1.674 8
11.232 6.3959999 -1.651 63
12.607 7.1490002 -1.631 21
7.8150001 4.4949999 -1.7309999 35
8.4829998 4.848 -1.723 9
9.2469997 5.2540002 -1.709 57
9.9779997 5.6389999 -1.664 14
11.179 6.289 -1.666 50
12.382 6.9369998 -1.627 9
7.7849998 4.4229999 -1.738 43
8.427 4.757 -1.726 9
9.257 5.1950002 -1.727 23
9.9379997 5.5469999 -1.676 48
11.05 6.1389999 -1.6670001 16
12.094 6.691 -1.6109999 16
7.7259998 4.336 -1.737 42
8.3559999 4.658 -1.725 9
9.0699997 5.027 -1.707 9
9.9020004 5.4580002 -1.686 58
10.86 5.9580002 -1.6569999 9
12.013 6.5609999 -1.622 47
7.6929998 4.2620001 -1.7410001 44
8.2480001 4.539 -1.714 33
9.0120001 4.9310002 -1.71 10
9.8100004 5.3379998 -1.686 61
10.77 5.8309999 -1.66 9
11.974 6.4549999 -1.637 69
7.6700001 4.1939998 -1.7460001 47
8.2449999 4.4780002 -1.726 56
8.9540005 4.8340001 -1.712 9
9.7880001 5.2550001 -1.697 51
10.589 5.6570001 -1.649 15
11.893 6.3249998 -1.645 55
7.6820002 4.1440001 -1.758 27
8.2089996 4.3990002 -1.729 52
8.8929996 4.7360001 -1.7130001 9
9.7390003 5.158 -1.702 18
10.537 5.552 -1.6569999 46
11.817 6.198 -1.652 23
7.6020002 4.0440001 -1.749 9
8.1689997 4.3169999 -1.7309999 44
8.7790003 4.6110001 -1.702 16
9.6099997 5.0180001 -1.692 9
10.511 5.4619999 -1.666 59
11.634 6.0170002 -1.642 9
7.5689998 3.97 -1.75 10
8.1269999 4.2340002 -1.7309999 50
8.7539997 4.5320001 -1.707 53
9.5559998 4.9190001 -1.6950001 10
10.448 5.3499999 -1.669 65
11.54 5.882 -1.645 9
7.5450001 3.901 -1.751 10
8.1479998 4.184 -1.744 37
8.7449999 4.4619999 -1.715 58
9.5010004 4.8200002 -1.6950001 11
10.442 5.27 -1.681 50
11.377 5.7140002 -1.636 13
7.52 3.8299999 -1.753 10
8.0979996 4.0960002 -1.7410001 11
8.7150002 4.381 -1.7180001 51
9.4650002 4.73 -1.698 10
10.38 5.1599998 -1.682 18
11.337 5.6090002 -1.642 37
7.5029998 3.7639999 -1.7539999 10
8.0579996 4.0149999 -1.739 10
8.6829996 4.2989998 -1.719 49
9.3549995 4.6040001 -1.688 27
10.265 5.026 -1.674 10
11.329 5.5190001 -1.653 55
7.4809999 3.6960001 -1.755 9
8.0310001 3.9400001 -1.739 9
8.6680002 4.2259998 -1.723 48
9.3459997 4.5289998 -1.693 58
10.227 4.9289999 -1.676 11
11.26 5.4000001 -1.653 59
7.4330001 3.615 -1.748 14
8.0190001 3.872 -1.742 10
8.7189999 4.1820002 -1.739 19
9.3500004 4.4580002 -1.701 53
10.188 4.8299999 -1.678 10
11.253 5.309 -1.661 51
7.4099998 3.5450001 -1.7460001 38
7.9990001 3.8 -1.742 10
8.6260004 4.0710001 -1.726 10
9.3249998 4.3740001 -1.7029999 56
10.135 4.7270002 -1.677 10
11.211 5.2030001 -1.663 23
7.421 3.4920001 -1.752 36
7.98 3.7279999 -1.7410001 10
8.5950003 3.9890001 -1.724 11
9.2950001 4.2880001 -1.7029999 56
10.054 4.612 -1.669 37
11.1 5.066 -1.654 10
7.4050002 3.427 -1.751 36
7.961 3.658 -1.74 11
8.5839996 3.918 -1.725 11
9.3369999 4.2350001 -1.715 43
10.073 4.5430002 -1.677 63
11.057 4.961 -1.653 10
7.4060001 3.369 -1.752 36
7.9169998 3.576 -1.732 40
8.5749998 3.846 -1.726 11
9.2919998 4.1420002 -1.71 12
10.08 4.467 -1.683 56
11.039 4.8670001 -1.656 11
7.3909998 3.303 -1.75 37
7.9380002 3.523 -1.739 49
8.5670004 3.776 -1.727 11
9.25 4.052 -1.705 11
10.056 4.3790002 -1.682 59
11.023 4.7740002 -1.6569999 11
7.402 3.25 -1.752 38
7.9330001 3.4579999 -1.738 50
8.5719995 3.711 -1.729 11
9.25 3.9790001 -1.706 11
10.062 4.303 -1.6849999 61
10.9 4.6360002 -1.642 44
7.4289999 3.2030001 -1.7589999 40
7.9380002 3.398 -1.739 52
8.5229998 3.622 -1.719 29
9.2550001 3.9089999 -1.7079999 11
10.131 4.2529998 -1.697 39
10.987 4.5879998 -1.656 59
7.473 3.1630001 -1.768 12
7.9330001 3.3329999 -1.737 49
8.5509996 3.5680001 -1.724 52
9.2519999 3.835 -1.707 11
10.06 4.145 -1.686 12
11.012 4.5120001 -1.661 56
7.4349999 3.0880001 -1.757 10
7.954 3.2780001 -1.74 42
8.5629997 3.5050001 -1.725 59
9.2659998 3.7679999 -1.7079999 11
10.067 4.0689998 -1.686 12
11.013 4.427 -1.66 58
7.4590001 3.039 -1.76 10
7.98 3.227 -1.743 33
8.5869999 3.447 -1.728 56
9.2650003 3.6949999 -1.706 12
10.085 3.997 -1.687 12
11.044 4.3520002 -1.663 59
7.4749999 2.9849999 -1.76 10
8.0480003 3.1900001 -1.755 13
8.6009998 3.385 -1.727 51
9.2370005 3.6110001 -1.698 46
10.099 3.924 -1.687 12
11.13 4.2989998 -1.674 46
7.4920001 2.9330001 -1.76 10
8.0139999 3.1129999 -1.743 10
8.6400003 3.332 -1.7309999 46
9.3170004 3.569 -1.709 59
10.13 3.8570001 -1.688 12
11.119 4.2080002 -1.669 16
7.5139999 2.882 -1.761 10
8.0489998 3.063 -1.7460001 10
8.6540003 3.27 -1.729 42
9.3339996 3.5020001 -1.707 57
10.149 3.7839999 -1.687 11
11.123 4.1230001 -1.664 11
7.54 2.832 -1.761 10
8.0600004 3.003 -1.743 10
8.743 3.2349999 -1.7410001 21
9.3719997 3.4430001 -1.7079999 48
10.153 3.707 -1.681 13
11.16 4.0500002 -1.664 11
7.5679998 2.783 -1.761 10
8.0930004 2.9530001 -1.744 10
8.7229996 3.1589999 -1.7309999 10
9.4189997 3.3870001 -1.711 46
10.156 3.628 -1.675 45
11.213 3.9809999 -1.665 12
7.598 2.734 -1.762 10
8.1219997 2.8989999 -1.743 10
8.743 3.0969999 -1.728 9
9.4499998 3.325 -1.709 50
10.27 3.589 -1.686 65
11.256 3.9100001 -1.663 11
7.6290002 2.6849999 -1.761 10
8.1669998 2.8510001 -1.745 10
8.7880001 3.0450001 -1.728 10
9.5410004 3.2820001 -1.716 45
10.313 3.5239999 -1.684 62
11.316 3.842 -1.663 12
7.599 2.6140001 -1.7460001 27
8.1960001 2.7969999 -1.742 10
8.8290005 2.99 -1.728 12
9.6719999 3.2520001 -1.73 22
10.394 3.471 -1.687 57
11.391 3.7809999 -1.663 11
7.677 2.5810001 -1.7539999 38
8.2399998 2.7479999 -1.742 10
8.8789997 2.938 -1.727 11
9.6029997 3.155 -1.7079999 11
10.449 3.4089999 -1.6849999 57
11.381 3.6889999 -1.65 31
7.7210002 2.5350001 -1.7539999 36
8.2889996 2.7 -1.742 10
8.934 2.888 -1.727 11
9.6789999 3.1059999 -1.71 11
10.534 3.3559999 -1.687 62
11.538 3.652 -1.66 62
7.7610002 2.4879999 -1.753 39
8.2740002 2.631 -1.728 34
8.9790001 2.8329999 -1.724 11
9.7449999 3.052 -1.709 11
10.649 3.313 -1.693 59
11.651 3.5999999 -1.6619999 70
7.8179998 2.447 -1.7539999 38
8.3830004 2.602 -1.739 51
9.0459995 2.786 -1.724 12
9.816 3 -1.7079999 11
10.785 3.273 -1.7 22
11.765 3.546 -1.663 60
7.8660002 2.401 -1.753 38
8.4449997 2.556 -1.739 48
9.1149998 2.737 -1.724 11
9.8889999 2.947 -1.706 11
10.779 3.1889999 -1.683 12
11.87 3.4879999 -1.661 57
7.9229999 2.3570001 -1.752 40
8.5100002 2.5109999 -1.738 46
9.1630001 2.681 -1.7180001 20
9.9799995 2.898 -1.707 11
10.885 3.1370001 -1.683 11
11.979 3.4289999 -1.658 65
7.9819999 2.3139999 -1.751 44
8.5769997 2.4649999 -1.737 48
9.2410002 2.6340001 -1.717 60
10.063 2.846 -1.704 11
11.018 3.0929999 -1.686 12
12.126 3.381 -1.659 68
8.0480003 2.2720001 -1.751 47
8.6549997 2.421 -1.737 49
