# .PCD v0.7 - Point Cloud Data file format
VERSION 0.7
FIELDS x y z intensity
SIZE 4 4 4 4
TYPE F F F F
COUNT 1 1 1 1
WIDTH 1756
HEIGHT 1
VIEWPOINT 0 0 0 1 0 0 0
POINTS 1756
DATA ascii
3.9059999 -2.174 -1.89 8
4.1339998 -2.27 -1.891 8
4.381 -2.3759999 -1.891 7
4.632 -2.483 -1.885 7
4.914 -2.6070001 -1.881 7
3.717 -2.108 -1.8890001 7
3.937 -2.2 -1.891 8
4.171 -2.299 -1.893 8
4.421 -2.4059999 -1.892 7
4.677 -2.517 -1.886 7
4.961 -2.642 -1.882 7
3.75 -2.1329999 -1.891 7
3.973 -2.227 -1.893 8
4.2059999 -2.326 -1.893 7
4.4520001 -2.4319999 -1.8890001 7
4.7199998 -2.549 -1.886 7
5.02 -2.6830001 -1.886 7
3.783 -2.158 -1.893 7
4.007 -2.2520001 -1.8940001 9
4.2360001 -2.349 -1.89 7
4.494 -2.4619999 -1.89 7
4.7540002 -2.575 -1.882 7
5.0549998 -2.7090001 -1.88 7
3.8210001 -2.1849999 -1.896 7
4.0359998 -2.2739999 -1.891 7
4.277 -2.378 -1.891 7
4.5339999 -2.49 -1.8890001 7
4.8130002 -2.6140001 -1.886 7
5.1160002 -2.7490001 -1.883 7
3.8559999 -2.2090001 -1.896 7
4.0749998 -2.3010001 -1.892 9
4.3189998 -2.4059999 -1.891 7
4.572 -2.516 -1.885 7
4.8759999 -2.654 -1.89 7
5.1739998 -2.7869999 -1.883 8
3.892 -2.233 -1.897 7
4.1170001 -2.3280001 -1.893 8
4.3660002 -2.437 -1.892 7
4.6329999 -2.5550001 -1.89 7
4.9219999 -2.684 -1.887 7
5.2329998 -2.8239999 -1.882 7
3.928 -2.257 -1.896 7
4.152 -2.3510001 -1.89 8
4.4060001 -2.4619999 -1.89 7
4.677 -2.582 -1.888 7
4.9749999 -2.717 -1.886 7
5.2919998 -2.8599999 -1.88 7
3.9679999 -2.2809999 -1.896 7
4.1989999 -2.3800001 -1.892 7
4.454 -2.4909999 -1.89 7
4.7319999 -2.615 -1.8890001 7
5.0419998 -2.756 -1.8890001 7
5.3520002 -2.8959999 -1.878 7
4.0139999 -2.3080001 -1.898 8
4.2399998 -2.404 -1.89 7
4.5050001 -2.5220001 -1.89 7
4.7880001 -2.648 -1.888 7
5.1350002 -2.809 -1.9 6
5.4229999 -2.937 -1.878 7
4.0510001 -2.3299999 -1.895 7
4.2909999 -2.4330001 -1.891 7
4.5630002 -2.5539999 -1.892 7
4.8590002 -2.688 -1.893 7
5.1739998 -2.8310001 -1.89 7
5.5320001 -2.997 -1.89 6
4.0949998 -2.3540001 -1.8940001 7
4.3390002 -2.46 -1.89 7
4.6069999 -2.579 -1.888 7
4.914 -2.7179999 -1.89 7
5.2309999 -2.8629999 -1.885 7
5.6090002 -3.039 -1.89 6
4.1469998 -2.382 -1.896 7
4.4000001 -2.493 -1.8940001 8
4.6700001 -2.612 -1.89 7
4.9819999 -2.7539999 -1.891 8
5.2989998 -2.8989999 -1.883 7
5.697 -3.086 -1.891 7
4.1989999 -2.4089999 -1.897 6
4.4489999 -2.5179999 -1.891 8
4.724 -2.6400001 -1.886 7
5.052 -2.7909999 -1.891 7
5.3740001 -2.937 -1.883 7
5.776 -3.1259999 -1.8890001 7
4.2509999 -2.4349999 -1.896 7
4.5 -2.543 -1.888 7
4.802 -2.6800001 -1.891 7
5.1209998 -2.825 -1.89 7
5.4850001 -2.994 -1.893 6
5.8569999 -3.1670001 -1.885 6
4.3049998 -2.4619999 -1.896 6
4.5669999 -2.5769999 -1.89 7
4.868 -2.7119999 -1.89 7
5.184 -2.8559999 -1.886 7
5.5669999 -3.0350001 -1.892 6
5.9549999 -3.2149999 -1.886 7
4.369 -2.493 -1.898 7
4.6199999 -2.6010001 -1.886 7
4.941 -2.7479999 -1.892 7
5.3010001 -2.915 -1.9 7
5.6479998 -3.0739999 -1.8890001 7
6.0510001 -3.2620001 -1.885 8
4.421 -2.516 -1.895 7
4.6950002 -2.6370001 -1.89 7
5.0100002 -2.78 -1.89 7
5.381 -2.9519999 -1.898 7
5.7319999 -3.1129999 -1.887 6
6.1440001 -3.3050001 -1.881 7
4.4879999 -2.546 -1.896 7
4.7600002 -2.6659999 -1.888 7
5.0939999 -2.819 -1.893 7
5.4530001 -2.984 -1.893 6
5.8309999 -3.158 -1.887 6
6.2509999 -3.355 -1.88 7
4.5489998 -2.572 -1.8940001 7
4.836 -2.7 -1.888 7
5.165 -2.849 -1.888 8
5.5450001 -3.0250001 -1.893 6
5.9310002 -3.204 -1.886 7
6.3610001 -3.404 -1.878 7
4.6110001 -2.598 -1.891 7
4.9070001 -2.73 -1.887 7
5.29 -2.908 -1.903 7
5.632 -3.062 -1.89 6
6.0300002 -3.2460001 -1.883 7
6.4829998 -3.4590001 -1.877 7
4.6820002 -2.628 -1.891 7
4.9899998 -2.7650001 -1.888 7
5.3800001 -2.9460001 -1.903 7
5.7150002 -3.0969999 -1.885 6
6.1409998 -3.2950001 -1.883 7
6.6009998 -3.51 -1.874 7
4.7519999 -2.6559999 -1.8890001 7
5.073 -2.8 -1.888 7
5.4450002 -2.97 -1.8940001 6
5.8179998 -3.1400001 -1.885 7
6.2529998 -3.342 -1.881 7
6.7249999 -3.562 -1.872 7
4.8270001 -2.6849999 -1.888 7
5.1529999 -2.8310001 -1.886 7
5.5320001 -3.0050001 -1.89 6
5.921 -3.1830001 -1.883 7
6.381 -3.3959999 -1.883 7
6.8530002 -3.615 -1.868 7
4.9169998 -2.721 -1.891 7
5.289 -2.892 -1.903 7
5.6279998 -3.0420001 -1.888 6
6.0310001 -3.227 -1.882 6
6.4879999 -3.438 -1.876 7
7 -3.677 -1.869 7
5.039 -2.7750001 -1.906 6
5.3779998 -2.925 -1.9 7
5.737 -3.086 -1.89 7
6.1409998 -3.2690001 -1.8789999 7
6.6199999 -3.4909999 -1.875 6
7.1409998 -3.733 -1.865 7
5.1209998 -2.8039999 -1.903 6
5.4559999 -2.951 -1.893 7
5.836 -3.1229999 -1.886 7
6.2649999 -3.3180001 -1.8789999 7
6.7480001 -3.54 -1.8710001 6
7.3000002 -3.7969999 -1.863 6
5.2189999 -2.8399999 -1.905 6
5.5479999 -2.984 -1.89 6
5.948 -3.164 -1.885 7
6.3860002 -3.3629999 -1.876 7
6.8839998 -3.592 -1.868 6
7.4520001 -3.8559999 -1.858 6
5.3150001 -2.875 -1.905 7
5.6550002 -3.023 -1.89 7
6.0570002 -3.2030001 -1.881 7
6.5180001 -3.4119999 -1.875 7
7.0419998 -3.6530001 -1.868 7
7.619 -3.9189999 -1.855 6
5.3979998 -2.901 -1.899 7
5.7550001 -3.0569999 -1.886 7
6.177 -3.2460001 -1.88 7
6.658 -3.4649999 -1.875 7
7.1900001 -3.707 -1.864 7
7.7989998 -3.9879999 -1.853 7
5.4899998 -2.9300001 -1.895 7
5.8610001 -3.092 -1.883 7
6.2940001 -3.286 -1.876 6
6.7859998 -3.5079999 -1.869 7
7.349 -3.766 -1.862 6
8.0509996 -4.092 -1.8660001 18
5.5970001 -2.9660001 -1.895 7
5.9780002 -3.132 -1.882 7
6.4299998 -3.3340001 -1.876 7
6.9289999 -3.5580001 -1.8660001 8
7.513 -3.8239999 -1.858 6
8.1879997 -4.1339998 -1.849 32
5.6919999 -2.993 -1.8890001 7
6.0970001 -3.171 -1.88 7
6.573 -3.3829999 -1.876 7
7.0960002 -3.618 -1.867 7
7.6849999 -3.8840001 -1.854 6
8.3649998 -4.1929998 -1.839 35
5.796 -3.0239999 -1.8839999 7
6.2129998 -3.207 -1.875 7
6.7049999 -3.425 -1.8710001 7
7.2490001 -3.6689999 -1.863 7
7.8699999 -3.948 -1.852 7
8.5909996 -4.276 -1.839 33
5.9099998 -3.0599999 -1.883 7
6.3470001 -3.25 -1.875 7
6.8569999 -3.4760001 -1.8710001 13
7.4039998 -3.7190001 -1.858 6
8.1040001 -4.0359998 -1.858 11
8.8269997 -4.3610001 -1.837 36
6.0279999 -3.095 -1.88 7
6.4899998 -3.296 -1.875 6
6.9790001 -3.5090001 -1.86 12
7.5749998 -3.7739999 -1.853 7
8.2980003 -4.099 -1.853 30
8.9729996 -4.3979998 -1.8150001 27
6.1560001 -3.1329999 -1.88 7
6.619 -3.3329999 -1.87 6
7.1259999 -3.553 -1.8559999 9
7.7670002 -3.8380001 -1.853 7
8.4689999 -4.1500001 -1.84 38
9.2320004 -4.4889998 -1.813 8
6.2789998 -3.168 -1.876 7
6.777 -3.3829999 -1.872 9
7.3169999 -3.6170001 -1.86 6
7.9530001 -3.8970001 -1.849 6
8.6990004 -4.2270002 -1.839 38
9.5369997 -4.598 -1.818 7
6.4130001 -3.2060001 -1.875 7
6.9169998 -3.4219999 -1.867 19
7.4899998 -3.6700001 -1.857 6
8.1450005 -3.9549999 -1.845 7
8.9329996 -4.303 -1.835 42
9.8100004 -4.6900001 -1.813 7
6.5630002 -3.25 -1.876 7
7.0650001 -3.4619999 -1.862 33
7.6680002 -3.7219999 -1.854 6
8.408 -4.046 -1.854 13
9.1479998 -4.3660002 -1.825 38
10.107 -4.7880001 -1.809 7
6.7069998 -3.289 -1.873 7
7.1760001 -3.483 -1.845 32
7.8530002 -3.776 -1.85 7
8.6000004 -4.099 -1.844 36
9.3430004 -4.4169998 -1.809 24
10.399 -4.8800001 -1.801 7
6.849 -3.3239999 -1.868 14
7.3720002 -3.5420001 -1.849 12
8.0500002 -3.832 -1.847 6
8.8129997 -4.1589999 -1.836 42
9.6549997 -4.5209999 -1.812 7
10.745 -4.9949999 -1.799 6
7.0180001 -3.3710001 -1.869 26
7.5760002 -3.6029999 -1.853 6
8.2580004 -3.891 -1.844 7
9.0369997 -4.2220001 -1.829 44
9.9309998 -4.6030002 -1.806 6
11.088 -5.1030002 -1.793 6
7.1479998 -3.3970001 -1.858 34
7.7529998 -3.648 -1.848 7
8.4650002 -3.947 -1.839 6
9.2690001 -4.2859998 -1.821 39
10.241 -4.6989999 -1.804 6
11.448 -5.2150002 -1.786 6
7.3010001 -3.4319999 -1.852 34
7.9520001 -3.701 -1.847 8
8.7480001 -4.0349998 -1.848 14
9.5279999 -4.3579998 -1.816 37
10.569 -4.7969999 -1.8 5
11.829 -5.3309999 -1.779 7
7.467 -3.47 -1.847 30
8.1450005 -3.7490001 -1.842 7
8.9650002 -4.0900002 -1.841 37
9.7379999 -4.4060001 -1.8 25
10.913 -4.9000001 -1.7970001 5
12.263 -5.467 -1.776 6
7.6110001 -3.4960001 -1.836 19
8.3540001 -3.8010001 -1.839 7
9.1499996 -4.1269999 -1.825 45
10.052 -4.4970002 -1.8 7
11.267 -5.0019999 -1.7920001 5
12.761 -5.6259999 -1.778 9
7.8639998 -3.5699999 -1.849 7
8.5719995 -3.8540001 -1.835 7
9.4160004 -4.197 -1.822 41
10.404 -4.5999999 -1.803 6
11.627 -5.1020002 -1.783 6
13.21 -5.757 -1.767 7
8.0749998 -3.6199999 -1.848 7
8.8050003 -3.911 -1.832 7
9.6639996 -4.256 -1.814 42
10.722 -4.6830001 -1.7970001 6
12.018 -5.211 -1.776 6
13.724 -5.9099998 -1.761 8
8.276 -3.664 -1.844 7
9.0550003 -3.9719999 -1.831 10
9.9560003 -4.3309999 -1.812 42
11.069 -4.776 -1.794 5
12.445 -5.3309999 -1.771 6
14.308 -6.0869999 -1.7589999 8
8.4860001 -3.7090001 -1.84 7
9.3559999 -4.052 -1.8380001 21
10.198 -4.3790002 -1.798 31
11.427 -4.868 -1.7869999 5
12.923 -5.4660001 -1.7690001 7
14.925 -6.27 -1.755 9
8.7019997 -3.7539999 -1.836 6
9.5439997 -4.079 -1.819 39
10.455 -4.4310002 -1.784 11
11.767 -4.9489999 -1.776 5
13.413 -5.5999999 -1.7640001 7
15.542 -6.4460001 -1.745 10
8.9280005 -3.7980001 -1.831 7
9.776 -4.1220002 -1.808 47
10.881 -4.5500002 -1.796 7
12.183 -5.0549998 -1.772 6
13.975 -5.757 -1.762 8
16.285 -6.665 -1.743 8
9.1619997 -3.8440001 -1.826 7
10.071 -4.1880002 -1.8049999 45
11.214 -4.625 -1.789 6
12.636 -5.171 -1.77 6
14.524 -5.901 -1.755 8
17.046 -6.881 -1.7359999 10
9.3909998 -3.885 -1.818 7
10.356 -4.2459998 -1.799 46
11.561 -4.7020001 -1.781 6
13.112 -5.2909999 -1.766 7
15.115 -6.0570002 -1.748 9
17.908001 -7.1290002 -1.732 9
9.6870003 -3.9489999 -1.8200001 9
10.672 -4.3130002 -1.795 39
11.914 -4.776 -1.772 7
13.611 -5.415 -1.763 7
15.803 -6.2420001 -1.747 10
18.849001 -7.3969998 -1.73 9
10.017 -4.0229998 -1.827 21
10.922 -4.349 -1.779 28
12.317 -4.8649998 -1.768 6
14.115 -5.533 -1.756 8
16.483999 -6.4159999 -1.739 11
19.93 -7.7080002 -1.7309999 6
10.255 -4.0570002 -1.8150001 40
11.203 -4.3940001 -1.765 16
12.754 -4.9619999 -1.7640001 6
14.694 -5.6739998 -1.753 9
17.266001 -6.6199999 -1.7359999 11
20.923 -7.9710002 -1.715 6
10.505 -4.0910001 -1.803 43
11.661 -4.5029998 -1.776 7
13.238 -5.072 -1.7640001 7
15.301 -5.8169999 -1.75 9
18.079 -6.8260002 -1.73 10
22.143999 -8.3059998 -1.709 5
10.79 -4.1360002 -1.796 42
12.003 -4.5619998 -1.767 8
13.732 -5.177 -1.761 8
15.922 -5.9580002 -1.742 10
19.021 -7.0679998 -1.728 8
23.289 -8.6000004 -1.688 5
11.134 -4.197 -1.794 41
12.385 -4.6290002 -1.76 8
14.26 -5.2880001 -1.757 8
16.636999 -6.1240001 -1.739 11
20.045 -7.3270001 -1.725 8
24.892 -9.0410004 -1.687 5
11.462 -4.2490001 -1.789 48
12.829 -4.7150002 -1.7589999 6
14.816 -5.4029999 -1.7539999 9
17.334999 -6.2740002 -1.73 11
21.122999 -7.5929999 -1.719 6
26.565001 -9.4879999 -1.678 5
11.747 -4.2800002 -1.774 41
13.323 -4.8119998 -1.761 7
15.38 -5.5110002 -1.7460001 9
18.172001 -6.4640002 -1.728 10
22.231001 -7.8540001 -1.707 6
28.753 -10.093 -1.686 4
12.025 -4.3039999 -1.756 30
13.791 -4.8940001 -1.756 7
16.004999 -5.6350002 -1.7410001 10
19.011999 -6.645 -1.72 10
23.339001 -8.1000004 -1.686 5
30.48 -10.511 -1.653 3
12.311 -4.3260002 -1.738 20
14.278 -4.9759998 -1.75 8
16.677999 -5.7659998 -1.737 11
15.534 -5.3309999 -1.335 7
15.323 -5.223 -1.039 78
15.446 -5.2309999 -0.76999998 39
12.856 -4.434 -1.7539999 9
14.813 -5.0669999 -1.748 8
17.384001 -5.8990002 -1.732 12
15.428 -5.197 -1.257 68
15.177 -5.0770001 -0.96399999 75
14.996 -4.9850001 -0.68400002 72
13.333 -4.513 -1.758 7
15.349 -5.152 -1.7410001 9
15.425 -5.1360002 -1.469 1
15.504 -5.125 -1.197 41
15.059 -4.9429998 -0.89300001 48
14.96 -4.8790002 -0.62099999 70
13.808 -4.5830002 -1.758 7
15.934 -5.244 -1.737 10
15.037 -4.9099998 -1.367 104
15.039 -4.875 -1.098 16
14.98 -4.823 -0.82599998 74
14.995 -4.796 -0.56099999 74
14.282 -4.6469998 -1.755 8
15.203 -4.9050002 -1.591 27
14.981 -4.796 -1.299 2
15.063 -4.7870002 -1.0369999 51
14.962 -4.7220001 -0.764 82
15.022 -4.71 -0.50199997 20
14.762 -4.7049999 -1.75 12
14.902 -4.71 -1.497 19
15.105 -4.737 -1.247 26
14.877 -4.6300001 -0.96399999 58
14.973 -4.6279998 -0.70499998 35
15.146 -4.651 -0.447 24
14.903 -4.6500001 -1.7029999 29
14.929 -4.619 -1.438 26
14.971 -4.5960002 -1.175 11
14.955 -4.5570002 -0.90899998 21
15.142 -4.5819998 -0.65499997 77
0 0 0 0
14.93 -4.559 -1.6440001 56
15.301 -4.6329999 -1.411 9
15.523 -4.6630001 -1.1569999 65
15.281 -4.5549998 -0.87 39
16.030001 -4.7449999 -0.63200003 0
39.973999 -11.755 -0.88 16
16.414 -4.901 -1.7410001 10
15.629 -4.6269999 -1.38 30
15.552 -4.5679998 -1.099 92
15.583 -4.5430002 -0.82800001 0
38.361 -11.105 -1.3710001 57
0 0 0 0
16.997999 -4.96 -1.735 11
15.779 -4.566 -1.3329999 1
25.086 -7.2020001 -1.6799999 6
33.076 -9.4239998 -1.638 3
36.943001 -10.45 -1.187 52
65.969002 -18.539 -0.98299998 3
17.618 -5.0229998 -1.732 12
21.077 -5.9580002 -1.702 13
26.386 -7.4000001 -1.67 5
36.318001 -10.108 -1.669 5
36.209 -10.007 -1.039 51
39.821999 -10.928 -0.458 8
18.235001 -5.0739999 -1.725 13
21.945999 -6.0549998 -1.692 11
28.163 -7.7090001 -1.683 5
36.187 -9.8310003 -1.539 46
36.188999 -9.7609997 -0.917 20
38.625 -10.347 -0.317 46
18.947001 -5.145 -1.724 14
22.841 -6.1490002 -1.682 9
29.726999 -7.9380002 -1.675 4
35.91 -9.5150003 -1.405 12
37.194 -9.7810001 -0.81900001 35
37.313 -9.7449999 -0.185 8
19.698999 -5.2129998 -1.723 15
23.798 -6.244 -1.67 7
31.579 -8.217 -1.673 6
36.091999 -9.3199997 -1.295 63
37.945999 -9.7259998 -0.71399999 19
46.754002 -11.899 -0.086999997 28
20.392 -5.2550001 -1.714 16
25.037001 -6.3969998 -1.675 6
32.873001 -8.3299999 -1.636 5
36.227001 -9.1079998 -1.1849999 73
0 0 0 0
0 0 0 0
21.127001 -5.3000002 -1.707 16
26.25 -6.526 -1.671 6
35.723999 -8.8070002 -1.665 9
36.372002 -8.8970003 -1.079 78
0 0 0 0
48.248001 -11.632 0.19499999 30
21.969999 -5.3590002 -1.705 17
27.555 -6.6620002 -1.669 6
36.495998 -8.7510004 -1.592 26
36.654999 -8.7180004 -0.97899997 50
47.872002 -11.299 -0.472 2
96.971001 -22.726999 0.667 16
22.815001 -5.4070001 -1.701 14
28.677999 -6.7360001 -1.652 4
36.813 -8.5740004 -1.499 35
36.990002 -8.5450001 -0.88300002 28
49.467999 -11.339 -0.35100001 33
49.709 -11.31 0.477 1
23.57 -5.4219999 -1.687 11
30.66 -6.9899998 -1.678 6
36.914001 -8.342 -1.399 68
38.313999 -8.5880003 -0.81099999 8
73.748001 -16.403999 -0.33000001 4
89.061996 -19.662001 1.085 24
24.351999 -5.4330001 -1.675 7
31.955999 -7.0640001 -1.661 6
37.096001 -8.1280003 -1.306 52
40.896999 -8.8859997 -0.75700003 17
50.646999 -10.918 -0.094999999 72
78.972 -16.891001 1.1619999 4
25.476 -5.5050001 -1.683 6
33.029999 -7.0700002 -1.628 6
32.584999 -6.9130001 -1.062 54
42.223 -8.8809996 -0.67400002 6
51.205002 -10.68 0.030999999 16
90.127998 -18.652 1.546 22
26.677 -5.5760002 -1.692 6
32.514999 -6.7319999 -1.52 3
32.348999 -6.638 -0.97500002 64
44.299 -9.0109997 -0.60100001 2
100.354 -20.243999 0.29699999 10
90.155998 -18.042 1.7539999 15
27.709 -5.5960002 -1.688 6
32.287998 -6.4580002 -1.4299999 38
32.228001 -6.3860002 -0.89399999 37
52.136002 -10.242 -0.58600003 19
0 0 0 0
105.388 -20.364 2.2809999 8
28.646 -5.585 -1.676 5
32.081001 -6.1929998 -1.347 67
32.342999 -6.1849999 -0.824 29
52.616001 -9.9729996 -0.47600001 14
169.313 -31.813999 1.248 22
0 0 0 0
29.705 -5.5809999 -1.671 6
31.837999 -5.9219999 -1.266 76
32.924999 -6.066 -0.76899999 3
39.466999 -7.204 -0.27399999 11
53.348999 -9.651 0.50199997 7
87.860001 -15.755 2.2609999 33
31.469 -5.6890001 -1.702 15
31.724001 -5.6760001 -1.1950001 67
39.726002 -7.0380001 -0.84500003 42
39.466 -6.9250002 -0.19499999 16
0 0 0 0
87.711998 -15.121 2.424 29
31.589001 -5.4860001 -1.6440001 19
31.552 -5.4219999 -1.126 57
39.319 -6.6900001 -0.76200002 56
39.675999 -6.6849999 -0.122 3
87.954002 -14.681 1.158 10
87.953003 -14.547 2.586 39
31.483999 -5.2449999 -1.577 36
31.283001 -5.1570001 -1.058 72
39.368 -6.4239998 -0.69099998 55
76.900002 -12.42 -0.103 52
123.873 -19.806999 1.844 46
72.924004 -11.554 2.2650001 30
31.285 -4.9920001 -1.512 59
31.15 -4.915 -0.99900001 81
40.036999 -6.25 -0.63499999 59
73.134003 -11.299 0.023 58
88.497002 -13.54 1.457 8
132.271 -20.042 4.3140001 43
31.136999 -4.7490001 -1.452 62
31.094 -4.6900001 -0.94700003 64
39.903 -5.9520001 -0.56999999 76
40.397999 -5.9619999 0.072999999 4
0 0 0 0
0 0 0 0
30.988001 -4.506 -1.397 58
31.240999 -4.4899998 -0.90399998 38
39.839001 -5.6620002 -0.51099998 57
98.542 -13.851 0.31999999 33
0 0 0 0
130.537 -17.969 4.6170001 34
30.732 -4.2509999 -1.341 67
32.120998 -4.3909998 -0.88499999 44
39.887001 -5.388 -0.458 70
97.793999 -13.064 0.44299999 40
0 0 0 0
75.393997 -9.8509998 2.7579999 32
30.618 -4.02 -1.295 71
0 0 0 0
40.106998 -5.1370001 -0.41100001 58
91.778999 -11.611 0.52700001 8
74.917999 -9.3710003 1.627 17
74.719002 -9.2399998 2.816 33
30.440001 -3.7809999 -1.251 78
0 0 0 0
40.584 -4.914 -0.37099999 4
81.807999 -9.7819996 0.55699998 12
133.50999 -15.77 3.04 31
133.53101 -15.591 5.1669998 24
30.309 -3.55 -1.212 82
33.839001 -3.9119999 -0.81400001 44
52.487 -5.987 -0.426 3
84.127998 -9.4750004 0.65399998 31
144.823 -16.103001 3.431 12
134.87199 -14.809 5.3410001 17
30.226 -3.329 -1.179 79
34.081001 -3.698 -0.78799999 25
79.748001 -8.5340004 -0.57700002 6
84.004997 -8.8660002 0.72600001 36
133.438 -13.9 3.2709999 42
133.489 -13.723 5.3899999 13
30.075001 -3.098 -1.148 78
33.986 -3.4489999 -0.75800002 5
81.523003 -8.1560001 -0.52600002 19
84.343002 -8.3199997 0.79100001 19
133.479 -12.98 3.3659999 30
133.91 -12.84 5.4980001 40
30.011999 -2.881 -1.123 74
43.865002 -4.1430001 -0.94800001 1
76.988998 -7.1589999 -0.44499999 3
86.160004 -7.8930001 0.86199999 17
77.137001 -6.9590001 1.9910001 10
134.35001 -11.947 5.5900002 18
29.93 -2.661 -1.101 82
34.450001 -3.0109999 -0.72399998 52
34.675999 -2.9809999 -0.18099999 1
86.105003 -7.2859998 0.90700001 21
0 0 0 0
76.448997 -6.2659998 3.2160001 10
29.773001 -2.4349999 -1.081 85
34 -2.7309999 -0.69800001 59
34.099998 -2.691 -0.163 62
119.956 -9.3059998 1.313 10
144.92599 -11.048 3.868 15
151.57899 -11.356 6.4310002 17
29.705 -2.2190001 -1.066 71
33.778999 -2.4760001 -0.68099999 62
33.771999 -2.427 -0.15000001 66
120.486 -8.4899998 1.355 10
139.77699 -9.6630001 3.7679999 20
0 0 0 0
29.649 -2.003 -1.056 67
33.547001 -2.2190001 -0.66900003 57
33.612 -2.1789999 -0.14300001 70
34.244999 -2.174 0.391 25
138.875 -8.6269999 3.7639999 25
140.743 -8.5620003 6.0219998 27
29.610001 -1.789 -1.05 59
33.351002 -1.969 -0.66100001 73
33.469002 -1.931 -0.139 66
34.022999 -1.918 0.391 41
138.495 -7.6279998 3.76 25
140.005 -7.533 5.993 26
29.527 -1.575 -1.0470001 67
33.242001 -1.728 -0.65899998 76
33.355999 -1.6900001 -0.139 72
33.902 -1.673 0.38800001 52
137.80099 -6.6259999 3.7309999 29
144.38901 -6.7540002 6.1659999 27
29.406 -1.358 -1.045 73
33.193001 -1.49 -0.66100001 70
33.271999 -1.45 -0.14399999 78
33.851002 -1.434 0.38100001 57
137.737 -5.6599998 3.704 14
139.772 -5.5760002 5.9400001 14
29.377001 -1.152 -1.05 65
33.175999 -1.258 -0.66900003 68
33.254002 -1.2180001 -0.152 71
33.886002 -1.199 0.373 57
137.286 -4.6960001 3.652 14
139.383 -4.5960002 5.8800001 20
29.243 -0.94300002 -1.0549999 85
33.146999 -1.028 -0.67900002 72
33.235001 -0.98900002 -0.164 66
33.870998 -0.96399999 0.359 68
86.057999 -2.3440001 2.2539999 30
85.695 -2.23 3.5780001 12
29.242001 -0.736 -1.068 69
33.182999 -0.79500002 -0.69599998 77
33.290001 -0.75599998 -0.18000001 69
33.951 -0.73100001 0.34299999 66
95.772003 -1.946 2.4590001 123
85.361 -1.636 3.5190001 7
29.277 -0.53399998 -1.086 58
33.255001 -0.56400001 -0.71700001 74
33.347 -0.52399999 -0.20100001 70
34.098999 -0.49700001 0.324 55
95.739998 -1.281 2.3970001 150
86.028 -1.049 3.49 9
29.125 -0.32499999 -1.1 70
33.396999 -0.33399999 -0.74299997 63
33.515999 -0.29499999 -0.22499999 64
34.291 -0.26100001 0.301 40
119.836 -0.773 2.911 54
119.919 -0.63300002 4.7740002 28
29.114 -0.121 -1.123 83
33.673 -0.1 -0.77700001 60
33.724998 -0.061999999 -0.255 72
34.641998 -0.024 0.27399999 3
54.330002 0.025 1.273 3
119.457 0.18799999 4.652 26
29.061001 0.079000004 -1.147 58
31.823 0.123 -0.76300001 6
34.133999 0.17 -0.28999999 66
42.390999 0.25799999 0.296 57
43.237999 0.31400001 0.972 50
119.299 1.0039999 4.5300002 14
28.931 0.28 -1.1720001 63
31.941999 0.345 -0.80000001 23
42.241001 0.505 -0.40400001 62
41.868 0.54699999 0.24699999 60
42.271999 0.59799999 0.90399998 49
43.922001 0.66900003 1.62 7
28.872 0.47999999 -1.204 81
31.493 0.55900002 -0.82499999 35
41.862999 0.78899997 -0.449 55
41.506001 0.82700002 0.19599999 49
41.838001 0.88 0.84500003 54
42.819 0.94800001 1.527 55
28.922001 0.68099999 -1.242 69
0 0 0 0
33.358002 0.85600001 -0.40000001 28
41.268002 1.102 0.142 60
41.448002 1.152 0.78399998 45
42.148998 1.217 1.449 54
28.865999 0.87900001 -1.28 62
0 0 0 0
32.602001 1.0599999 -0.43700001 37
32.808998 1.101 0.067000002 45
41.193001 1.426 0.72100002 55
29.827999 1.063 0.98299998 84
28.823999 1.074 -1.321 63
28.823999 1.104 -0.87599999 40
32.396999 1.273 -0.48300001 37
32.506001 1.3099999 0.017999999 37
29.735001 1.229 0.47600001 21
29.657 1.257 0.93300003 70
28.791 1.27 -1.367 63
28.771999 1.298 -0.921 61
32.298 1.488 -0.53399998 37
32.244999 1.5190001 -0.034000002 41
32.641998 1.5700001 0.46900001 48
29.517 1.45 0.88 91
28.847 1.4680001 -1.419 64
28.729 1.4910001 -0.96899998 69
32.000999 1.693 -0.58499998 48
32.082001 1.727 -0.090000004 53
32.395 1.777 0.40900001 50
40.963001 2.289 1.15 50
28.768 1.661 -1.469 53
28.646 1.679 -1.0190001 83
31.896 1.901 -0.64099997 57
31.941999 1.934 -0.148 49
32.275002 1.985 0.34900001 43
32.999001 2.0650001 0.866 18
28.778 1.858 -1.526 39
28.67 1.876 -1.076 62
31.784 2.109 -0.70099998 51
31.834 2.1429999 -0.20999999 51
32.076 2.1889999 0.28400001 53
32.735001 2.266 0.79500002 42
28.705999 2.0469999 -1.5829999 25
28.778999 2.079 -1.141 42
31.726 2.3199999 -0.76700002 45
31.757999 2.3510001 -0.27500001 56
32.095001 2.4059999 0.21699999 37
32.564999 2.474 0.72299999 50
28.434999 2.221 -1.631 25
28.632999 2.2609999 -1.199 71
31.229 2.4920001 -0.82300001 53
31.687 2.5569999 -0.34400001 56
31.9 2.6029999 0.146 54
32.389999 2.675 0.64899999 48
28.021 2.378 -1.673 22
28.582001 2.4489999 -1.263 64
28.636999 2.477 -0.81999999 19
31.722 2.7720001 -0.417 52
31.777 2.8050001 0.072999999 58
32.255001 2.8789999 0.57200003 55
26.288 2.408 -1.6339999 7
28.650999 2.6470001 -1.335 70
28.528999 2.6589999 -0.88700002 48
31.747 2.984 -0.49399999 51
31.797001 3.017 -0.0020000001 47
32.188 3.082 0.495 56
25.118999 2.467 -1.625 6
28.705999 2.842 -1.411 63
28.579 2.852 -0.95999998 67
31.777 3.1989999 -0.57499999 48
31.976999 3.2460001 -0.082999997 36
32.195 3.2969999 0.414 46
24.155001 2.5350001 -1.628 8
28.759001 3.04 -1.4910001 44
28.586 3.0420001 -1.0369999 65
31.851 3.4170001 -0.66100001 40
31.858999 3.444 -0.167 49
32.137001 3.5020001 0.329 56
23.169001 2.586 -1.626 13
28.618999 3.214 -1.563 24
28.608 3.234 -1.117 64
31.927999 3.635 -0.75 37
31.875999 3.655 -0.25400001 56
32.143002 3.7130001 0.241 51
22.104 2.615 -1.617 17
28.235001 3.358 -1.624 28
28.659 3.428 -1.201 56
28.753 3.461 -0.75800002 3
31.976999 3.8729999 -0.345 48
32.215 3.928 0.15099999 47
21.295 2.6570001 -1.622 16
26.531 3.329 -1.605 6
28.523001 3.598 -1.28 60
28.552999 3.622 -0.83700001 28
32.049999 4.0900002 -0.44 53
32.264 4.1430001 0.057 45
20.468 2.6889999 -1.623 16
25.101 3.3139999 -1.597 6
28.658001 3.802 -1.375 62
28.488001 3.799 -0.92199999 65
32.297001 4.3299999 -0.542 37
32.478001 4.3779998 -0.039999999 38
19.660999 2.7119999 -1.624 15
23.938999 3.3139999 -1.6 8
28.749001 3.997 -1.471 40
28.472 3.9790001 -1.012 70
32.582001 4.5760002 -0.64899999 36
32.909 4.6469998 -0.14399999 27
18.915001 2.7320001 -1.626 13
22.802 3.3050001 -1.601 13
28.573999 4.1589999 -1.558 27
28.541 4.1700001 -1.108 69
31.527 4.6279998 -0.73100001 5
40.790001 6.0190001 -0.31099999 54
18.24 2.753 -1.632 13
21.715 3.2869999 -1.6 17
28.063999 4.263 -1.626 11
28.566 4.3559999 -1.206 67
28.749001 4.402 -0.76300001 9
40.997002 6.3049998 -0.44800001 48
17.570999 2.7639999 -1.635 12
20.799999 3.28 -1.6059999 16
26.049999 4.1209998 -1.6 6
28.66 4.5510001 -1.3099999 59
28.570999 4.553 -0.85699999 41
41.386002 6.6240001 -0.59399998 58
16.944 2.773 -1.6390001 11
19.829 3.2520001 -1.603 15
24.525 4.0339999 -1.595 6
28.754 4.7449999 -1.4170001 39
28.561001 4.7309999 -0.95899999 60
34.992001 5.8169999 -0.625 6
16.332001 2.777 -1.643 10
19.030001 3.2420001 -1.6109999 13
23.146 3.9519999 -1.592 9
28.655001 4.9070001 -1.518 30
28.565001 4.9060001 -1.062 59
31.777 5.4770002 -0.68300003 1
15.74 2.7739999 -1.6440001 11
18.290001 3.2290001 -1.618 13
22.042999 3.9000001 -1.6 17
28.264 5.013 -1.604 18
28.684999 5.1040001 -1.175 49
0 0 0 0
15.169 2.7679999 -1.646 12
17.527 3.204 -1.6210001 12
20.962999 3.839 -1.605 16
26.374001 4.8400002 -1.599 5
28.731001 5.2859998 -1.288 50
28.701 5.296 -0.833 38
14.652 2.7639999 -1.65 13
16.837999 3.1800001 -1.625 10
19.927999 3.7720001 -1.6059999 15
24.499001 4.645 -1.5829999 5
28.763 5.467 -1.403 47
28.643 5.4580002 -0.94400001 56
14.142 2.7550001 -1.653 12
16.179001 3.1559999 -1.63 9
19.028999 3.717 -1.612 14
23.040001 4.507 -1.5829999 10
28.733 5.6339998 -1.518 27
28.694 5.6399999 -1.061 49
13.631 2.74 -1.652 12
15.553 3.128 -1.633 10
18.181 3.6600001 -1.617 13
21.865 4.4089999 -1.594 16
28.193001 5.6950002 -1.6059999 12
28.652 5.8000002 -1.176 53
13.162 2.7249999 -1.654 12
14.947 3.095 -1.635 11
17.381001 3.6029999 -1.6210001 11
20.705 4.2969999 -1.598 16
25.975 5.4000001 -1.589 5
28.712 5.9809999 -1.299 51
12.696 2.7049999 -1.653 13
14.382 3.0650001 -1.6390001 12
16.625 3.5450001 -1.624 10
19.658001 4.1950002 -1.603 14
24.114 5.1539998 -1.58 6
28.833 6.1729999 -1.429 39
12.229 2.6789999 -1.65 34
13.829 3.03 -1.6390001 12
15.919 3.4890001 -1.627 7
18.693001 4.0999999 -1.609 13
22.666 4.9770002 -1.586 10
28.666 6.3039999 -1.5470001 20
11.949 2.6889999 -1.669 56
13.313 2.9949999 -1.641 12
15.236 3.428 -1.6289999 10
17.816 4.0100002 -1.615 12
21.332001 4.8070002 -1.589 17
26.791 6.046 -1.566 6
11.564 2.671 -1.6720001 54
12.826 2.961 -1.643 12
14.634 3.378 -1.6339999 12
16.979 3.9200001 -1.619 11
20.222 4.6739998 -1.601 15
24.863001 5.7529998 -1.568 5
11.228 2.6600001 -1.6799999 50
12.369 2.927 -1.645 11
14.055 3.326 -1.637 12
16.215 3.8380001 -1.624 10
19.082001 4.5180001 -1.6 14
23.186001 5.4949999 -1.5700001 7
10.884 2.641 -1.683 50
11.968 2.901 -1.651 13
13.471 3.263 -1.635 13
15.5 3.7550001 -1.627 9
18.157 4.401 -1.61 13
21.861 5.3010001 -1.5829999 9
10.563 2.6240001 -1.688 45
11.6 2.878 -1.659 11
12.963 3.214 -1.6390001 13
14.778 3.6630001 -1.625 11
17.273001 4.2820001 -1.6160001 11
20.601 5.1100001 -1.592 16
10.252 2.605 -1.692 47
11.238 2.852 -1.666 11
12.478 3.1630001 -1.641 12
14.174 3.5910001 -1.6289999 12
16.433001 4.164 -1.619 10
19.451 4.9299998 -1.598 14
9.9350004 2.5810001 -1.693 47
10.881 2.822 -1.671 11
12.048 3.1210001 -1.648 13
13.556 3.5090001 -1.628 13
15.669 4.0549998 -1.623 9
18.384001 4.7589998 -1.603 13
9.665 2.5639999 -1.7 47
10.558 2.7969999 -1.678 11
11.654 3.0840001 -1.656 11
13.022 3.4419999 -1.632 13
14.921 3.9430001 -1.622 8
17.445 4.6090002 -1.61 12
9.3970003 2.546 -1.705 44
10.229 2.766 -1.682 11
11.27 3.043 -1.6619999 11
12.528 3.3789999 -1.636 13
14.26 3.8429999 -1.625 11
16.563999 4.4629998 -1.613 10
9.1470003 2.5280001 -1.712 39
9.8839998 2.727 -1.6799999 14
10.908 3.0039999 -1.668 11
12.133 3.3369999 -1.65 25
13.63 3.7449999 -1.625 12
15.737 4.322 -1.615 9
8.908 2.5109999 -1.7180001 41
9.5900002 2.697 -1.684 24
10.586 2.9719999 -1.678 12
11.736 3.29 -1.66 17
13.058 3.6570001 -1.628 13
14.991 4.1950002 -1.619 10
8.6730003 2.4909999 -1.724 37
9.3219995 2.671 -1.6900001 40
10.262 2.934 -1.684 11
11.265 3.2160001 -1.656 11
12.447 3.549 -1.62 17
14.289 4.0710001 -1.6210001 12
8.4329996 2.4679999 -1.726 37
9.0830002 2.651 -1.7 51
9.9490004 2.8970001 -1.689 11
10.889 3.165 -1.6619999 12
12.077 3.5050001 -1.6390001 40
13.652 3.9579999 -1.622 12
8.2259998 2.45 -1.733 35
8.8640003 2.6329999 -1.712 51
9.6590004 2.8610001 -1.696 11
10.581 3.128 -1.676 11
11.679 3.448 -1.65 52
13.054 3.849 -1.624 13
8.0019999 2.425 -1.735 34
8.6389999 2.6099999 -1.72 54
9.3789997 2.826 -1.702 10
10.237 3.0769999 -1.6799999 11
11.258 3.3789999 -1.654 63
12.438 3.7279999 -1.617 15
7.8119998 2.408 -1.742 36
8.4060001 2.582 -1.724 49
9.1230001 2.7939999 -1.71 10
9.9300003 3.0339999 -1.688 10
10.976 3.348 -1.677 51
12.025 3.6619999 -1.631 44
7.6100001 2.3840001 -1.745 35
8.1870003 2.556 -1.73 48
8.8579998 2.757 -1.714 10
9.6269999 2.9890001 -1.694 11
10.683 3.3099999 -1.694 28
11.65 3.6040001 -1.648 53
7.408 2.358 -1.7460001 36
7.9689999 2.5280001 -1.734 44
8.6140003 2.723 -1.72 10
9.3439999 2.947 -1.701 10
10.221 3.2160001 -1.682 11
11.226 3.526 -1.654 52
7.2329998 2.339 -1.752 37
7.7639999 2.5009999 -1.739 44
8.3339996 2.675 -1.716 17
9.0830002 2.9070001 -1.709 10
9.8760004 3.154 -1.6849999 10
10.863 3.4619999 -1.664 50
7.0599999 2.3180001 -1.756 37
7.5580001 2.471 -1.74 42
8.1029997 2.6389999 -1.7180001 38
8.8269997 2.8659999 -1.714 10
9.5950003 3.108 -1.6950001 11
10.5 3.3929999 -1.671 50
6.8959999 2.2969999 -1.76 35
7.3730001 2.4449999 -1.745 41
7.9349999 2.622 -1.734 48
8.5710001 2.823 -1.719 10
9.309 3.0569999 -1.701 10
10.216 3.3469999 -1.688 47
6.7150002 2.2690001 -1.7589999 37
7.1890001 2.4189999 -1.749 42
7.7360001 2.592 -1.74 46
8.3380003 2.7839999 -1.724 10
9.033 3.007 -1.707 10
9.9250002 3.2950001 -1.7 30
6.5799999 2.2539999 -1.768 34
7.02 2.3940001 -1.755 42
7.5279999 2.556 -1.742 42
8.1029997 2.7409999 -1.727 11
8.7679996 2.957 -1.711 10
9.5600004 3.2160001 -1.696 12
6.4380002 2.2360001 -1.774 27
6.848 2.3670001 -1.757 40
7.3340001 2.523 -1.745 44
7.9070001 2.71 -1.7359999 10
8.5310001 2.914 -1.719 10
9.2460003 3.1489999 -1.698 10
6.316 2.223 -1.785 16
6.677 2.3369999 -1.7589999 54
7.158 2.494 -1.75 40
7.664 2.6600001 -1.732 15
8.3009996 2.8699999 -1.725 10
8.9899998 3.099 -1.707 10
6.1560001 2.194 -1.7819999 9
6.5310001 2.3150001 -1.7640001 32
6.9829998 2.4630001 -1.7539999 40
7.447 2.6159999 -1.732 34
8.0670004 2.822 -1.728 10
8.7290001 3.0439999 -1.712 10
6.0180001 2.171 -1.784 9
6.3969998 2.2950001 -1.772 28
6.8109999 2.4319999 -1.757 39
7.2989998 2.5940001 -1.745 44
7.855 2.7809999 -1.733 10
8.4840002 2.993 -1.7180001 10
5.8800001 2.1470001 -1.785 10
6.2690001 2.276 -1.78 11
6.664 2.4059999 -1.7640001 35
7.1090002 2.556 -1.747 40
7.6570001 2.7409999 -1.74 10
8.25 2.9430001 -1.724 9
5.7610002 2.1289999 -1.791 9
6.1199999 2.247 -1.781 9
6.4990001 2.3740001 -1.765 32
6.9380002 2.5220001 -1.752 39
7.4660001 2.7019999 -1.745 10
8.026 2.8940001 -1.728 10
5.6409998 2.108 -1.794 9
5.9829998 2.2219999 -1.783 9
6.388 2.359 -1.779 25
6.7680001 2.4860001 -1.7539999 39
7.2420001 2.648 -1.7410001 14
7.823 2.849 -1.7359999 10
5.526 2.0880001 -1.798 9
5.8449998 2.194 -1.784 9
6.243 2.3299999 -1.7819999 11
6.632 2.4619999 -1.765 33
7.0430002 2.602 -1.74 33
7.6209998 2.803 -1.74 10
5.4070001 2.0650001 -1.799 10
5.7150002 2.168 -1.785 9
6.1059999 2.302 -1.785 9
6.474 2.427 -1.766 30
6.9120002 2.579 -1.7539999 42
7.4310002 2.76 -1.7460001 9
5.2909999 2.0420001 -1.799 10
5.5910001 2.142 -1.786 9
5.9650002 2.2709999 -1.785 9
6.3499999 2.4030001 -1.776 21
6.7449999 2.54 -1.756 38
7.2529998 2.7190001 -1.751 9
5.191 2.023 -1.803 10
5.4850001 2.122 -1.7920001 9
5.823 2.2379999 -1.784 10
6.2199998 2.3759999 -1.7819999 10
6.5999999 2.5079999 -1.763 31
7.079 2.677 -1.756 9
5.0830002 2 -1.804 9
5.375 2.099 -1.795 9
5.7020001 2.2119999 -1.7869999 10
6.079 2.3440001 -1.784 9
6.4580002 2.4749999 -1.768 28
6.8319998 2.6059999 -1.74 24
4.9770002 1.977 -1.804 11
5.2670002 2.076 -1.798 10
5.5830002 2.1849999 -1.79 10
5.934 2.3069999 -1.7819999 10
6.3319998 2.448 -1.777 20
6.7119999 2.5810001 -1.753 35
4.8850002 1.9579999 -1.807 11
5.1609998 2.052 -1.799 11
5.4710002 2.1589999 -1.793 10
5.8070002 2.277 -1.784 10
6.1950002 2.414 -1.78 9
6.5879998 2.553 -1.765 29
4.7779999 1.932 -1.804 14
5.0780001 2.036 -1.808 11
5.368 2.1359999 -1.7970001 10
5.691 2.2490001 -1.789 9
6.0650001 2.382 -1.784 10
6.441 2.516 -1.768 27
4.6869998 1.911 -1.8049999 19
4.9699998 2.0090001 -1.8049999 10
5.2620001 2.1110001 -1.8 10
5.572 2.2190001 -1.79 9
5.9239998 2.3440001 -1.784 9
6.3140001 2.484 -1.776 18
4.599 1.89 -1.806 18
4.869 1.984 -1.8049999 11
5.1599998 2.086 -1.802 10
5.4569998 2.1900001 -1.7920001 9
5.7909999 2.3080001 -1.783 10
6.1570001 2.4389999 -1.773 9
4.5149999 1.8710001 -1.808 16
4.7670002 1.957 -1.802 15
5.0599999 2.0599999 -1.804 10
5.3569999 2.165 -1.7970001 10
5.671 2.276 -1.785 9
6.0310001 2.405 -1.777 9
4.4549999 1.86 -1.818 14
4.6799998 1.9349999 -1.804 21
4.9619999 2.0350001 -1.804 10
5.2480001 2.135 -1.7970001 10
5.5650001 2.2479999 -1.79 9
5.9089999 2.3710001 -1.781 9
4.3850002 1.844 -1.823 10
4.5929999 1.9119999 -1.8049999 20
4.875 2.0120001 -1.808 11
5.1500001 2.109 -1.799 10
5.4510002 2.2149999 -1.79 9
5.777 2.332 -1.78 9
4.2940001 1.818 -1.818 9
4.5120001 1.891 -1.807 25
4.7649999 1.979 -1.801 18
5.0549998 2.082 -1.801 10
5.3600001 2.191 -1.7970001 10
5.6599998 2.2980001 -1.781 10
4.223 1.8 -1.8200001 9
4.441 1.873 -1.8099999 31
4.6890001 1.96 -1.806 21
4.9629998 2.056 -1.803 10
5.25 2.158 -1.795 9
5.5580001 2.2690001 -1.786 9
4.1500001 1.779 -1.8200001 9
4.3740001 1.8559999 -1.816 17
4.5970001 1.932 -1.804 19
4.8709998 2.029 -1.803 10
5.1570001 2.131 -1.799 10
5.4590001 2.2390001 -1.79 9
4.0819998 1.761 -1.821 9
4.3070002 1.8380001 -1.8200001 12
4.5190001 1.91 -1.8049999 30
4.7800002 2.0020001 -1.803 14
5.0580001 2.0999999 -1.798 10
5.3499999 2.2049999 -1.789 9
4.0149999 1.742 -1.822 9
4.2280002 1.814 -1.817 10
4.447 1.8890001 -1.808 31
4.6960001 1.976 -1.804 24
4.9640002 2.0710001 -1.798 10
5.244 2.171 -1.788 10
3.9560001 1.726 -1.825 9
4.1620002 1.795 -1.819 10
4.3769999 1.868 -1.811 26
4.6170001 1.952 -1.8049999 19
4.881 2.0450001 -1.801 10
5.151 2.141 -1.79 10
3.895 1.707 -1.826 9
4.0890002 1.772 -1.817 9
4.3210001 1.852 -1.818 16
4.5339999 1.925 -1.804 23
4.7909999 2.0150001 -1.799 12
5.0549998 2.109 -1.79 10
3.8239999 1.684 -1.822 9
4.0320001 1.755 -1.821 10
4.257 1.8329999 -1.821 11
4.4710002 1.906 -1.809 30
4.7069998 1.987 -1.799 20
4.9780002 2.0840001 -1.794 10
3.767 1.6670001 -1.823 9
3.973 1.737 -1.824 10
4.1869998 1.8099999 -1.8200001 10
4.3930001 1.8789999 -1.807 20
4.6399999 1.965 -1.804 21
4.8839998 2.0510001 -1.7920001 10
3.71 1.648 -1.823 9
3.911 1.716 -1.823 10
4.1269999 1.79 -1.823 10
4.3379998 1.8609999 -1.814 18
4.552 1.934 -1.799 19
4.823 2.0309999 -1.8 10
3.661 1.633 -1.826 9
3.8529999 1.696 -1.823 10
4.0599999 1.766 -1.821 10
4.2810001 1.842 -1.819 13
4.493 1.914 -1.8049999 28
4.7490001 2.0039999 -1.802 15
3.615 1.617 -1.829 9
3.7950001 1.676 -1.822 10
4.0089998 1.749 -1.825 10
4.2140002 1.818 -1.818 10
4.4330001 1.893 -1.809 19
4.6719999 1.976 -1.802 20
3.573 1.604 -1.834 8
3.7449999 1.659 -1.825 10
3.947 1.727 -1.824 10
4.1539998 1.7970001 -1.819 10
4.3639998 1.867 -1.809 18
4.6059999 1.952 -1.8049999 18
3.517 1.5829999 -1.831 9
3.6919999 1.6390001 -1.824 10
3.8900001 1.705 -1.823 10
4.0939999 1.774 -1.819 9
4.3119998 1.848 -1.814 15
4.5229998 1.919 -1.8 18
3.474 1.568 -1.8329999 9
3.6429999 1.6210001 -1.825 10
3.8340001 1.684 -1.823 10
4.0349998 1.751 -1.818 10
4.2529998 1.825 -1.8150001 10
4.4679999 1.898 -1.8049999 19
3.4289999 1.551 -1.8329999 8
3.5999999 1.605 -1.827 9
3.7869999 1.666 -1.824 9
3.9820001 1.73 -1.819 10
4.1919999 1.801 -1.8150001 10
4.414 1.876 -1.809 18
3.385 1.534 -1.832 9
3.5580001 1.5880001 -1.829 9
3.733 1.6440001 -1.822 10
3.9400001 1.714 -1.824 9
4.1420002 1.78 -1.818 10
4.355 1.852 -1.809 15
3.3529999 1.521 -1.8380001 9
3.5150001 1.571 -1.83 9
3.688 1.625 -1.823 10
3.885 1.691 -1.822 9
4.0879998 1.757 -1.817 9
4.3109999 1.8329999 -1.816 11
3.3110001 1.5039999 -1.837 9
3.4749999 1.554 -1.831 9
3.645 1.607 -1.824 10
3.836 1.669 -1.822 10
4.0359998 1.735 -1.818 10
4.2509999 1.807 -1.814 9
3.2739999 1.488 -1.8380001 8
3.4389999 1.539 -1.834 9
3.609 1.592 -1.8279999 10
3.7950001 1.651 -1.825 10
3.987 1.7130001 -1.818 9
4.2020001 1.785 -1.816 9
3.2349999 1.471 -1.836 7
3.405 1.524 -1.837 9
3.569 1.574 -1.829 10
3.7509999 1.632 -1.824 10
3.9389999 1.691 -1.818 10
4.151 1.761 -1.816 9
3.2030001 1.456 -1.8380001 8
3.3670001 1.506 -1.836 9
3.5320001 1.556 -1.83 10
3.711 1.613 -1.826 10
3.901 1.673 -1.821 10
4.099 1.737 -1.8150001 9
3.1730001 1.442 -1.84 8
3.3280001 1.488 -1.835 9
3.4960001 1.539 -1.831 9
3.665 1.59 -1.823 9
3.858 1.652 -1.821 10
4.0619998 1.719 -1.819 9
3.1429999 1.427 -1.841 8
3.303 1.475 -1.839 9
3.4649999 1.523 -1.8329999 9
3.6259999 1.571 -1.822 10
3.8180001 1.632 -1.822 10
4.0159998 1.6950001 -1.818 9
3.1099999 1.411 -1.84 7
3.273 1.46 -1.841 9
3.4319999 1.506 -1.834 9
3.596 1.5549999 -1.826 9
3.779 1.612 -1.822 11
3.9809999 1.676 -1.822 10
3.0899999 1.4 -1.846 7
3.2379999 1.441 -1.839 9
3.4059999 1.492 -1.8380001 9
3.5580001 1.535 -1.824 9
3.744 1.592 -1.823 10
3.941 1.654 -1.822 10
3.053 1.38 -1.84 7
3.2079999 1.424 -1.8380001 9
3.3710001 1.472 -1.836 9
3.5320001 1.5190001 -1.8279999 9
3.7119999 1.574 -1.825 10
3.9059999 1.635 -1.823 10
3.0309999 1.367 -1.8430001 7
3.1830001 1.41 -1.84 9
3.3410001 1.455 -1.836 8
3.5050001 1.503 -1.83 8
3.6719999 1.552 -1.822 9
3.8659999 1.612 -1.821 9
3.007 1.352 -1.8430001 7
3.158 1.3940001 -1.84 8
3.3139999 1.438 -1.836 9
3.4790001 1.4859999 -1.832 8
3.6470001 1.535 -1.825 9
3.836 1.5930001 -1.824 9
2.983 1.337 -1.8430001 7
3.131 1.378 -1.84 9
3.2939999 1.424 -1.84 8
3.447 1.467 -1.83 9
3.6110001 1.5140001 -1.822 9
3.7920001 1.568 -1.818 9
2.9530001 1.319 -1.8380001 7
3.1070001 1.362 -1.839 9
3.2639999 1.406 -1.837 8
3.418 1.448 -1.829 8
3.5840001 1.495 -1.823 9
3.766 1.549 -1.8200001 10
2.941 1.308 -1.844 7
3.0869999 1.347 -1.84 8
3.244 1.391 -1.839 9
3.402 1.434 -1.834 8
3.5610001 1.478 -1.825 9
3.7390001 1.53 -1.821 9
2.9230001 1.295 -1.845 7
3.072 1.334 -1.844 7
3.2190001 1.373 -1.8380001 9
3.382 1.418 -1.836 8
3.5369999 1.46 -1.825 9
3.714 1.511 -1.822 9
2.901 1.278 -1.842 7
3.043 1.3150001 -1.8380001 8
3.1960001 1.3559999 -1.836 8
3.3529999 1.398 -1.832 8
3.52 1.4450001 -1.829 9
3.688 1.4910001 -1.821 8
2.882 1.263 -1.841 7
3.0250001 1.3 -1.8380001 8
3.1800001 1.341 -1.8380001 9
3.336 1.383 -1.834 8
3.4979999 1.427 -1.829 8
3.6659999 1.473 -1.822 9
2.8770001 1.2539999 -1.848 7
3.0120001 1.2869999 -1.84 8
3.1589999 1.324 -1.836 8
3.3210001 1.368 -1.836 8
3.48 1.41 -1.83 8
3.6440001 1.454 -1.822 9
2.859 1.239 -1.845 6
2.9949999 1.271 -1.839 7
3.148 1.311 -1.839 9
3.299 1.349 -1.8329999 8
3.461 1.392 -1.83 8
3.628 1.437 -1.824 8
2.842 1.223 -1.8430001 9
2.99 1.26 -1.845 7
3.1359999 1.296 -1.841 9
3.286 1.334 -1.835 8
3.451 1.378 -1.8329999 8
3.615 1.421 -1.827 8
2.823 1.206 -1.839 6
2.9679999 1.242 -1.839 7
3.118 1.279 -1.8380001 8
3.277 1.3200001 -1.8380001 8
3.431 1.359 -1.832 8
3.5910001 1.399 -1.823 8
0 0 0 0
2.9590001 1.228 -1.841 6
3.112 1.267 -1.842 7
3.2620001 1.303 -1.837 8
3.418 1.342 -1.832 8
3.582 1.3839999 -1.827 8
1.497 0.63 -0.98199999 2
2.951 1.215 -1.842 7
3.0999999 1.251 -1.841 7
3.2520001 1.288 -1.8380001 8
3.404 1.325 -1.832 8
3.572 1.368 -1.829 8
1.432 0.597 -0.94199997 2
2.941 1.2 -1.842 7
3.0880001 1.235 -1.84 8
3.2349999 1.27 -1.835 8
3.3959999 1.309 -1.8329999 8
3.563 1.351 -1.83 8
0 0 0 0
2.937 1.188 -1.844 8
3.073 1.217 -1.836 8
3.2320001 1.256 -1.839 8
3.3859999 1.293 -1.834 10
3.55 1.3329999 -1.83 8
0 0 0 0
2.931 1.173 -1.844 7
3.073 1.205 -1.841 7
3.2260001 1.2410001 -1.84 8
3.3800001 1.277 -1.835 9
3.5469999 1.318 -1.8329999 9
0 0 0 0
2.924 1.159 -1.844 7
3.0680001 1.191 -1.842 8
3.214 1.224 -1.837 8
3.3740001 1.261 -1.836 8
3.53 1.2970001 -1.8279999 8
0 0 0 0
2.925 1.147 -1.848 7
3.0569999 1.174 -1.8380001 8
3.211 1.209 -1.8380001 8
3.362 1.243 -1.8329999 9
3.5320001 1.284 -1.8329999 8
0 0 0 0
2.921 1.133 -1.847 7
3.0580001 1.161 -1.841 8
3.2060001 1.193 -1.8380001 8
3.3599999 1.228 -1.834 8
3.5280001 1.267 -1.834 8
0 0 0 0
2.9100001 1.1160001 -1.842 8
3.053 1.146 -1.84 8
3.207 1.1799999 -1.84 8
3.3599999 1.2130001 -1.836 9
3.5190001 1.248 -1.831 8
0 0 0 0
2.915 1.104 -1.845 7
3.059 1.1339999 -1.844 8
3.2060001 1.165 -1.841 8
3.3559999 1.197 -1.835 8
3.516 1.2309999 -1.831 8
0 0 0 0
2.9170001 1.091 -1.847 7
3.052 1.117 -1.84 7
3.2060001 1.15 -1.841 8
3.3570001 1.181 -1.836 8
3.517 1.215 -1.832 8
0 0 0 0
2.9200001 1.0779999 -1.848 7
3.056 1.104 -1.842 8
3.204 1.1339999 -1.839 7
3.359 1.166 -1.837 8
3.5190001 1.2 -1.8329999 8
0 0 0 0
2.9189999 1.063 -1.846 7
3.059 1.09 -1.8430001 7
3.2019999 1.117 -1.8380001 8
3.362 1.151 -1.8380001 8
3.5190001 1.183 -1.832 8
0 0 0 0
2.9219999 1.049 -1.846 7
3.062 1.076 -1.8430001 7
3.207 1.104 -1.839 7
3.358 1.133 -1.834 8
3.5220001 1.1670001 -1.832 8
1.424 0.51599997 -0.94300002 5
2.9230001 1.034 -1.844 7
3.0650001 1.061 -1.842 7
3.2049999 1.087 -1.835 8
3.3629999 1.118 -1.835 8
3.5250001 1.15 -1.832 8
1.434 0.51200002 -0.94800001 5
2.934 1.023 -1.848 7
3.0699999 1.0470001 -1.842 7
3.221 1.075 -1.842 7
3.372 1.103 -1.837 8
3.5320001 1.1339999 -1.8329999 8
1.438 0.505 -0.94800001 5
2.9349999 1.007 -1.844 7
3.079 1.033 -1.8430001 7
3.2279999 1.0599999 -1.841 7
3.375 1.087 -1.835 8
3.54 1.119 -1.8329999 8
1.446 0.5 -0.95099998 5
2.9530001 0.99699998 -1.851 7
3.089 1.02 -1.845 8
3.2379999 1.0470001 -1.8430001 8
3.3829999 1.072 -1.835 8
3.549 1.103 -1.834 8
1.457 0.49599999 -0.95599997 5
2.9560001 0.98199999 -1.847 7
3.096 1.006 -1.844 7
3.2420001 1.031 -1.84 8
3.398 1.059 -1.8380001 8
3.563 1.089 -1.837 8
1.469 0.491 -0.95999998 5
2.964 0.96799999 -1.847 7
3.1059999 0.99199998 -1.844 7
3.2509999 1.016 -1.84 7
3.404 1.0420001 -1.836 8
3.5710001 1.072 -1.835 8
1.478 0.486 -0.963 4
2.98 0.95599997 -1.85 7
3.1170001 0.97799999 -1.844 8
3.263 1.002 -1.841 7
3.4159999 1.027 -1.836 8
3.5799999 1.056 -1.8329999 9
1.493 0.48199999 -0.96899998 4
2.9879999 0.94199997 -1.848 7
3.128 0.963 -1.844 7
3.276 0.98699999 -1.841 8
3.4319999 1.013 -1.8380001 8
3.5999999 1.0420001 -1.837 8
1.505 0.477 -0.972 4
3.006 0.93000001 -1.851 7
3.1389999 0.949 -1.8430001 7
3.2909999 0.97299999 -1.841 8
3.4460001 0.99800003 -1.8380001 8
3.6110001 1.025 -1.835 8
1.523 0.47299999 -0.97899997 3
3.0190001 0.91600001 -1.851 7
3.155 0.935 -1.844 8
3.306 0.95899999 -1.842 8
3.461 0.98299998 -1.8380001 8
3.6289999 1.01 -1.837 8
1.556 0.47400001 -0.99599999 3
3.033 0.903 -1.851 7
3.171 0.92199999 -1.844 8
3.3199999 0.94400001 -1.841 8
3.477 0.96799999 -1.8380001 8
3.6440001 0.99400002 -1.835 8
1.63 0.48699999 -1.0369999 5
3.039 0.88599998 -1.844 7
3.1849999 0.90700001 -1.8430001 8
3.342 0.93099999 -1.844 8
3.4920001 0.95200002 -1.837 8
3.6589999 0.97799999 -1.834 8
0 0 0 0
3.0550001 0.87300003 -1.845 7
3.2049999 0.89399999 -1.845 7
3.3629999 0.917 -1.846 7
3.5209999 0.94 -1.842 8
3.681 0.963 -1.835 8
1.938 0.55599999 -1.22 22
3.0780001 0.861 -1.847 8
3.2219999 0.88 -1.844 8
3.3770001 0.90100002 -1.8430001 8
3.5350001 0.92400002 -1.839 8
3.7030001 0.94800001 -1.835 8
2.9579999 0.82999998 -1.85 7
3.0999999 0.84799999 -1.85 7
3.2449999 0.86699998 -1.846 8
3.402 0.88800001 -1.845 8
3.556 0.90899998 -1.8380001 9
3.723 0.93199998 -1.834 8
2.9749999 0.81599998 -1.849 6
3.1110001 0.83200002 -1.844 7
3.2639999 0.85299999 -1.845 9
3.424 0.87400001 -1.845 8
3.582 0.89499998 -1.84 8
3.7449999 0.91600001 -1.832 8
3.0009999 0.80500001 -1.853 7
3.138 0.81999999 -1.847 7
3.286 0.83899999 -1.845 8
3.444 0.85900003 -1.844 8
3.6010001 0.87900001 -1.837 9
3.7709999 0.90100002 -1.8329999 9
3.02 0.79100001 -1.851 7
3.161 0.80699998 -1.848 8
3.3110001 0.82499999 -1.846 7
3.4690001 0.84500003 -1.844 8
3.6259999 0.86400002 -1.837 8
3.8 0.88599998 -1.834 8
3.0369999 0.77700001 -1.848 7
3.1830001 0.79400003 -1.848 7
3.336 0.81199998 -1.846 8
3.493 0.82999998 -1.8430001 8
3.655 0.85000002 -1.8380001 9
3.825 0.87099999 -1.8329999 9
3.0610001 0.764 -1.849 7
3.2030001 0.77899998 -1.845 8
3.359 0.79699999 -1.845 8
3.5150001 0.815 -1.841 7
3.681 0.83399999 -1.8380001 8
3.8529999 0.85500002 -1.832 8
3.082 0.75 -1.847 7
3.2309999 0.76700002 -1.847 8
3.3900001 0.78500003 -1.847 8
3.553 0.80299997 -1.846 8
3.7130001 0.81999999 -1.8380001 9
3.885 0.83999997 -1.832 9
3.109 0.73799998 -1.848 7
3.2590001 0.75400001 -1.848 8
3.415 0.76999998 -1.847 8
3.575 0.787 -1.8430001 8
3.7390001 0.80500001 -1.836 9
3.918 0.82499999 -1.832 9
3.141 0.72600001 -1.851 7
3.289 0.741 -1.849 8
3.4419999 0.75599998 -1.846 8
3.605 0.773 -1.842 8
3.7679999 0.79000002 -1.834 8
3.944 0.80800003 -1.829 9
3.161 0.71200001 -1.847 7
3.316 0.727 -1.848 8
3.4860001 0.745 -1.853 9
3.641 0.75999999 -1.844 9
3.803 0.77499998 -1.835 9
3.99 0.79500002 -1.8329999 8
3.1900001 0.699 -1.848 7
3.349 0.71399999 -1.85 8
3.5120001 0.73000002 -1.849 8
3.671 0.745 -1.842 8
3.835 0.75999999 -1.834 9
4.0240002 0.77899998 -1.831 9
3.223 0.68599999 -1.85 7
3.3800001 0.70099998 -1.85 8
3.5369999 0.71499997 -1.846 8
3.7049999 0.73000002 -1.842 8
3.8699999 0.745 -1.832 9
4.066 0.76499999 -1.8329999 10
3.25 0.67199999 -1.847 8
3.4119999 0.68699998 -1.849 9
3.5710001 0.70099998 -1.845 8
3.737 0.71499997 -1.84 8
3.9100001 0.73000002 -1.8329999 10
4.1100001 0.75 -1.834 9
3.286 0.66000003 -1.849 7
3.447 0.67400002 -1.85 8
3.609 0.68699998 -1.846 8
3.776 0.70099998 -1.841 9
3.9519999 0.71600002 -1.834 9
4.1560001 0.73500001 -1.835 10
3.3169999 0.64600003 -1.848 7
3.484 0.66100001 -1.851 8
3.6500001 0.67400002 -1.848 9
3.8139999 0.68599999 -1.839 9
3.9990001 0.70200002 -1.836 9
4.2010002 0.72000003 -1.835 9
3.355 0.634 -1.85 8
3.52 0.64700001 -1.85 9
3.687 0.66000003 -1.847 9
3.8529999 0.67199999 -1.839 8
4.0469999 0.68900001 -1.8380001 9
4.2509999 0.70599997 -1.836 10
3.395 0.62199998 -1.852 8
3.5610001 0.634 -1.852 9
3.7219999 0.64499998 -1.845 9
3.8989999 0.65899998 -1.84 9
4.0840001 0.67299998 -1.834 9
4.2979999 0.69099998 -1.835 10
3.4330001 0.60799998 -1.852 8
3.5929999 0.61900002 -1.848 9
3.76 0.63099998 -1.8430001 9
3.938 0.64300001 -1.8380001 9
4.131 0.65799999 -1.834 10
4.3460002 0.67500001 -1.834 10
3.474 0.59600002 -1.853 8
3.635 0.60600001 -1.848 8
3.813 0.61799997 -1.847 10
3.9890001 0.63 -1.84 9
4.1830001 0.64399999 -1.835 10
4.4039998 0.66100001 -1.836 10
3.51 0.58200002 -1.851 8
3.678 0.59200001 -1.849 8
3.848 0.60299999 -1.8430001 9
4.0380001 0.616 -1.84 10
4.2389998 0.63 -1.8380001 10
4.4510002 0.64399999 -1.8329999 10
3.55 0.56800002 -1.85 7
3.721 0.579 -1.849 9
3.8889999 0.588 -1.84 10
4.0840001 0.60100001 -1.839 10
4.2940001 0.616 -1.8380001 10
4.5079999 0.63 -1.8329999 10
3.5999999 0.55599999 -1.854 8
3.7679999 0.56599998 -1.849 9
3.9389999 0.57499999 -1.841 9
4.145 0.588 -1.8430001 9
4.3470001 0.60000002 -1.837 10
4.5679998 0.61500001 -1.8329999 9
3.6340001 0.542 -1.849 8
3.803 0.551 -1.844 9
3.9909999 0.56099999 -1.842 9
4.1960001 0.574 -1.842 9
4.4060001 0.58600003 -1.837 10
4.6220002 0.59799999 -1.829 10
3.6800001 0.528 -1.849 8
3.8570001 0.537 -1.846 9
4.0339999 0.546 -1.837 9
4.2529998 0.55900002 -1.842 10
4.4569998 0.56999999 -1.8329999 10
4.6900001 0.583 -1.83 10
3.724 0.51499999 -1.847 9
3.905 0.523 -1.844 9
4.1020002 0.53399998 -1.8430001 10
4.3049998 0.54400003 -1.8380001 9
4.5240002 0.55599999 -1.834 10
4.7550001 0.56800002 -1.829 10
3.78 0.50199997 -1.85 8
3.948 0.50800002 -1.84 9
4.1529999 0.51899999 -1.841 10
4.3649998 0.52999997 -1.839 9
4.5819998 0.54000002 -1.831 11
4.8210001 0.55199999 -1.827 10
3.8269999 0.48800001 -1.848 8
4.0050001 0.495 -1.841 9
4.2199998 0.50599998 -1.844 10
4.4219999 0.51499999 -1.836 10
4.652 0.52600002 -1.832 11
4.8930001 0.537 -1.826 11
3.881 0.47499999 -1.849 8
4.0630002 0.48199999 -1.841 9
4.276 0.49200001 -1.842 10
4.4910002 0.50099999 -1.837 10
4.7210002 0.51099998 -1.831 11
4.9759998 0.523 -1.8279999 11
3.9330001 0.461 -1.847 9
4.125 0.46900001 -1.8430001 10
4.3400002 0.47799999 -1.8430001 10
4.559 0.486 -1.837 10
4.7940001 0.49599999 -1.831 11
5.0619998 0.50800002 -1.83 10
3.9809999 0.447 -1.8430001 9
4.191 0.456 -1.845 10
4.4050002 0.46399999 -1.842 10
4.6269999 0.472 -1.836 10
4.8740001 0.48100001 -1.832 10
5.132 0.491 -1.825 11
4.046 0.435 -1.846 9
4.2540002 0.442 -1.845 10
4.473 0.44999999 -1.842 10
4.6950002 0.45699999 -1.8329999 10
4.9460001 0.46599999 -1.829 11
5.2160001 0.47600001 -1.823 12
4.0999999 0.421 -1.842 9
4.3150001 0.428 -1.8430001 10
4.5419998 0.435 -1.841 10
4.7719998 0.442 -1.834 10
5.0409999 0.45199999 -1.8329999 11
5.3130002 0.461 -1.825 11
4.164 0.40700001 -1.842 9
4.3850002 0.414 -1.8430001 10
4.6160002 0.421 -1.841 10
4.855 0.428 -1.834 11
5.1139998 0.43599999 -1.8279999 11
5.395 0.44499999 -1.8200001 11
4.2410002 0.39500001 -1.847 9
4.454 0.40000001 -1.842 10
4.684 0.40700001 -1.837 11
4.9349999 0.414 -1.8329999 10
5.2080002 0.421 -1.8279999 11
