# .PCD v0.7 - Point Cloud Data file format
VERSION 0.7
FIELDS x y z intensity
SIZE 4 4 4 4
TYPE F F F F
COUNT 1 1 1 1
WIDTH 1937
HEIGHT 1
VIEWPOINT 0 0 0 1 0 0 0
POINTS 1937
DATA ascii
0 0 0 0
0 0 0 0
0 0 0 0
0 0 0 0
0 0 0 0
0 0 0 0
0 0 0 0
0 0 0 0
0 0 0 0
0 0 0 0
0 0 0 0
0 0 0 0
0 0 0 0
0 0 0 0
0 0 0 0
0 0 0 0
0 0 0 0
0 0 0 0
0 0 0 0
0 0 0 0
0 0 0 0
0 0 0 0
0 0 0 0
0 0 0 0
0 0 0 0
0 0 0 0
0 0 0 0
0 0 0 0
0 0 0 0
0 0 0 0
0 0 0 0
0 0 0 0
0 0 0 0
0 0 0 0
0 0 0 0
0 0 0 0
0 0 0 0
0 0 0 0
0 0 0 0
0 0 0 0
0 0 0 0
0 0 0 0
0 0 0 0
0 0 0 0
0 0 0 0
0 0 0 0
0 0 0 0
0 0 0 0
0 0 0 0
0 0 0 0
0 0 0 0
0 0 0 0
0 0 0 0
0 0 0 0
0 0 0 0
0 0 0 0
0 0 0 0
0 0 0 0
0 0 0 0
0 0 0 0
0 0 0 0
0 0 0 0
0 0 0 0
0 0 0 0
0 0 0 0
0 0 0 0
0 0 0 0
0 0 0 0
0 0 0 0
0 0 0 0
0 0 0 0
0 0 0 0
0 0 0 0
0 0 0 0
0 0 0 0
0 0 0 0
0 0 0 0
0 0 0 0
0 0 0 0
0 0 0 0
0 0 0 0
0 0 0 0
0 0 0 0
0 0 0 0
0 0 0 0
0 0 0 0
0 0 0 0
0 0 0 0
0 0 0 0
0 0 0 0
0 0 0 0
0 0 0 0
0 0 0 0
0 0 0 0
0 0 0 0
0 0 0 0
0 0 0 0
0 0 0 0
0 0 0 0
0 0 0 0
0 0 0 0
0 0 0 0
0 0 0 0
0 0 0 0
0 0 0 0
0 0 0 0
0 0 0 0
0 0 0 0
0 0 0 0
0 0 0 0
0 0 0 0
0 0 0 0
0 0 0 0
0 0 0 0
0 0 0 0
0 0 0 0
0 0 0 0
0 0 0 0
0 0 0 0
0 0 0 0
0 0 0 0
0 0 0 0
0 0 0 0
0 0 0 0
0 0 0 0
0 0 0 0
0 0 0 0
0 0 0 0
0 0 0 0
0 0 0 0
0 0 0 0
0 0 0 0
0 0 0 0
0 0 0 0
0 0 0 0
0 0 0 0
0 0 0 0
0 0 0 0
0 0 0 0
0 0 0 0
0 0 0 0
0 0 0 0
0 0 0 0
0 0 0 0
0 0 0 0
0 0 0 0
0 0 0 0
0 0 0 0
0 0 0 0
0 0 0 0
0 0 0 0
0 0 0 0
0 0 0 0
0 0 0 0
0 0 0 0
0 0 0 0
0 0 0 0
0 0 0 0
0 0 0 0
0 0 0 0
0 0 0 0
0 0 0 0
0 0 0 0
0 0 0 0
0 0 0 0
0 0 0 0
0 0 0 0
0 0 0 0
0 0 0 0
0 0 0 0
0 0 0 0
0 0 0 0
0 0 0 0
0 0 0 0
0 0 0 0
0 0 0 0
0 0 0 0
0 0 0 0
0 0 0 0
0 0 0 0
70.919998 -9.3030005 9.316 18
0 0 0 0
0 0 0 0
0 0 0 0
0 0 0 0
0 0 0 0
71.373001 -8.96 9.0500002 35
0 0 0 0
0 0 0 0
0 0 0 0
0 0 0 0
0 0 0 0
71.094002 -8.5310001 8.6890001 39
0 0 0 0
0 0 0 0
0 0 0 0
0 0 0 0
0 0 0 0
69.051003 -7.908 8.1140003 35
0 0 0 0
0 0 0 0
0 0 0 0
0 0 0 0
0 0 0 0
69.457001 -7.5809999 7.8299999 48
0 0 0 0
0 0 0 0
0 0 0 0
0 0 0 0
0 0 0 0
69.804001 -7.2470002 7.5320001 41
71.315002 -7.3909998 8.743 39
0 0 0 0
0 0 0 0
0 0 0 0
0 0 0 0
68.959 -6.8000002 7.1009998 48
71.027 -6.9879999 8.3540001 42
0 0 0 0
0 0 0 0
0 0 0 0
0 0 0 0
68.917999 -6.4429998 6.7529998 12
69.778 -6.5040002 7.855 45
0 0 0 0
0 0 0 0
0 0 0 0
0 0 0 0
71.210999 -6.2969999 6.618 3
70.171997 -6.1880002 7.546 42
0 0 0 0
0 0 0 0
0 0 0 0
0 0 0 0
72.581001 -6.0599999 6.3730001 4
70.814003 -5.8930001 7.25 50
72.653 -6.0310001 8.507 16
0 0 0 0
0 0 0 0
0 0 0 0
77.042999 -6.059 6.3639998 48
72.470001 -5.6789999 7.0409999 22
72.172997 -5.6370001 8.0699997 43
0 0 0 0
0 0 0 0
0 0 0 0
73.776001 -5.4489999 5.7059999 8
71.882004 -5.2909999 6.6069999 9
72.105003 -5.2870002 7.6789999 42
71.538002 -5.2280002 8.6719999 5
0 0 0 0
0 0 0 0
73.882004 -5.1129999 5.3200002 13
73.370003 -5.0549998 6.348 23
71.765999 -4.9239998 7.2579999 37
71.593002 -4.8920002 8.29 29
0 0 0 0
0 0 0 0
75.582001 -4.882 5.0310001 5
73.766998 -4.7449999 5.9829998 37
72.238998 -4.625 6.9130001 48
71.309998 -4.546 7.8709998 47
0 0 0 0
0 0 0 0
74.601997 -4.4850001 4.5580001 8
74.028 -4.4289999 5.598 32
71.617996 -4.2610002 6.4580002 42
71.699997 -4.2470002 7.5190001 45
73.777 -4.3499999 8.8240004 5
0 0 0 0
142.153 -7.9260001 7.9050002 27
74.316002 -4.119 5.2090001 20
71.871002 -3.9590001 6.0809999 25
72.224998 -3.957 7.1680002 48
0 0 0 0
0 0 0 0
141.67 -7.2880001 7.0809999 15
82.349998 -4.211 5.3099999 39
73.267998 -3.7219999 5.7909999 33
72.019997 -3.6359999 6.7449999 35
72.421997 -3.6329999 7.8439999 32
0 0 0 0
137.847 -6.5139999 6.1090002 32
82.117996 -3.852 4.8270001 17
72.875999 -3.3929999 5.3429999 36
72.746002 -3.3629999 6.3959999 37
72.487 -3.3299999 7.4400001 38
74.230003 -3.3889999 8.7150002 17
0 0 0 0
142.34801 -6.0929999 7.552 27
73.834 -3.1370001 4.9920001 10
73.402 -3.0929999 6.0339999 20
72.024002 -3.0109999 6.9770002 37
74.434998 -3.0880001 8.3050003 31
0 0 0 0
139.66499 -5.4159999 6.5970001 14
83.098999 -3.1919999 5.131 11
74.891998 -2.852 5.7189999 34
72.874001 -2.75 6.632 32
72.814003 -2.7249999 7.6989999 39
0 0 0 0
0 0 0 0
0 0 0 0
73.693001 -2.5190001 5.1989999 40
72.795998 -2.461 6.197 30
72.617996 -2.4289999 7.2480001 32
136.27299 -4.2859998 2.865 25
136.41499 -4.2379999 4.8400002 43
0 0 0 0
74.007004 -2.2449999 4.7800002 10
73.960999 -2.2149999 5.855 34
72.897003 -2.154 6.8369999 43
32.493999 -0.90100002 0.48800001 31
136.069 -3.72 4.0110002 35
137.53799 -3.7060001 6.0510001 19
102.142 -2.7160001 5.9840002 22
73.787003 -1.933 5.4000001 14
74.019997 -1.911 6.5009999 31
32.146 -0.77600002 0.28999999 60
135.99001 -3.2290001 3.1900001 37
0 0 0 0
103.08 -2.3670001 5.4190001 14
83.133003 -1.874 5.5799999 25
73.800003 -1.636 6.0359998 51
31.865 -0.65799999 0.093999997 73
32.696999 -0.662 0.56900001 13
84.609001 -1.679 2.7019999 7
127.612 -2.4790001 5.928 21
89.148003 -1.6950001 5.4419999 8
74.489998 -1.386 5.6360002 32
31.693001 -0.546 -0.103 68
32.299999 -0.54299998 0.36199999 60
84.425003 -1.386 2.1760001 18
84.065002 -1.344 3.3870001 5
89.614998 -1.395 4.9169998 20
81.859001 -1.24 5.6880002 26
31.666 -0.44100001 -0.29899999 54
31.993999 -0.43200001 0.161 67
89.186996 -1.168 1.744 23
84.289001 -1.0700001 2.8789999 12
88.726997 -1.0880001 4.3239999 33
81.790001 -0.96799999 5.1799998 12
31.617001 -0.34 -0.498 63
31.785 -0.32800001 -0.039000001 75
32.550999 -0.32100001 0.43200001 37
94.152 -0.89099997 2.6259999 99
83.781998 -0.75400001 3.5550001 5
101.128 -0.86799997 5.7709999 28
31.632999 -0.242 -0.69700003 63
31.728001 -0.229 -0.23899999 65
32.238998 -0.219 0.226 67
94.030998 -0.59799999 2.033 59
84.410004 -0.49900001 3.0550001 5
95.591003 -0.523 4.8590002 14
0 0 0 0
31.746 -0.13600001 -0.43700001 58
32.013 -0.123 0.024 68
32.935001 -0.111 0.505 1
94.142998 -0.27700001 2.8210001 150
94.078003 -0.235 4.1960001 14
27.559 -0.052000001 -0.95599997 60
31.789 -0.044 -0.64300001 58
31.884001 -0.029999999 -0.178 77
32.578999 -0.016000001 0.292 45
94.110001 -0.003 2.221 66
94.114998 0.041000001 3.595 125
27.51 0.024 -1.133 62
30.927 0.041000001 -0.82200003 45
31.917 0.057 -0.382 59
32.279999 0.071999997 0.085000001 67
52.112 0.142 0.898 51
118.241 0.38299999 3.76 42
27.540001 0.097000003 -1.314 75
27.628 0.111 -0.91500002 53
32.026001 0.14300001 -0.59200001 49
32.111 0.15899999 -0.123 70
32.867001 0.17900001 0.35299999 4
118.184 0.70099998 3.0020001 41
27.566 0.167 -1.495 58
27.534 0.18099999 -1.092 68
31.788 0.22400001 -0.79500002 50
32.083 0.241 -0.33199999 76
32.699001 0.26199999 0.139 38
42.587002 0.36300001 0.80500001 1
27.150999 0.23100001 -1.652 20
27.5 0.24699999 -1.27 58
0 0 0 0
32.199001 0.322 -0.54500002 53
32.486 0.34099999 -0.072999999 59
41.327 0.456 0.50999999 50
24.347 0.264 -1.6440001 8
27.591999 0.31299999 -1.457 47
27.469999 0.32499999 -1.0470001 58
32.384998 0.40000001 -0.75800002 61
32.438 0.417 -0.28299999 57
40.959999 0.54799998 0.241 42
22.219999 0.28999999 -1.648 14
27.267 0.37 -1.6210001 23
27.382999 0.38499999 -1.224 66
0 0 0 0
32.480999 0.491 -0.498 54
32.894001 0.51499999 -0.023 6
20.337 0.30899999 -1.645 15
24.790001 0.389 -1.6390001 7
27.478001 0.44499999 -1.4119999 61
27.344 0.45699999 -1.001 62
32.883999 0.56800002 -0.72299999 38
32.958 0.58700001 -0.23999999 27
18.827 0.324 -1.65 13
22.471001 0.398 -1.637 14
27.353001 0.49900001 -1.589 26
27.353001 0.51300001 -1.1849999 58
29.506001 0.56999999 -0.84399998 33
33.001999 0.65499997 -0.46000001 2
17.573999 0.336 -1.661 11
20.541 0.403 -1.636 15
25.320999 0.50999999 -1.642 8
27.483 0.56800002 -1.375 56
27.348 0.57999998 -0.96399999 67
33.898998 0.73799998 -0.69700003 15
16.451 0.34299999 -1.666 10
18.966 0.40599999 -1.6390001 13
22.884001 0.50199997 -1.638 10
27.370001 0.616 -1.554 40
27.298 0.63 -1.147 72
29.540001 0.69800001 -0.80699998 32
15.447 0.34900001 -1.673 10
17.705 0.40900001 -1.653 11
20.882 0.49399999 -1.638 16
25.843 0.62599999 -1.645 9
27.368999 0.67900002 -1.336 63
27.306999 0.69300002 -0.93099999 72
14.575 0.352 -1.6799999 10
16.537001 0.40900001 -1.659 10
19.275999 0.48699999 -1.645 14
23.282 0.60100001 -1.64 10
27.427 0.72399998 -1.525 46
27.256001 0.73500001 -1.113 75
13.798 0.354 -1.687 10
15.533 0.40700001 -1.666 11
17.889 0.479 -1.651 11
21.134001 0.57800001 -1.635 16
26.631001 0.74299997 -1.664 15
27.278 0.778 -1.301 62
13.082 0.35299999 -1.692 11
14.64 0.403 -1.6720001 11
16.738001 0.47099999 -1.66 10
19.502001 0.56 -1.642 14
23.490999 0.68900001 -1.6289999 9
27.412001 0.81999999 -1.495 42
12.419 0.35100001 -1.694 11
13.837 0.39899999 -1.678 11
15.71 0.46200001 -1.669 12
18.042 0.54100001 -1.645 12
21.454 0.65600002 -1.635 16
26.889999 0.83899999 -1.65 25
11.816 0.347 -1.696 12
13.141 0.39399999 -1.686 11
14.794 0.45199999 -1.675 10
16.872 0.52600002 -1.656 10
19.645 0.62400001 -1.633 14
23.893 0.77399999 -1.631 8
11.267 0.34299999 -1.698 13
12.467 0.38699999 -1.689 11
13.962 0.44100001 -1.679 11
15.819 0.509 -1.663 12
18.247999 0.59899998 -1.6440001 12
21.671 0.72500002 -1.6289999 16
10.78 0.338 -1.702 13
11.864 0.37900001 -1.691 12
13.245 0.43099999 -1.686 12
14.899 0.49399999 -1.671 11
17.035 0.57599998 -1.654 10
19.9 0.685 -1.6339999 14
10.372 0.33399999 -1.712 12
11.296 0.37 -1.691 13
12.561 0.419 -1.688 12
14.081 0.479 -1.679 11
15.955 0.55299997 -1.661 10
18.396 0.64899999 -1.6390001 12
9.96 0.32699999 -1.717 10
10.802 0.36199999 -1.6950001 13
11.945 0.40700001 -1.691 12
13.332 0.463 -1.684 12
15.029 0.53200001 -1.671 12
17.172001 0.61900002 -1.651 11
9.5869999 0.32100001 -1.724 10
10.385 0.354 -1.705 11
11.386 0.39500001 -1.694 13
12.653 0.447 -1.688 11
14.175 0.51099998 -1.676 11
16.066 0.58899999 -1.6569999 12
9.243 0.31400001 -1.729 10
9.9849997 0.345 -1.712 11
10.876 0.38299999 -1.696 13
12.025 0.43099999 -1.691 12
13.442 0.491 -1.684 12
15.121 0.56199998 -1.665 11
8.9300003 0.30599999 -1.7359999 10
9.6260004 0.336 -1.72 10
10.459 0.37200001 -1.706 12
11.461 0.41499999 -1.692 14
12.759 0.47099999 -1.687 12
14.304 0.53799999 -1.674 11
8.6230001 0.29800001 -1.739 11
9.2840004 0.32699999 -1.726 11
10.045 0.36000001 -1.711 11
10.948 0.40000001 -1.6950001 13
12.101 0.44999999 -1.687 11
13.521 0.51300001 -1.678 12
8.3509998 0.28999999 -1.747 11
8.9499998 0.317 -1.73 11
9.6920004 0.34900001 -1.72 11
10.531 0.38699999 -1.705 12
11.543 0.43200001 -1.691 13
12.846 0.48899999 -1.6849999 12
8.0950003 0.28099999 -1.7539999 10
8.6470003 0.30599999 -1.735 11
9.3389997 0.33700001 -1.726 11
10.11 0.37200001 -1.71 11
11.023 0.41299999 -1.694 13
12.207 0.46599999 -1.688 12
7.8540001 0.27200001 -1.76 10
8.375 0.296 -1.742 11
9.0179996 0.32499999 -1.732 11
9.7530003 0.35800001 -1.719 11
10.585 0.396 -1.701 13
11.616 0.44400001 -1.688 12
7.6459999 0.264 -1.77 10
8.1190004 0.28600001 -1.749 10
8.7080002 0.31299999 -1.737 11
9.3900003 0.34400001 -1.724 11
10.168 0.38 -1.707 11
11.102 0.42199999 -1.692 12
7.4289999 0.25400001 -1.776 10
7.8769999 0.27500001 -1.755 10
8.4259996 0.30000001 -1.742 11
9.0679998 0.33000001 -1.7309999 11
9.823 0.36399999 -1.72 11
10.652 0.403 -1.699 13
7.197 0.243 -1.775 10
7.6690001 0.26499999 -1.766 10
8.1730003 0.28799999 -1.75 10
8.7629995 0.315 -1.7359999 11
9.4499998 0.347 -1.722 11
10.245 0.384 -1.7079999 11
6.9860001 0.233 -1.776 10
7.4520001 0.25400001 -1.772 10
7.934 0.27599999 -1.757 10
8.4729996 0.301 -1.74 11
9.1169996 0.331 -1.728 10
9.8730001 0.36500001 -1.716 11
6.8099999 0.223 -1.783 10
7.2529998 0.242 -1.778 10
7.71 0.26300001 -1.7640001 10
8.2189999 0.287 -1.748 11
8.8190002 0.315 -1.7359999 11
9.5170002 0.347 -1.723 11
6.6350002 0.212 -1.788 10
7.0180001 0.23 -1.774 11
7.4749999 0.25 -1.767 11
7.9759998 0.273 -1.756 11
8.5340004 0.29899999 -1.7410001 11
9.1750002 0.32800001 -1.727 11
6.461 0.20100001 -1.791 11
6.835 0.21799999 -1.78 11
7.2800002 0.23800001 -1.775 11
7.7449999 0.259 -1.762 10
8.2720003 0.28299999 -1.748 11
8.8730001 0.31099999 -1.734 11
6.2930002 0.19 -1.793 10
6.652 0.206 -1.7819999 11
7.0689998 0.22400001 -1.776 11
7.5209999 0.244 -1.766 11
8.0209999 0.26699999 -1.7539999 11
8.5799999 0.29300001 -1.738 11
6.1490002 0.17900001 -1.799 10
6.4809999 0.19400001 -1.786 11
6.8779998 0.211 -1.78 11
7.3150001 0.23100001 -1.772 12
7.8070002 0.252 -1.763 11
8.3170004 0.27500001 -1.745 11
5.994 0.167 -1.8 10
6.3239999 0.182 -1.791 10
6.7090001 0.198 -1.786 11
7.1220002 0.21600001 -1.777 11
7.5689998 0.236 -1.7640001 11
8.0810003 0.259 -1.752 10
5.8660002 0.156 -1.806 10
6.1719999 0.17 -1.794 11
6.5450001 0.185 -1.791 11
6.927 0.20200001 -1.779 11
7.3629999 0.221 -1.7690001 11
7.8530002 0.242 -1.7589999 10
5.7309999 0.145 -1.809 10
6.0240002 0.15700001 -1.7970001 10
6.375 0.17200001 -1.7920001 11
6.7509999 0.18799999 -1.783 12
7.177 0.206 -1.776 12
7.6430001 0.22499999 -1.766 10
5.5960002 0.133 -1.809 11
5.8920002 0.145 -1.801 11
6.224 0.15899999 -1.795 11
6.5869999 0.17399999 -1.788 11
6.98 0.19 -1.778 11
7.4109998 0.208 -1.766 11
5.4759998 0.122 -1.813 10
5.7610002 0.133 -1.8049999 10
6.0869999 0.146 -1.801 11
6.4169998 0.15899999 -1.789 11
6.8049998 0.175 -1.7819999 11
7.2080002 0.191 -1.7690001 11
5.3600001 0.11 -1.816 10
5.6269999 0.12 -1.8049999 10
5.9390001 0.132 -1.802 10
6.27 0.145 -1.794 11
6.6259999 0.16 -1.783 11
7.0229998 0.175 -1.773 11
5.2350001 0.097999997 -1.814 10
5.5100002 0.108 -1.8099999 11
5.8150001 0.119 -1.808 11
6.1220002 0.131 -1.796 12
6.4720001 0.145 -1.789 11
6.836 0.15899999 -1.775 11
5.138 0.086000003 -1.8200001 9
5.3979998 0.094999999 -1.8150001 10
5.6750002 0.106 -1.807 12
5.9899998 0.117 -1.802 11
6.3169999 0.12899999 -1.7920001 11
6.6739998 0.14300001 -1.781 11
5.0229998 0.074000001 -1.819 10
5.2779999 0.082999997 -1.8150001 11
5.5489998 0.092 -1.809 11
5.849 0.103 -1.803 11
6.1750002 0.114 -1.796 11
6.5209999 0.127 -1.786 11
4.9130001 0.061999999 -1.817 10
5.1739998 0.07 -1.818 10
5.4330001 0.079000004 -1.811 11
5.7179999 0.089000002 -1.8049999 11
6.0339999 0.098999999 -1.799 12
6.3600001 0.111 -1.7869999 11
4.8280001 0.050000001 -1.824 10
5.0679998 0.057 -1.8200001 10
5.3319998 0.066 -1.817 11
5.5869999 0.074000001 -1.804 12
5.901 0.083999999 -1.802 11
6.2049999 0.093999997 -1.788 12
4.7389998 0.037999999 -1.827 10
4.9580002 0.044 -1.818 10
5.2160001 0.052000001 -1.817 11
5.48 0.061000001 -1.8099999 11
5.7649999 0.068999998 -1.802 12
6.0809999 0.079000004 -1.795 11
4.6529999 0.025 -1.83 9
4.8629999 0.032000002 -1.8200001 10
5.1199999 0.039000001 -1.821 11
5.3709998 0.046 -1.813 11
5.6329999 0.055 -1.801 11
5.9419999 0.063000001 -1.795 11
4.5689998 0.013 -1.832 9
4.777 0.018999999 -1.825 10
5.0149999 0.026000001 -1.821 11
5.2690001 0.033 -1.817 10
5.5320001 0.039999999 -1.808 11
5.809 0.048 -1.796 12
4.4790001 0.001 -1.831 9
4.6890001 0.0070000002 -1.826 10
4.914 0.012 -1.821 11
5.1609998 0.018999999 -1.817 11
5.427 0.025 -1.812 11
5.6830001 0.032000002 -1.796 11
4.4039998 -0.0099999998 -1.835 9
4.6020002 -0.0049999999 -1.827 9
4.829 0 -1.825 10
5.0679998 0.0049999999 -1.821 11
5.323 0.011 -1.8150001 11
5.5830002 0.017000001 -1.804 11
4.329 -0.022 -1.8380001 10
4.5300002 -0.017999999 -1.8329999 10
4.7399998 -0.013 -1.827 11
4.9640002 -0.0080000004 -1.8200001 11
5.2199998 -0.003 -1.817 11
5.4770002 0.001 -1.808 11
4.2480001 -0.034000002 -1.836 9
4.4450002 -0.029999999 -1.832 10
4.6560001 -0.026000001 -1.829 11
4.8720002 -0.022 -1.821 11
5.1139998 -0.017000001 -1.816 11
5.3720002 -0.012 -1.8099999 11
4.1669998 -0.046 -1.8329999 9
4.3730001 -0.043000001 -1.835 10
4.573 -0.039999999 -1.829 10
4.79 -0.035999998 -1.824 10
5.027 -0.032000002 -1.8200001 11
5.2779999 -0.028000001 -1.814 11
4.0999999 -0.059 -1.835 9
4.2950001 -0.056000002 -1.835 10
4.4990001 -0.052999999 -1.8329999 11
4.7049999 -0.048999999 -1.826 10
4.928 -0.046 -1.819 11
5.178 -0.043000001 -1.8150001 11
4.033 -0.071000002 -1.837 9
4.2210002 -0.068000004 -1.835 11
4.4219999 -0.066 -1.834 10
4.6259999 -0.063000001 -1.8279999 10
4.8340001 -0.059999999 -1.818 11
5.0840001 -0.057999998 -1.817 10
3.9719999 -0.082999997 -1.839 9
4.1550002 -0.081 -1.837 10
4.3470001 -0.079000004 -1.834 10
4.546 -0.077 -1.8279999 10
4.7610002 -0.075000003 -1.823 11
4.9879999 -0.071999997 -1.816 10
3.9159999 -0.094999999 -1.8430001 8
4.0819998 -0.093999997 -1.835 9
4.2779999 -0.092 -1.836 10
4.4749999 -0.090999998 -1.831 10
4.677 -0.089000002 -1.823 10
4.9089999 -0.086999997 -1.8200001 10
3.8570001 -0.108 -1.844 8
4.0180001 -0.106 -1.836 10
4.211 -0.105 -1.837 10
4.4050002 -0.104 -1.8329999 10
4.6059999 -0.103 -1.827 10
4.8130002 -0.102 -1.817 10
3.8039999 -0.12 -1.848 8
3.9619999 -0.119 -1.839 10
4.1420002 -0.118 -1.837 10
4.3330002 -0.118 -1.8329999 9
4.5349998 -0.117 -1.829 10
4.7449999 -0.117 -1.822 10
3.743 -0.132 -1.847 8
3.902 -0.131 -1.84 9
4.0760002 -0.131 -1.836 10
4.2680001 -0.131 -1.835 10
4.461 -0.131 -1.829 10
4.6750002 -0.131 -1.826 10
3.688 -0.14399999 -1.848 8
3.848 -0.14399999 -1.8430001 8
4.0089998 -0.14399999 -1.835 9
4.2030001 -0.145 -1.836 9
4.395 -0.145 -1.831 10
4.5960002 -0.146 -1.825 10
3.6429999 -0.156 -1.852 8
3.803 -0.15700001 -1.849 8
3.9579999 -0.15700001 -1.839 9
4.1430001 -0.15800001 -1.8380001 9
4.3299999 -0.15899999 -1.8329999 10
4.533 -0.161 -1.829 10
3.5929999 -0.168 -1.853 7
3.743 -0.169 -1.847 8
3.9070001 -0.17 -1.8430001 9
4.0809999 -0.171 -1.8380001 9
4.2600002 -0.17299999 -1.831 10
4.467 -0.175 -1.831 10
3.53 -0.18000001 -1.847 8
3.6949999 -0.182 -1.849 8
3.8599999 -0.183 -1.847 9
4.0149999 -0.184 -1.835 9
4.2049999 -0.18700001 -1.835 10
4.4039998 -0.189 -1.8329999 10
3.4860001 -0.192 -1.85 7
3.645 -0.19400001 -1.85 8
3.8069999 -0.19599999 -1.847 9
3.9590001 -0.197 -1.836 9
4.1490002 -0.2 -1.837 9
4.3400002 -0.20299999 -1.8329999 10
3.4360001 -0.204 -1.848 8
3.599 -0.206 -1.852 9
3.757 -0.20900001 -1.849 8
3.911 -0.211 -1.839 9
4.0840001 -0.214 -1.834 10
4.2779999 -0.21699999 -1.8329999 9
3.3959999 -0.21600001 -1.851 7
3.5510001 -0.219 -1.852 8
3.7090001 -0.222 -1.85 9
3.8599999 -0.22400001 -1.84 8
4.0289998 -0.227 -1.835 9
4.2259998 -0.23199999 -1.837 9
3.3570001 -0.228 -1.854 7
3.506 -0.23100001 -1.853 8
3.6530001 -0.234 -1.847 8
3.812 -0.237 -1.842 8
3.9749999 -0.241 -1.835 9
4.1630001 -0.24600001 -1.835 9
3.3139999 -0.23999999 -1.854 7
3.4590001 -0.243 -1.852 8
3.6070001 -0.24699999 -1.847 9
3.7690001 -0.25099999 -1.845 8
3.924 -0.25400001 -1.835 9
4.1079998 -0.25999999 -1.835 10
3.273 -0.252 -1.854 7
3.4230001 -0.25600001 -1.8559999 8
3.572 -0.25999999 -1.852 8
3.7249999 -0.264 -1.847 7
3.878 -0.26800001 -1.837 8
4.0539999 -0.27399999 -1.835 9
3.2360001 -0.264 -1.8559999 7
3.3759999 -0.26800001 -1.853 7
3.5280001 -0.273 -1.852 8
3.6819999 -0.27700001 -1.849 8
3.8340001 -0.28200001 -1.84 9
4.006 -0.28799999 -1.836 9
3.198 -0.27500001 -1.8559999 7
3.3380001 -0.28 -1.854 7
3.4909999 -0.285 -1.855 7
3.6400001 -0.28999999 -1.85 9
3.8010001 -0.296 -1.846 9
3.9579999 -0.30199999 -1.837 8
3.1630001 -0.287 -1.858 7
3.309 -0.29300001 -1.86 7
3.4530001 -0.29800001 -1.8559999 8
3.5940001 -0.303 -1.848 8
3.7590001 -0.31 -1.848 8
3.9159999 -0.31600001 -1.839 8
3.1340001 -0.30000001 -1.862 6
3.2679999 -0.30500001 -1.858 7
3.4059999 -0.31 -1.852 8
3.5639999 -0.317 -1.854 8
3.71 -0.32300001 -1.845 8
3.8729999 -0.33000001 -1.84 8
3.095 -0.31099999 -1.86 7
3.2279999 -0.31600001 -1.8559999 8
3.3759999 -0.32300001 -1.857 7
3.517 -0.329 -1.85 8
3.677 -0.33700001 -1.849 9
3.8310001 -0.34400001 -1.841 9
3.062 -0.32300001 -1.86 6
3.1930001 -0.32800001 -1.855 6
3.3369999 -0.33500001 -1.855 8
3.493 -0.34299999 -1.857 8
3.6440001 -0.34999999 -1.853 9
3.7980001 -0.35800001 -1.845 8
3.033 -0.33500001 -1.862 6
3.1630001 -0.34099999 -1.858 7
3.3010001 -0.34799999 -1.855 7
3.4489999 -0.35499999 -1.853 8
3.602 -0.36300001 -1.851 8
3.7550001 -0.37200001 -1.844 8
3.0009999 -0.34599999 -1.8609999 6
3.1329999 -0.35299999 -1.859 7
3.2720001 -0.36000001 -1.858 7
3.4130001 -0.368 -1.853 7
3.5650001 -0.37599999 -1.851 7
3.721 -0.38600001 -1.846 8
2.967 -0.35699999 -1.859 8
3.1040001 -0.36500001 -1.8609999 6
3.2420001 -0.373 -1.859 7
3.3789999 -0.38100001 -1.853 7
3.523 -0.389 -1.848 8
3.6900001 -0.40000001 -1.85 8
1.771 -0.222 -1.1210001 2
3.076 -0.37799999 -1.862 6
3.2049999 -0.38499999 -1.8559999 7
3.348 -0.39399999 -1.854 8
3.4949999 -0.403 -1.851 8
3.655 -0.414 -1.85 7
1.573 -0.206 -1.005 2
3.0450001 -0.389 -1.8609999 6
3.1819999 -0.398 -1.86 6
3.3210001 -0.40700001 -1.8559999 7
3.473 -0.417 -1.8559999 8
3.6229999 -0.428 -1.851 8
1.535 -0.20900001 -0.99000001 2
3.02 -0.40200001 -1.863 6
3.154 -0.41 -1.86 7
3.2969999 -0.41999999 -1.86 6
3.4319999 -0.42899999 -1.851 8
3.5880001 -0.44100001 -1.85 7
1.498 -0.211 -0.97500002 3
3.0009999 -0.41499999 -1.868 6
3.1289999 -0.42300001 -1.862 6
3.2639999 -0.433 -1.857 7
3.4130001 -0.44400001 -1.857 8
3.5610001 -0.45500001 -1.852 7
1.475 -0.21600001 -0.96799999 3
2.9649999 -0.42500001 -1.8609999 8
3.098 -0.435 -1.859 6
3.237 -0.44600001 -1.858 7
3.3800001 -0.456 -1.855 7
3.527 -0.46799999 -1.85 7
1.447 -0.22 -0.958 3
0 0 0 0
3.0739999 -0.447 -1.86 6
3.2149999 -0.458 -1.86 7
3.3499999 -0.46900001 -1.853 7
3.5020001 -0.48199999 -1.851 8
1.429 -0.22400001 -0.95300001 3
1.608 -0.24699999 -1.026 1
3.0539999 -0.46000001 -1.862 6
3.1919999 -0.47099999 -1.8609999 7
3.3310001 -0.48300001 -1.8559999 7
3.483 -0.49599999 -1.855 7
0 0 0 0
1.569 -0.249 -1.008 2
3.03 -0.47099999 -1.862 6
3.1630001 -0.48300001 -1.858 6
3.309 -0.49599999 -1.858 7
3.464 -0.51099998 -1.859 8
0 0 0 0
1.541 -0.25299999 -0.99800003 2
3.013 -0.484 -1.865 6
3.141 -0.495 -1.858 6
3.2850001 -0.509 -1.857 7
3.4360001 -0.523 -1.8559999 7
0 0 0 0
1.515 -0.257 -0.98799998 2
2.983 -0.495 -1.859 6
3.1259999 -0.509 -1.862 7
3.2639999 -0.52200001 -1.858 7
3.4100001 -0.53600001 -1.855 8
0 0 0 0
1.492 -0.25999999 -0.98000002 2
2.967 -0.50800002 -1.8609999 6
3.1040001 -0.52100003 -1.8609999 6
3.2420001 -0.53500003 -1.857 7
3.392 -0.551 -1.857 7
0 0 0 0
1.479 -0.266 -0.977 3
2.0339999 -0.35800001 -1.284 4
3.085 -0.53399998 -1.8609999 6
3.2219999 -0.54799998 -1.857 7
3.3729999 -0.56400001 -1.857 7
0 0 0 0
1.456 -0.26899999 -0.96799999 3
1.789 -0.324 -1.136 7
3.0680001 -0.546 -1.8609999 6
3.2060001 -0.56099999 -1.858 7
3.358 -0.57800001 -1.86 7
0 0 0 0
1.442 -0.27399999 -0.96399999 4
1.645 -0.30700001 -1.051 3
3.0539999 -0.55900002 -1.863 6
3.1960001 -0.57499999 -1.862 7
3.3369999 -0.59100002 -1.857 7
0 0 0 0
0 0 0 0
1.584 -0.303 -1.017 2
3.039 -0.57200003 -1.863 6
3.175 -0.58700001 -1.859 7
3.3239999 -0.60500002 -1.859 7
0 0 0 0
0 0 0 0
1.567 -0.308 -1.011 3
3.026 -0.58399999 -1.864 6
3.158 -0.60000002 -1.858 6
3.3099999 -0.61900002 -1.86 7
0 0 0 0
0 0 0 0
1.5549999 -0.31400001 -1.008 4
3.01 -0.59600002 -1.862 6
3.152 -0.61400002 -1.862 7
3.293 -0.63200003 -1.858 7
0 0 0 0
0 0 0 0
1.533 -0.317 -0.99800003 4
2.9990001 -0.60900003 -1.863 6
3.135 -0.62599999 -1.86 7
3.2820001 -0.64600003 -1.859 7
0 0 0 0
0 0 0 0
1.517 -0.32100001 -0.991 4
2.993 -0.62300003 -1.867 6
3.1199999 -0.63800001 -1.858 7
3.2739999 -0.66000003 -1.8609999 7
0 0 0 0
0 0 0 0
1.5 -0.32499999 -0.98400003 5
2.9779999 -0.634 -1.864 6
3.1159999 -0.65200001 -1.8609999 6
3.2650001 -0.67299998 -1.862 7
0 0 0 0
0 0 0 0
1.498 -0.33199999 -0.98500001 6
2.974 -0.648 -1.8660001 6
3.105 -0.66500002 -1.86 6
3.2490001 -0.68599999 -1.858 7
0 0 0 0
0 0 0 0
1.484 -0.336 -0.97899997 6
2.9590001 -0.65899998 -1.862 5
3.095 -0.67799997 -1.859 6
3.253 -0.70099998 -1.864 7
0 0 0 0
0 0 0 0
0 0 0 0
2.954 -0.67199999 -1.864 4
3.095 -0.69199997 -1.863 7
3.24 -0.71399999 -1.8609999 7
0 0 0 0
0 0 0 0
1.4630001 -0.345 -0.96899998 6
1.541 -0.35699999 -0.97399998 0
3.086 -0.70499998 -1.86 6
3.2360001 -0.72799999 -1.862 7
1.1849999 -0.29699999 -0.866 4
0 0 0 0
0 0 0 0
1.557 -0.368 -0.986 0
3.085 -0.71799999 -1.863 6
3.2320001 -0.74199998 -1.862 7
0 0 0 0
0 0 0 0
1.4529999 -0.35699999 -0.96600002 6
2.9430001 -0.70999998 -1.8660001 6
3.082 -0.73199999 -1.863 6
3.2309999 -0.75599998 -1.863 7
0 0 0 0
0 0 0 0
0 0 0 0
2.9300001 -0.72000003 -1.858 6
3.0840001 -0.74599999 -1.865 6
3.2309999 -0.76999998 -1.864 7
0 0 0 0
0 0 0 0
0 0 0 0
2.938 -0.73500001 -1.865 6
3.082 -0.759 -1.865 6
3.227 -0.78299999 -1.862 7
1.1799999 -0.31799999 -0.866 4
0 0 0 0
0 0 0 0
1.522 -0.38699999 -0.96600002 0
3.082 -0.77200001 -1.865 6
3.233 -0.79799998 -1.865 7
0 0 0 0
0 0 0 0
0 0 0 0
1.527 -0.39500001 -0.96899998 0
3.0840001 -0.78600001 -1.865 6
3.234 -0.81199998 -1.864 7
1.1799999 -0.32800001 -0.866 5
0 0 0 0
0 0 0 0
2.938 -0.773 -1.863 6
3.0829999 -0.79799998 -1.863 6
3.234 -0.82499999 -1.863 7
0 0 0 0
0 0 0 0
0 0 0 0
2.948 -0.78799999 -1.867 6
3.095 -0.81400001 -1.868 6
3.243 -0.84100002 -1.865 7
0 0 0 0
0 0 0 0
0 0 0 0
2.9560001 -0.80199999 -1.87 5
3.0969999 -0.82700002 -1.8660001 6
3.247 -0.85500002 -1.864 7
0 0 0 0
0 0 0 0
0 0 0 0
2.9619999 -0.815 -1.87 5
3.1010001 -0.83999997 -1.865 7
3.2579999 -0.87 -1.8660001 7
0 0 0 0
0 0 0 0
0 0 0 0
2.9690001 -0.82800001 -1.87 6
3.1140001 -0.85500002 -1.868 7
3.267 -0.88499999 -1.867 7
0 0 0 0
0 0 0 0
0 0 0 0
2.977 -0.84100002 -1.8710001 7
3.1199999 -0.86799997 -1.867 7
3.273 -0.898 -1.865 7
0 0 0 0
0 0 0 0
0 0 0 0
2.984 -0.85399997 -1.869 6
3.1289999 -0.88200003 -1.8660001 7
3.2850001 -0.91299999 -1.865 7
0 0 0 0
0 0 0 0
1.487 -0.43799999 -0.97500002 2
2.9960001 -0.86799997 -1.8710001 6
3.1489999 -0.898 -1.8710001 7
3.2980001 -0.92799997 -1.8660001 7
0 0 0 0
0 0 0 0
1.505 -0.44800001 -0.98400003 1
3.0079999 -0.88099998 -1.8710001 6
3.158 -0.91100001 -1.869 6
3.312 -0.94300002 -1.8660001 7
0 0 0 0
0 0 0 0
1.528 -0.46000001 -0.995 1
3.0179999 -0.89399999 -1.87 6
3.168 -0.92500001 -1.867 7
3.3269999 -0.958 -1.8660001 8
0 0 0 0
0 0 0 0
1.546 -0.47 -1.002 1
3.043 -0.91100001 -1.876 6
3.187 -0.94 -1.869 7
3.3510001 -0.97500002 -1.87 7
0 0 0 0
0 0 0 0
0 0 0 0
3.0550001 -0.92400002 -1.874 6
3.1989999 -0.95300001 -1.867 7
3.359 -0.98799998 -1.865 7
0 0 0 0
0 0 0 0
1.559 -0.48300001 -1 0
3.0680001 -0.93599999 -1.873 6
3.223 -0.97000003 -1.8710001 7
3.382 -1.0039999 -1.867 7
0 0 0 0
0 0 0 0
2.938 -0.91900003 -1.875 6
3.0810001 -0.949 -1.87 7
3.237 -0.98299998 -1.868 7
3.401 -1.0190001 -1.8660001 8
0 0 0 0
0 0 0 0
2.9590001 -0.93300003 -1.877 5
3.1040001 -0.96399999 -1.872 6
3.2620001 -0.99900001 -1.87 7
3.431 -1.0369999 -1.87 8
0 0 0 0
0 0 0 0
2.974 -0.94599998 -1.875 6
3.1259999 -0.97899997 -1.873 7
3.279 -1.012 -1.868 8
3.4419999 -1.049 -1.863 7
0 0 0 0
0 0 0 0
2.9990001 -0.96100003 -1.878 5
3.1489999 -0.99400002 -1.874 7
3.3110001 -1.03 -1.873 7
3.473 -1.067 -1.8660001 7
0 0 0 0
0 0 0 0
3.0220001 -0.97500002 -1.88 6
3.1719999 -1.008 -1.874 7
3.332 -1.044 -1.8710001 7
3.5009999 -1.084 -1.867 7
0 0 0 0
0 0 0 0
3.04 -0.98699999 -1.876 6
3.1949999 -1.022 -1.874 7
3.3570001 -1.059 -1.87 8
3.526 -1.099 -1.8660001 7
0 0 0 0
1.433 -0.47499999 -0.92400002 0
3.0639999 -1.001 -1.877 6
3.223 -1.0369999 -1.875 7
3.3859999 -1.075 -1.8710001 7
3.556 -1.1160001 -1.8660001 7
0 0 0 0
2.941 -0.98100001 -1.881 6
3.0929999 -1.016 -1.878 6
3.2509999 -1.052 -1.875 7
3.415 -1.091 -1.8710001 7
3.5910001 -1.1339999 -1.867 7
0 0 0 0
2.964 -0.99400002 -1.8789999 7
3.119 -1.029 -1.878 6
3.273 -1.0650001 -1.872 7
3.444 -1.1059999 -1.87 8
3.6240001 -1.151 -1.867 8
0 0 0 0
2.9809999 -1.0039999 -1.874 5
3.148 -1.044 -1.878 7
3.316 -1.084 -1.8789999 7
3.4760001 -1.122 -1.869 8
3.6530001 -1.165 -1.864 8
1.52 -0.52200001 -0.99699998 1
3.0139999 -1.0190001 -1.877 6
3.1760001 -1.058 -1.878 6
3.3410001 -1.097 -1.875 7
3.513 -1.1390001 -1.8710001 7
3.688 -1.183 -1.863 7
0 0 0 0
3.043 -1.033 -1.877 6
3.207 -1.072 -1.878 7
3.3729999 -1.112 -1.874 7
3.5469999 -1.155 -1.87 7
3.73 -1.201 -1.864 8
2.9230001 -1.012 -1.881 5
3.073 -1.0470001 -1.877 7
3.2349999 -1.085 -1.875 7
3.408 -1.128 -1.874 7
3.5799999 -1.171 -1.867 7
3.767 -1.2180001 -1.863 8
2.9549999 -1.025 -1.882 5
3.108 -1.061 -1.8789999 7
3.2709999 -1.101 -1.876 7
3.4419999 -1.143 -1.872 8
3.6159999 -1.186 -1.8660001 7
3.8039999 -1.235 -1.8609999 8
2.9849999 -1.038 -1.882 6
3.1440001 -1.076 -1.88 7
3.3099999 -1.117 -1.878 7
3.4820001 -1.16 -1.873 7
3.6530001 -1.202 -1.863 8
3.8540001 -1.255 -1.863 8
3.013 -1.05 -1.8789999 6
3.177 -1.09 -1.8789999 8
3.352 -1.1339999 -1.881 7
3.5179999 -1.175 -1.872 7
3.6930001 -1.219 -1.862 7
3.901 -1.274 -1.863 8
3.049 -1.064 -1.88 7
3.214 -1.104 -1.8789999 8
3.382 -1.146 -1.875 8
3.566 -1.193 -1.874 7
3.74 -1.237 -1.863 8
3.9449999 -1.291 -1.8609999 8
3.086 -1.0779999 -1.881 7
3.2539999 -1.12 -1.881 8
3.4219999 -1.161 -1.875 7
3.6040001 -1.2079999 -1.872 8
3.79 -1.256 -1.865 8
4.0019999 -1.312 -1.864 8
3.1210001 -1.091 -1.88 7
3.2880001 -1.132 -1.878 7
3.4660001 -1.177 -1.876 8
3.6440001 -1.223 -1.869 8
3.836 -1.273 -1.863 8
4.0599999 -1.334 -1.8660001 8
3.1589999 -1.104 -1.88 7
3.3380001 -1.15 -1.883 7
3.5120001 -1.194 -1.877 7
3.6900001 -1.239 -1.868 8
3.8840001 -1.29 -1.862 8
4.1040001 -1.35 -1.8609999 8
3.198 -1.118 -1.8789999 7
3.3789999 -1.164 -1.882 8
3.5510001 -1.2079999 -1.873 8
3.7360001 -1.256 -1.867 8
3.9449999 -1.312 -1.8660001 9
4.1659999 -1.3710001 -1.863 8
3.2409999 -1.132 -1.88 7
3.4119999 -1.176 -1.875 9
3.6010001 -1.225 -1.875 7
3.7869999 -1.273 -1.8660001 8
4 -1.33 -1.865 9
4.2259998 -1.392 -1.862 9
3.289 -1.148 -1.882 7
3.4619999 -1.192 -1.877 8
3.6440001 -1.239 -1.8710001 8
3.8380001 -1.29 -1.865 8
4.0580001 -1.349 -1.865 8
4.2839999 -1.411 -1.86 8
3.3299999 -1.161 -1.88 6
3.507 -1.207 -1.875 8
3.6989999 -1.257 -1.873 8
3.895 -1.308 -1.8660001 8
4.119 -1.369 -1.865 8
4.3449998 -1.431 -1.858 8
3.375 -1.175 -1.8789999 8
3.556 -1.222 -1.875 8
3.743 -1.27 -1.868 8
3.9560001 -1.3279999 -1.868 9
4.178 -1.388 -1.863 8
4.4130001 -1.4529999 -1.858 9
3.4170001 -1.188 -1.876 8
3.608 -1.238 -1.875 8
3.7969999 -1.2869999 -1.868 8
4.02 -1.347 -1.869 8
4.2459998 -1.409 -1.865 9
4.487 -1.476 -1.859 8
3.471 -1.204 -1.878 7
3.6570001 -1.252 -1.873 8
3.8529999 -1.303 -1.8660001 8
4.0770001 -1.365 -1.867 8
4.3080001 -1.428 -1.862 8
4.5539999 -1.4960001 -1.8559999 9
3.5220001 -1.219 -1.877 8
3.711 -1.268 -1.872 8
3.918 -1.323 -1.869 8
4.1459999 -1.385 -1.868 8
4.3769999 -1.448 -1.8609999 8
4.631 -1.5190001 -1.8559999 9
3.576 -1.234 -1.877 8
3.7609999 -1.281 -1.868 8
3.984 -1.342 -1.8710001 8
4.2119999 -1.404 -1.867 9
4.4229999 -1.46 -1.85 8
4.6939998 -1.536 -1.849 9
3.628 -1.248 -1.875 8
3.8239999 -1.299 -1.87 8
4.0489998 -1.36 -1.8710001 9
4.2820001 -1.423 -1.867 8
4.52 -1.488 -1.858 8
4.7880001 -1.563 -1.853 8
3.6900001 -1.2640001 -1.877 7
3.8859999 -1.3150001 -1.869 9
4.1129999 -1.377 -1.869 8
4.3429999 -1.4400001 -1.862 8
4.6059999 -1.513 -1.8609999 9
4.8759999 -1.5880001 -1.853 9
3.737 -1.275 -1.8710001 8
3.9489999 -1.332 -1.869 8
4.1830001 -1.395 -1.869 9
4.4250002 -1.462 -1.865 8
4.658 -1.525 -1.849 9
4.9640002 -1.612 -1.853 9
3.7969999 -1.291 -1.87 8
4.0100002 -1.347 -1.8660001 9
4.2540002 -1.414 -1.869 9
4.4970002 -1.48 -1.862 8
4.757 -1.552 -1.854 9
5.0479999 -1.633 -1.849 9
3.8599999 -1.306 -1.87 8
4.0910001 -1.368 -1.872 8
4.329 -1.433 -1.869 8
4.579 -1.501 -1.862 9
4.8590002 -1.579 -1.859 9
5.1469998 -1.659 -1.848 8
3.925 -1.322 -1.869 8
4.1529999 -1.382 -1.867 8
4.4060001 -1.452 -1.868 9
4.6599998 -1.521 -1.8609999 9
4.961 -1.605 -1.862 8
5.256 -1.687 -1.851 9
3.994 -1.3380001 -1.869 8
4.2290001 -1.401 -1.868 9
4.4759998 -1.4680001 -1.863 8
4.7480001 -1.543 -1.86 9
5.0440001 -1.625 -1.8559999 9
5.3649998 -1.715 -1.851 8
4.0619998 -1.353 -1.868 8
4.2969999 -1.416 -1.864 8
4.5539999 -1.4859999 -1.862 9
4.8369999 -1.564 -1.86 8
5.1350002 -1.646 -1.853 9
5.4710002 -1.74 -1.849 9
4.1389999 -1.3710001 -1.87 8
4.381 -1.436 -1.8660001 9
4.6500001 -1.5089999 -1.865 8
4.9359999 -1.587 -1.86 9
5.2319999 -1.669 -1.85 9
5.5739999 -1.7640001 -1.844 9
4.211 -1.386 -1.867 8
4.461 -1.4529999 -1.865 9
4.7309999 -1.526 -1.8609999 9
5.0219998 -1.6059999 -1.855 8
5.3520002 -1.697 -1.853 9
5.7030001 -1.795 -1.846 9
4.2839999 -1.401 -1.865 9
4.5339999 -1.4680001 -1.859 9
4.829 -1.548 -1.863 9
5.125 -1.6289999 -1.8559999 8
5.4689999 -1.725 -1.855 9
5.823 -1.822 -1.844 9
4.3660002 -1.418 -1.865 8
4.6230001 -1.487 -1.86 9
4.9169998 -1.566 -1.859 10
5.2259998 -1.65 -1.853 9
5.5780001 -1.748 -1.851 8
5.9520001 -1.852 -1.8430001 9
4.4439998 -1.433 -1.863 8
4.7160001 -1.506 -1.86 8
5.0159998 -1.587 -1.858 9
5.3439999 -1.676 -1.855 9
5.6939998 -1.772 -1.848 9
6.0890002 -1.881 -1.842 10
4.5320001 -1.451 -1.862 8
4.816 -1.526 -1.862 9
5.118 -1.607 -1.857 8
5.4629998 -1.701 -1.8559999 8
5.8249998 -1.8 -1.848 9
6.23 -1.9119999 -1.84 9
4.6209998 -1.4680001 -1.862 8
4.908 -1.544 -1.858 9
5.223 -1.628 -1.855 8
5.5770001 -1.724 -1.853 9
5.9510002 -1.825 -1.845 9
6.3740001 -1.942 -1.8380001 9
4.71 -1.483 -1.86 9
5.0110002 -1.563 -1.858 10
5.3309999 -1.649 -1.853 8
5.6890001 -1.745 -1.848 9
6.0900002 -1.854 -1.845 9
6.552 -1.9809999 -1.8430001 8
4.8080001 -1.502 -1.86 8
5.0960002 -1.577 -1.851 15
5.4460001 -1.67 -1.852 8
5.8210001 -1.771 -1.849 9
6.2379999 -1.8839999 -1.844 9
6.7059999 -2.0109999 -1.839 8
4.9070001 -1.5190001 -1.86 8
5.2059999 -1.597 -1.851 8
5.5689998 -1.693 -1.852 9
5.9530001 -1.796 -1.847 10
6.3779998 -1.91 -1.84 9
6.8709998 -2.0439999 -1.837 12
5.0120001 -1.5369999 -1.86 11
5.323 -1.618 -1.851 9
5.6900001 -1.715 -1.85 9
6.085 -1.819 -1.844 10
6.5479999 -1.943 -1.8430001 8
7.046 -2.0769999 -1.835 27
5.1160002 -1.554 -1.858 22
5.4380002 -1.637 -1.85 9
5.8070002 -1.734 -1.845 9
6.2290001 -1.845 -1.8430001 9
6.7030001 -1.972 -1.839 8
7.1939998 -2.102 -1.823 33
5.184 -1.559 -1.8430001 23
5.5580001 -1.6569999 -1.849 9
5.9450002 -1.758 -1.845 9
6.3800001 -1.8710001 -1.841 10
6.875 -2.0020001 -1.8380001 8
7.3720002 -2.1340001 -1.818 32
5.316 -1.582 -1.848 10
5.6799998 -1.676 -1.846 8
6.0879998 -1.7819999 -1.845 9
6.5300002 -1.896 -1.837 10
7.0570002 -2.0350001 -1.837 11
7.5700002 -2.1689999 -1.814 33
5.447 -1.604 -1.852 9
5.8109999 -1.696 -1.845 9
6.2410002 -1.807 -1.845 10
6.7179999 -1.9299999 -1.842 9
7.2350001 -2.0650001 -1.8329999 30
7.763 -2.2019999 -1.807 41
5.5749998 -1.624 -1.853 9
5.9349999 -1.7130001 -1.84 9
6.3829999 -1.8279999 -1.841 10
6.8740001 -1.954 -1.836 8
7.3740001 -2.0810001 -1.816 37
7.98 -2.2390001 -1.803 43
5.6989999 -1.64 -1.85 9
6.0890002 -1.737 -1.842 9
6.539 -1.851 -1.8380001 10
7.0440001 -1.979 -1.831 9
7.592 -2.119 -1.817 37
8.2159996 -2.279 -1.8 46
5.8239999 -1.656 -1.846 9
6.2290001 -1.756 -1.839 9
6.6939998 -1.872 -1.8329999 9
7.2210002 -2.0050001 -1.827 9
7.79 -2.1489999 -1.811 38
8.4630003 -2.3199999 -1.7970001 47
5.9499998 -1.671 -1.841 9
6.3839998 -1.778 -1.8380001 9
6.8790002 -1.901 -1.835 9
7.448 -2.043 -1.832 25
7.9809999 -2.175 -1.801 50
8.6960001 -2.355 -1.789 46
6.086 -1.688 -1.839 8
6.5300002 -1.796 -1.8329999 9
7.0500002 -1.923 -1.831 8
7.6009998 -2.0580001 -1.817 36
8.224 -2.2119999 -1.8 52
8.9350004 -2.3889999 -1.778 18
6.244 -1.7079999 -1.84 9
6.7309999 -1.826 -1.841 9
7.2150002 -1.943 -1.823 8
7.783 -2.0799999 -1.807 41
8.4549999 -2.2449999 -1.794 55
9.2950001 -2.4530001 -1.789 9
6.3909998 -1.724 -1.837 9
6.8860002 -1.8430001 -1.834 9
7.4159999 -1.969 -1.823 9
8.0030003 -2.1099999 -1.8049999 43
8.7229996 -2.2850001 -1.793 55
9.5839996 -2.4949999 -1.7819999 9
6.5500002 -1.743 -1.836 9
7.0450001 -1.859 -1.8279999 8
7.6230001 -1.9960001 -1.821 10
8.2279997 -2.1389999 -1.8 45
8.9820004 -2.3199999 -1.7869999 59
9.9119997 -2.5450001 -1.779 9
6.7399998 -1.766 -1.841 8
7.2189999 -1.877 -1.822 8
7.8590002 -2.0280001 -1.824 27
8.4580002 -2.1670001 -1.794 57
9.2110004 -2.345 -1.772 44
10.245 -2.592 -1.774 9
6.882 -1.777 -1.831 8
7.4060001 -1.897 -1.819 9
8.0220003 -2.039 -1.808 37
8.7159996 -2.2 -1.7920001 58
9.5179996 -2.3859999 -1.771 12
10.577 -2.6359999 -1.7640001 10
7.0689998 -1.7970001 -1.832 9
7.6009998 -1.916 -1.8150001 9
8.2150002 -2.056 -1.7970001 47
8.9849997 -2.2320001 -1.789 59
9.9069996 -2.4460001 -1.78 9
10.971 -2.6919999 -1.761 9
7.2340002 -1.809 -1.825 8
7.7940001 -1.933 -1.809 9
8.4589996 -2.082 -1.794 46
9.2629995 -2.2639999 -1.784 64
10.228 -2.484 -1.771 10
11.389 -2.7490001 -1.756 10
7.421 -1.824 -1.821 9
8.0120001 -1.9529999 -1.8049999 10
8.7080002 -2.1070001 -1.79 49
9.5690002 -2.299 -1.781 67
10.582 -2.526 -1.766 10
11.871 -2.8169999 -1.758 10
7.619 -1.84 -1.818 9
8.2679996 -1.9809999 -1.808 12
8.9860001 -2.1370001 -1.789 52
9.8140001 -2.3180001 -1.765 48
10.943 -2.5680001 -1.7589999 9
12.34 -2.8770001 -1.752 11
7.803 -1.851 -1.8099999 9
8.5200005 -2.0050001 -1.808 31
9.2480001 -2.1600001 -1.7819999 62
10.136 -2.3510001 -1.7589999 16
11.37 -2.6199999 -1.7589999 10
12.89 -2.9519999 -1.752 10
8.0139999 -1.8660001 -1.807 10
8.7329998 -2.017 -1.7970001 42
9.5579996 -2.191 -1.783 71
10.527 -2.3970001 -1.763 10
11.815 -2.6719999 -1.756 11
13.448 -3.0220001 -1.748 10
8.2259998 -1.8789999 -1.801 9
8.9549999 -2.029 -1.786 50
9.8439999 -2.2130001 -1.774 73
10.904 -2.434 -1.7589999 10
12.308 -2.73 -1.755 11
14.08 -3.1040001 -1.748 10
8.4540005 -1.892 -1.796 9
9.2189999 -2.046 -1.78 50
10.166 -2.24 -1.77 74
11.297 -2.471 -1.7539999 11
12.823 -2.786 -1.752 10
14.761 -3.188 -1.745 9
8.7040005 -1.908 -1.794 10
9.5139999 -2.0680001 -1.778 52
10.488 -2.263 -1.762 68
11.752 -2.517 -1.7539999 11
13.394 -2.8499999 -1.751 10
15.497 -3.277 -1.743 9
8.9650002 -1.923 -1.7920001 10
9.802 -2.085 -1.772 54
10.773 -2.2739999 -1.745 55
12.218 -2.5610001 -1.752 11
13.983 -2.911 -1.747 10
16.238001 -3.359 -1.734 10
9.2989998 -1.95 -1.801 16
10.107 -2.1029999 -1.766 57
11.136 -2.299 -1.738 20
12.715 -2.6059999 -1.749 11
14.619 -2.9760001 -1.744 8
17.056 -3.45 -1.727 11
9.5860004 -1.964 -1.799 34
10.44 -2.122 -1.763 72
11.682 -2.3559999 -1.755 12
13.271 -2.6570001 -1.75 11
15.326 -3.0469999 -1.743 9
17.979 -3.552 -1.721 12
9.8290005 -1.967 -1.786 44
10.745 -2.132 -1.752 72
12.125 -2.3870001 -1.753 12
13.827 -2.7019999 -1.7460001 11
16.079 -3.1199999 -1.74 10
19.011 -3.665 -1.717 13
10.078 -1.967 -1.772 49
11.076 -2.1429999 -1.742 27
12.591 -2.4170001 -1.75 11
14.428 -2.7490001 -1.742 9
16.820999 -3.1830001 -1.729 10
20.222 -3.8010001 -1.7180001 15
10.377 -1.973 -1.765 56
11.541 -2.1760001 -1.751 13
13.127 -2.4549999 -1.751 11
15.082 -2.8 -1.739 8
17.719 -3.2650001 -1.726 12
21.452999 -3.927 -1.7079999 17
10.684 -1.978 -1.757 55
11.98 -2.1989999 -1.75 13
13.661 -2.487 -1.748 11
15.795 -2.8529999 -1.737 9
18.66 -3.346 -1.719 13
22.893999 -4.0770001 -1.704 12
10.977 -1.975 -1.743 34
12.426 -2.217 -1.747 11
14.226 -2.517 -1.743 11
16.514999 -2.8989999 -1.728 10
19.74 -3.4400001 -1.716 14
24.573999 -4.2529998 -1.704 8
11.422 -1.997 -1.752 12
12.903 -2.2360001 -1.745 11
14.827 -2.5480001 -1.74 11
17.337 -2.9549999 -1.725 11
20.848 -3.527 -1.707 16
26.320999 -4.4200001 -1.693 7
11.848 -2.0090001 -1.753 13
13.428 -2.257 -1.745 11
15.488 -2.5810001 -1.7359999 9
18.17 -3.003 -1.715 12
22.091 -3.6229999 -1.698 14
0 0 0 0
12.255 -2.0139999 -1.749 11
13.968 -2.2739999 -1.743 12
16.171 -2.609 -1.7309999 10
19.08 -3.053 -1.706 13
23.688 -3.76 -1.7029999 11
29.66 -4.671 -1.617 40
12.712 -2.0190001 -1.748 11
14.5 -2.2820001 -1.735 11
16.931999 -2.641 -1.727 10
20.212 -3.1259999 -1.707 15
25.375 -3.8929999 -1.702 7
29.549 -4.4980001 -1.471 56
13.191 -2.0239999 -1.7460001 12
15.1 -2.296 -1.732 11
17.691999 -2.6659999 -1.719 11
21.368 -3.191 -1.7029999 16
27.097 -4.0139999 -1.6900001 6
29.329 -4.3099999 -1.324 71
13.677 -2.0250001 -1.743 12
15.714 -2.3050001 -1.727 10
18.525999 -2.6919999 -1.712 12
22.611 -3.2550001 -1.696 13
29.187 -4.165 -1.6849999 19
29.181 -4.1300001 -1.184 73
14.211 -2.0250001 -1.7410001 12
16.391001 -2.312 -1.721 10
19.483 -2.721 -1.707 14
24.143 -3.342 -1.698 11
29.218 -4.0079999 -1.552 50
29.129999 -3.9630001 -1.051 64
14.763 -2.0209999 -1.738 11
17.125 -2.3210001 -1.719 11
20.549999 -2.757 -1.706 15
25.898001 -3.4419999 -1.704 7
29.093 -3.8310001 -1.416 63
29.469 -3.846 -0.93300003 35
15.349 -2.0150001 -1.7359999 11
17.834 -2.3169999 -1.707 11
21.737 -2.7950001 -1.707 17
27.862 -3.546 -1.71 8
28.907 -3.6440001 -1.281 85
32.161999 -4.0170002 -0.87900001 40
15.922 -1.999 -1.727 9
18.641001 -2.3150001 -1.701 13
22.976999 -2.8239999 -1.702 16
28.948 -3.5220001 -1.651 29
28.789 -3.4679999 -1.153 67
32.957001 -3.9300001 -0.76200002 2
16.589001 -1.988 -1.726 10
19.546 -2.3150001 -1.698 14
24.309999 -2.848 -1.696 10
28.919001 -3.3529999 -1.527 63
28.747 -3.2980001 -1.031 64
38.757999 -4.401 -0.736 5
17.254 -1.966 -1.719 11
20.542 -2.313 -1.6950001 15
25.962999 -2.8900001 -1.7 7
28.704 -3.1600001 -1.395 68
28.733999 -3.1289999 -0.91100001 25
44.480999 -4.7930002 -0.66399997 4
17.948 -1.9400001 -1.712 12
21.652 -2.3110001 -1.696 17
27.839001 -2.9360001 -1.709 15
28.604 -2.9809999 -1.273 71
32.021999 -3.299 -0.88700002 38
50.937 -5.1900001 -0.55900002 5
18.722 -1.9119999 -1.707 13
22.785 -2.2969999 -1.691 16
28.638 -2.8499999 -1.642 29
28.444 -2.7969999 -1.154 86
32.376999 -3.145 -0.77100003 2
78.666 -7.553 -0.56199998 4
19.570999 -1.882 -1.705 14
24.056 -2.2820001 -1.6900001 11
28.683001 -2.6849999 -1.533 54
28.386 -2.6229999 -1.0420001 85
46.243 -4.2199998 -0.92699999 12
79.844002 -7.1960001 -0.273 56
20.452999 -1.8430001 -1.701 15
25.51 -2.267 -1.693 9
28.497999 -2.497 -1.415 64
28.659 -2.477 -0.94400001 31
46.750999 -3.987 -0.764 12
75.568001 -6.3590002 0.016000001 32
21.462999 -1.8049999 -1.7029999 17
27.024 -2.2379999 -1.692 11
28.257999 -2.3050001 -1.298 88
0 0 0 0
32.637001 -2.585 -0.41499999 57
84.218002 -6.579 0.31600001 51
22.497 -1.7539999 -1.701 18
28.198 -2.1630001 -1.6619999 23
28.16 -2.1259999 -1.192 76
32.280998 -2.4000001 -0.83200002 66
32.382 -2.369 -0.30000001 61
84.608002 -6.092 0.611 40
23.621 -1.6950001 -1.7 12
28.252001 -1.992 -1.564 47
28.079 -1.947 -1.09 76
32.139 -2.191 -0.71700001 61
32.160999 -2.155 -0.18799999 64
32.993 -2.1719999 0.34900001 0
24.882999 -1.63 -1.7029999 9
28.201 -1.814 -1.464 66
28.139999 -1.775 -0.99599999 61
31.936001 -1.977 -0.60399997 59
32.095001 -1.95 -0.079999998 65
157.37399 -9.3830004 2.1800001 25
26.23 -1.553 -1.706 9
27.979 -1.623 -1.358 83
0 0 0 0
31.790001 -1.768 -0.498 69
32.018002 -1.744 0.021 64
136.435 -7.2750001 2.3239999 14
27.577 -1.457 -1.701 27
27.923 -1.441 -1.2640001 76
31.114 -1.569 -0.898 53
31.716 -1.563 -0.39700001 71
31.955999 -1.539 0.121 79
137.108 -6.4460001 2.7550001 35
27.931999 -1.2970001 -1.6339999 41
27.83 -1.2589999 -1.1720001 85
31.587 -1.392 -0.81400001 67
31.698999 -1.3609999 -0.301 71
32.006001 -1.3380001 0.21699999 70
0 0 0 0
27.931999 -1.12 -1.549 59
27.764999 -1.079 -1.086 73
31.605 -1.191 -0.72100002 67
31.645 -1.158 -0.208 66
32.151001 -1.14 0.31 65
135.90401 -4.6729999 3.5139999 24
27.757999 -0.93400002 -1.457 72
27.796 -0.903 -1.007 64
31.565001 -0.98900002 -0.63099998 59
31.660999 -0.95599997 -0.119 72
32.331001 -0.93800002 0.40200001 47
136.16901 -3.8039999 3.895 36
27.723 -0.75300002 -1.376 71
27.808001 -0.72399998 -0.93000001 44
31.556999 -0.78500003 -0.54400003 63
31.698 -0.75400001 -0.034000002 70
32.591 -0.73799998 0.491 24
138.40601 -2.9809999 4.3210001 19
27.627001 -0.57099998 -1.2970001 83
0 0 0 0
31.591999 -0.57999998 -0.461 62
31.822001 -0.54900002 0.048 79
84.457001 -1.362 1.49 50
84.301003 -1.2690001 2.8440001 12
27.660999 -0.39199999 -1.226 56
30.365 -0.39500001 -0.85600001 34
31.621 -0.377 -0.38299999 61
32.021999 -0.34599999 0.127 69
94.026001 -0.91500002 1.886 15
84.405998 -0.727 3.05 18
27.511 -0.20999999 -1.152 68
31.652 -0.206 -0.81599998 44
31.764 -0.17 -0.30700001 65
32.32 -0.138 0.205 72
94.098 -0.29800001 2.108 65
84.404999 -0.177 3.244 9
27.457001 -0.028000001 -1.084 75
31.806 0.001 -0.745 68
31.921 0.037 -0.236 72
32.738998 0.074000001 0.28200001 31
118.225 0.39500001 2.911 45
118.348 0.52700001 4.809 23
27.587999 0.154 -1.026 81
32.092999 0.21600001 -0.68000001 61
32.234001 0.25299999 -0.167 69
41.604 0.37200001 0.449 52
117.95 1.182 3.158 63
117.764 1.311 5.0359998 14
27.601 0.34 -0.96700001 53
32.373001 0.43599999 -0.61699998 58
32.801998 0.47799999 -0.101 35
40.879002 0.64099997 0.52600002 59
42.036999 0.70300001 1.211 7
117.243 2.0969999 5.2509999 30
0 0 0 0
40.710999 0.82099998 -0.69400001 53
40.299999 0.85600001 -0.045000002 57
40.422001 0.903 0.59799999 58
41.729 0.98000002 1.283 53
117.91 2.9000001 5.5050001 37
0 0 0 0
40.307999 1.087 -0.61000001 53
39.926998 1.118 0.028999999 56
40.178001 1.169 0.66799998 57
40.923 1.235 1.332 59
121.686 3.803 5.8959999 35
29.466999 0.963 -0.861 34
39.931 1.349 -0.53299999 53
39.646 1.3789999 0.098999999 76
39.866001 1.4299999 0.73199999 52
40.574001 1.498 1.3890001 58
0 0 0 0
30.65 1.211 -0.84399998 39
31.101999 1.261 -0.36300001 49
31.415001 1.306 0.12899999 35
39.673 1.692 0.792 52
28.240999 1.235 1.012 57
0 0 0 0
30.684 1.421 -0.79699999 43
30.802999 1.459 -0.31200001 41
31.143 1.508 0.176 45
28.121 1.391 0.60399997 70
28.066 1.419 1.0470001 84
41.705002 2.1530001 2.217 1
28.162001 1.499 -0.68900001 23
28.132 1.525 -0.245 150
28.094 1.552 0.199 25
27.975 1.575 0.63999999 75
27.917999 1.603 1.081 73
0 0 0 0
30.422001 1.831 -0.70300001 55
30.483 1.865 -0.22400001 64
30.716999 1.911 0.25799999 54
27.827 1.76 0.67299998 10
39.916 2.566 1.595 55
0 0 0 0
30.34 2.039 -0.66299999 52
30.372 2.0710001 -0.186 57
30.586 2.1170001 0.294 56
31.289 2.198 0.79400003 22
39.785999 2.835 1.637 56
162.70799 11.765 9.2639999 27
30.186001 2.2379999 -0.62599999 55
30.249001 2.2709999 -0.152 58
30.596001 2.3280001 0.32600001 46
31.313999 2.415 0.82700002 35
39.714001 3.1029999 1.675 56
163.27901 12.94 9.467 35
30.135 2.4430001 -0.59500003 48
30.164 2.4749999 -0.122 63
30.544001 2.536 0.35600001 53
31.127001 2.6159999 0.852 29
39.678001 3.3770001 1.711 56
219.17599 18.889 12.91 36
30.292 2.671 -0.57099998 34
30.145 2.6849999 -0.096000001 58
30.615999 2.756 0.38299999 33
31.202 2.8399999 0.88 34
39.606998 3.6440001 1.7410001 56
0 0 0 0
29.997 2.855 -0.542 60
30.159 2.898 -0.071999997 52
30.503 2.96 0.40400001 47
31.237 3.0610001 0.90499997 35
39.585999 3.9200001 1.7690001 57
121.081 12.116 7.3169999 34
30.101 3.076 -0.52399999 52
30.110001 3.1029999 -0.052999999 56
30.5 3.1730001 0.42300001 47
31.382 3.2969999 0.92900002 20
39.59 4.1999998 1.794 57
107.699 11.54 6.5749998 22
30.091 3.289 -0.50700003 50
30.153 3.323 -0.037 45
30.445 3.3829999 0.43900001 60
31.584999 3.54 0.95099998 8
39.605999 4.4780002 1.814 56
103.356 11.795 6.3600001 11
30.124001 3.507 -0.495 50
30.226 3.5450001 -0.024 45
30.629 3.6210001 0.454 52
38.890999 4.6350002 1.187 56
39.66 4.7690001 1.8329999 56
97.414001 11.811 6.033 31
30.148001 3.727 -0.486 50
30.252001 3.766 -0.015 52
30.749001 3.8559999 0.46599999 44
38.903999 4.915 1.199 54
39.689999 5.0539999 1.846 55
96.695 12.415 6.0170002 25
30.235001 3.9549999 -0.48100001 44
30.409 4.0050001 -0.0089999996 33
30.851 4.0890002 0.472 44
38.948002 5.2010002 1.207 68
39.844002 5.3600001 1.86 58
92.508003 12.536 5.7729998 31
30.278 4.1799998 -0.479 53
30.441999 4.2280002 -0.0070000002 50
31.186001 4.3579998 0.47999999 35
39.083 5.4970002 1.214 45
40.009998 5.6659999 1.87 58
90.342003 12.883 5.6430001 37
30.427 4.4200001 -0.48300001 54
30.648001 4.4770002 -0.0070000002 48
31.363001 4.6079998 0.48199999 6
39.18 5.7909999 1.216 55
40.151001 5.9749999 1.875 59
89.971001 13.482 5.6160002 33
30.66 4.6760001 -0.491 37
31.009001 4.7550001 -0.012 35
38.868999 5.993 0.59100002 55
39.237999 6.0830002 1.212 50
40.370998 6.2979999 1.88 52
90.450996 14.198 5.6329999 8
31.221001 4.9879999 -0.50800002 35
39.18 6.29 -0.026000001 56
39.016998 6.2940001 0.583 48
39.415001 6.3909998 1.207 56
40.603001 6.6220002 1.88 40
90.246002 14.809 5.5960002 29
39.342999 6.5700002 -0.65600002 52
39.150002 6.5689998 -0.041000001 56
39.158001 6.6009998 0.57099998 55
39.634998 6.7140002 1.199 53
41.176998 7.0120001 1.892 37
90.800003 15.553 5.598 22
39.679001 6.9130001 -0.68099999 42
39.544998 6.9180002 -0.061000001 57
39.377998 6.9180002 0.55500001 67
39.931999 7.0510001 1.188 58
41.509998 7.3660002 1.887 4
96.901001 17.291 5.928 12
33.263 6.039 -0.59100002 1
39.637001 7.2220001 -0.083999999 54
39.668999 7.2589998 0.53600001 56
40.408001 7.428 1.179 60
117.032 21.613001 5.2529998 8
93.734001 17.400999 5.6810002 15
32.268002 6.0910001 -0.597 38
32.276001 6.1129999 -0.092 38
40.194 7.6430001 0.514 50
41.279999 7.881 1.176 36
105.067 20.153 4.6440001 8
103.438 19.938999 6.198 14
31.674 6.2090001 -0.61299998 37
31.787001 6.2540002 -0.117 38
32.198002 6.3559999 0.38600001 27
147.799 29.304001 4.0900002 17
0 0 0 0
99.139999 19.830999 5.8610001 37
31.424999 6.3920002 -0.63800001 47
31.421 6.4109998 -0.145 36
31.729 6.4959998 0.34999999 47
154.82899 31.822001 4.1430001 25
106.094 21.891001 4.5079999 15
