# .PCD v0.7 - Point Cloud Data file format
VERSION 0.7
FIELDS x y z intensity
SIZE 4 4 4 4
TYPE F F F F
COUNT 1 1 1 1
WIDTH 1739
HEIGHT 1
VIEWPOINT 0 0 0 1 0 0 0
POINTS 1739
DATA ascii
68.747002 -1.2359999 5.6329999 14
28.811001 -0.47499999 0.082999997 66
137.19099 -2.22 2.3800001 14
130.494 -2.0710001 4.1550002 12
0 0 0 0
79.241997 -1.209 4.829 11
70.592003 -1.053 5.329 31
28.566999 -0.38800001 -0.101 61
29.183001 -0.38800001 0.31799999 30
135.02699 -1.752 3.431 24
135.388 -1.7130001 5.408 13
0 0 0 0
71.088997 -0.852 4.908 20
28.385 -0.30700001 -0.28400001 62
28.681999 -0.301 0.127 72
134.48 -1.373 2.552 37
134.479 -1.3279999 4.507 24
0 0 0 0
79.200996 -0.73000002 4.9640002 18
28.253 -0.23199999 -0.465 70
28.497999 -0.22499999 -0.055 62
29.202 -0.22 0.366 27
134.123 -0.96600002 3.6270001 18
135.562 -0.92900002 5.638 36
78.699997 -0.51200002 4.4229999 12
28.219 -0.16 -0.64899999 57
28.287001 -0.15099999 -0.241 60
28.667999 -0.14300001 0.171 68
133.239 -0.62 2.7409999 32
135.26199 -0.57999998 4.7509999 24
138.414 -0.54100001 6.8709998 35
28.166 -0.092 -0.833 69
28.193001 -0.082000002 -0.42399999 69
28.414 -0.071999997 -0.014 66
29.129 -0.064000003 0.40799999 14
135.049 -0.24600001 3.859 18
134.35899 -0.191 5.79 35
0 0 0 0
28.198999 -0.016000001 -0.61199999 59
28.273001 -0.0060000001 -0.20200001 71
28.662001 0.0040000002 0.211 65
133.69501 0.071000002 2.9400001 34
134.283 0.125 4.908 53
24.382 0.029999999 -1.046 57
28.134001 0.046 -0.79900002 82
28.159 0.057 -0.389 67
28.396 0.068000004 0.021 65
29.243999 0.082000002 0.44800001 5
132.44 0.42500001 3.9590001 18
24.290001 0.081 -1.206 69
27.468 0.103 -0.96499997 63
28.106001 0.116 -0.57599998 64
28.240999 0.12800001 -0.167 66
28.691999 0.142 0.24699999 58
0 0 0 0
24.322001 0.13 -1.373 69
24.421 0.14 -1.021 41
28.143 0.17299999 -0.76599997 61
28.106001 0.184 -0.35299999 77
28.393999 0.198 0.055 69
29.205999 0.21600001 0.48199999 1
24.41 0.176 -1.544 66
24.290001 0.185 -1.181 65
27.719999 0.223 -0.94199997 57
28.094999 0.23800001 -0.54500002 68
28.207001 0.25099999 -0.13500001 68
28.73 0.26899999 0.28 63
24.327999 0.219 -1.707 18
24.311001 0.229 -1.348 69
24.489 0.241 -0.99900001 29
28.07 0.28799999 -0.73299998 63
28.108999 0.301 -0.32300001 67
28.403 0.317 0.086999997 65
22.912001 0.244 -1.7640001 18
24.271 0.26899999 -1.512 64
24.266001 0.27900001 -1.155 64
27.789 0.33199999 -0.91399997 66
28.096001 0.34900001 -0.51300001 57
28.219 0.36300001 -0.103 63
20.889999 0.255 -1.752 15
24.297001 0.30700001 -1.6799999 20
24.296 0.31799999 -1.323 67
24.702 0.33399999 -0.98100001 22
28.059 0.39199999 -0.70200002 60
28.089001 0.40700001 -0.294 71
19.26 0.26300001 -1.75 13
23.063999 0.32499999 -1.7539999 19
24.292 0.35299999 -1.49 67
24.239 0.36300001 -1.1289999 62
27.979 0.433 -0.89300001 70
28.059999 0.44800001 -0.48500001 56
17.809 0.266 -1.743 12
20.974001 0.32300001 -1.742 15
24.306 0.38600001 -1.658 36
24.184 0.396 -1.294 71
0 0 0 0
28.030001 0.486 -0.676 58
16.598 0.26800001 -1.74 10
19.285 0.32100001 -1.735 13
23.347 0.39899999 -1.755 19
24.274 0.42699999 -1.465 62
24.156 0.43700001 -1.104 72
28.028999 0.52200001 -0.87 69
15.556 0.26899999 -1.7410001 8
17.902 0.31799999 -1.7359999 12
21.347 0.389 -1.753 16
24.311001 0.45500001 -1.636 44
24.152 0.465 -1.2690001 72
25.996 0.514 -0.98299998 48
14.643 0.26699999 -1.742 11
16.643999 0.31200001 -1.7309999 10
19.555 0.37599999 -1.744 14
23.559 0.465 -1.75 20
24.275999 0.49200001 -1.4450001 66
24.194 0.50300002 -1.0829999 61
13.849 0.26499999 -1.7460001 11
15.628 0.30700001 -1.7359999 9
18.084999 0.36399999 -1.737 12
21.527 0.44499999 -1.748 16
24.329 0.51499999 -1.615 41
24.111 0.52399999 -1.2460001 61
13.127 0.26100001 -1.749 11
14.685 0.30000001 -1.735 11
16.827 0.352 -1.7359999 10
19.729 0.42300001 -1.7410001 14
23.704 0.52100003 -1.74 20
24.246 0.54699999 -1.423 62
12.488 0.25600001 -1.755 11
13.896 0.29300001 -1.742 12
15.744 0.34 -1.737 10
18.202 0.403 -1.737 12
21.738001 0.49399999 -1.75 17
24.353001 0.56699997 -1.6 49
11.908 0.25099999 -1.7589999 11
13.164 0.285 -1.745 12
14.79 0.32800001 -1.737 12
16.931 0.38499999 -1.734 10
19.851999 0.463 -1.738 14
23.891001 0.56999999 -1.735 20
11.361 0.244 -1.761 11
12.511 0.27599999 -1.748 12
13.996 0.317 -1.743 12
15.84 0.36700001 -1.734 9
18.381001 0.43700001 -1.738 12
21.934 0.53399998 -1.748 15
10.848 0.237 -1.76 12
11.908 0.26699999 -1.75 13
13.271 0.30500001 -1.748 12
14.899 0.35100001 -1.738 11
17.047001 0.41100001 -1.732 10
20.072001 0.49599999 -1.74 14
10.412 0.229 -1.765 11
11.378 0.257 -1.7539999 12
12.588 0.292 -1.749 12
14.086 0.33500001 -1.744 11
15.964 0.389 -1.7359999 11
18.507 0.463 -1.735 12
9.9879999 0.221 -1.767 12
10.87 0.24699999 -1.755 13
11.997 0.27900001 -1.753 13
13.324 0.31799999 -1.744 13
14.979 0.36700001 -1.735 11
17.163 0.43200001 -1.73 10
9.6029997 0.212 -1.7690001 12
10.444 0.237 -1.762 12
11.444 0.26699999 -1.7539999 12
12.656 0.303 -1.747 11
14.132 0.347 -1.7359999 11
16.052 0.40400001 -1.7309999 11
9.2410002 0.20299999 -1.77 12
10.002 0.226 -1.76 12
10.939 0.25400001 -1.756 13
12.065 0.287 -1.751 12
13.406 0.32800001 -1.742 12
15.073 0.37799999 -1.732 11
8.9020004 0.193 -1.771 11
9.6260004 0.215 -1.7640001 12
10.512 0.241 -1.763 12
11.513 0.27200001 -1.7539999 13
12.745 0.30899999 -1.747 12
14.24 0.35499999 -1.737 12
8.5670004 0.183 -1.768 11
9.2670002 0.204 -1.767 12
10.066 0.228 -1.762 12
11.012 0.25600001 -1.757 12
12.137 0.29100001 -1.751 12
13.487 0.33199999 -1.7410001 12
8.2939997 0.17299999 -1.774 11
8.9160004 0.192 -1.765 12
9.6899996 0.215 -1.767 12
10.574 0.242 -1.763 12
11.587 0.273 -1.7539999 13
12.816 0.31 -1.744 12
8.0459995 0.163 -1.78 11
8.6160002 0.18000001 -1.768 11
9.3170004 0.20100001 -1.765 12
10.13 0.226 -1.761 12
11.092 0.255 -1.757 12
12.226 0.28999999 -1.75 11
7.796 0.153 -1.7819999 11
8.3249998 0.169 -1.77 11
8.9779997 0.18799999 -1.767 12
9.7530003 0.211 -1.766 12
10.638 0.23800001 -1.761 13
11.684 0.26899999 -1.755 12
7.5149999 0.141 -1.774 13
8.0740004 0.15700001 -1.776 11
8.6680002 0.175 -1.768 12
9.3839998 0.19599999 -1.767 11
10.2 0.22 -1.762 11
11.16 0.249 -1.756 11
7.2909999 0.13 -1.776 24
7.7909999 0.14399999 -1.772 13
8.375 0.161 -1.771 11
9.0369997 0.18099999 -1.767 12
9.8070002 0.20299999 -1.765 12
10.694 0.23 -1.758 13
7.0580001 0.119 -1.772 27
7.5580001 0.133 -1.774 12
8.1129999 0.148 -1.774 11
8.717 0.16599999 -1.768 12
9.4510002 0.18700001 -1.768 12
10.26 0.20999999 -1.76 12
6.8730001 0.108 -1.778 25
7.2820001 0.12 -1.7640001 39
7.8610001 0.13500001 -1.777 12
8.4259996 0.15099999 -1.77 11
9.1070004 0.17 -1.7690001 12
9.8809996 0.192 -1.765 13
6.6750002 0.096000001 -1.776 28
7.098 0.108 -1.772 38
7.6079998 0.121 -1.776 12
8.1569996 0.13600001 -1.772 11
8.783 0.154 -1.7690001 12
9.5179996 0.17399999 -1.767 12
6.5079999 0.085000001 -1.781 26
6.9060001 0.094999999 -1.775 41
7.3260002 0.107 -1.763 37
7.9180002 0.122 -1.777 11
8.4849997 0.138 -1.7690001 11
9.1680002 0.156 -1.767 12
6.3559999 0.074000001 -1.788 24
6.7080002 0.082999997 -1.774 47
7.1339998 0.093999997 -1.77 43
7.6609998 0.107 -1.775 12
8.2220001 0.122 -1.773 11
8.8409996 0.138 -1.767 12
6.191 0.061999999 -1.788 23
6.533 0.07 -1.777 48
6.9439998 0.081 -1.773 60
7.3649998 0.092 -1.761 29
7.9489999 0.105 -1.772 13
8.5410004 0.12 -1.767 11
6.0430002 0.050000001 -1.7920001 24
6.3839998 0.057999998 -1.784 47
6.7540002 0.067000002 -1.775 48
7.1859999 0.078000002 -1.77 40
7.704 0.090000004 -1.772 13
8.2840004 0.103 -1.773 11
5.8990002 0.037999999 -1.793 24
6.2329998 0.045000002 -1.788 40
6.586 0.054000001 -1.779 65
6.9899998 0.063000001 -1.772 45
7.4250002 0.074000001 -1.761 22
8.0089998 0.086000003 -1.771 12
5.7550001 0.026000001 -1.794 23
6.0809999 0.033 -1.791 34
6.4180002 0.039999999 -1.781 56
6.8049998 0.048999999 -1.775 50
7.2290001 0.057999998 -1.767 38
7.756 0.068999998 -1.77 12
5.6329999 0.014 -1.799 23
5.934 0.02 -1.7920001 45
6.276 0.027000001 -1.788 49
6.6259999 0.035 -1.776 64
7.04 0.043000001 -1.771 41
7.5240002 0.052999999 -1.77 13
5.5089998 0.0020000001 -1.801 24
5.7950001 0.0070000002 -1.793 39
6.1259999 0.014 -1.79 53
6.4699998 0.02 -1.781 54
6.8590002 0.028000001 -1.774 40
7.2839999 0.035999998 -1.765 36
5.3850002 -0.0099999998 -1.802 34
5.664 -0.0049999999 -1.795 45
5.9809999 0 -1.7920001 53
6.3210001 0.0060000001 -1.7869999 51
6.678 0.012 -1.776 48
7.085 0.02 -1.767 38
5.2680001 -0.022 -1.802 39
5.5430002 -0.017000001 -1.798 42
5.842 -0.012 -1.793 51
6.164 -0.0070000002 -1.786 42
6.526 -0.001 -1.78 49
6.9169998 0.0040000002 -1.772 36
5.1529999 -0.034000002 -1.802 29
5.4250002 -0.029999999 -1.8 49
5.711 -0.026000001 -1.794 55
6.0339999 -0.021 -1.791 46
6.368 -0.016000001 -1.783 43
6.7420001 -0.011 -1.774 35
5.04 -0.046 -1.801 50
5.302 -0.043000001 -1.799 60
5.5949998 -0.039000001 -1.799 75
5.8979998 -0.035 -1.793 53
6.2329998 -0.030999999 -1.788 36
6.585 -0.027000001 -1.779 33
4.9549999 -0.059 -1.808 41
5.1960001 -0.056000002 -1.801 50
5.4819999 -0.052999999 -1.802 76
5.77 -0.048999999 -1.795 50
6.0949998 -0.046 -1.791 44
6.4239998 -0.041999999 -1.779 31
4.8540001 -0.071000002 -1.807 48
5.0890002 -0.068000004 -1.801 56
5.3600001 -0.066 -1.801 93
5.6459999 -0.064000003 -1.7970001 65
5.9499998 -0.061000001 -1.79 42
6.29 -0.057999998 -1.785 31
4.7649999 -0.082999997 -1.8099999 42
4.9889998 -0.081 -1.803 64
5.25 -0.079000004 -1.802 68
5.5339999 -0.078000002 -1.801 73
5.8309999 -0.075999998 -1.795 50
6.152 -0.072999999 -1.789 30
4.6760001 -0.094999999 -1.812 44
4.8969998 -0.093999997 -1.806 92
5.1420002 -0.093000002 -1.802 69
5.4159999 -0.092 -1.801 76
5.7030001 -0.090000004 -1.796 59
6.0250001 -0.089000002 -1.793 33
4.5960002 -0.108 -1.8150001 33
4.8119998 -0.107 -1.8099999 83
5.0450001 -0.106 -1.8049999 84
5.3099999 -0.106 -1.803 66
5.5879998 -0.105 -1.799 54
5.8909998 -0.105 -1.794 36
4.5110002 -0.121 -1.817 33
4.7259998 -0.12 -1.813 86
4.9510002 -0.12 -1.807 90
5.2010002 -0.12 -1.803 70
5.4790001 -0.12 -1.802 71
5.7639999 -0.12 -1.795 29
4.4299998 -0.133 -1.817 51
4.638 -0.133 -1.813 72
4.862 -0.133 -1.8099999 96
5.1030002 -0.134 -1.8049999 75
5.3709998 -0.13500001 -1.803 91
5.6570001 -0.13600001 -1.8 46
4.3460002 -0.145 -1.816 56
4.559 -0.146 -1.816 75
4.7729998 -0.147 -1.811 77
5.006 -0.148 -1.806 81
5.2680001 -0.149 -1.8049999 84
5.5510001 -0.15099999 -1.803 61
4.27 -0.15800001 -1.816 62
4.4809999 -0.15899999 -1.818 72
4.6939998 -0.161 -1.814 88
4.9180002 -0.162 -1.808 85
5.158 -0.164 -1.802 66
5.4450002 -0.16599999 -1.8049999 58
4.2059999 -0.17 -1.8200001 67
4.3990002 -0.17200001 -1.816 66
4.6090002 -0.17399999 -1.814 88
4.835 -0.176 -1.812 90
5.0669999 -0.178 -1.8049999 72
5.3390002 -0.18099999 -1.806 64
4.1399999 -0.183 -1.822 43
4.3260002 -0.185 -1.818 84
4.5359998 -0.18700001 -1.817 87
4.7550001 -0.19 -1.8150001 98
4.98 -0.193 -1.808 89
5.223 -0.19599999 -1.801 48
4.0840001 -0.19599999 -1.8279999 53
4.2550001 -0.198 -1.818 79
4.4549999 -0.2 -1.816 79
4.677 -0.204 -1.817 97
4.9029999 -0.207 -1.812 109
5.118 -0.20999999 -1.798 17
4.0170002 -0.208 -1.8279999 42
4.1929998 -0.211 -1.822 79
4.3829999 -0.214 -1.817 80
4.5960002 -0.21799999 -1.816 71
4.8210001 -0.222 -1.814 119
5.0430002 -0.22499999 -1.8049999 12
3.9619999 -0.221 -1.832 56
4.1269999 -0.22400001 -1.823 70
4.309 -0.227 -1.817 107
4.5279999 -0.23199999 -1.8200001 76
4.7399998 -0.236 -1.8150001 99
4.9569998 -0.23999999 -1.806 11
3.892 -0.233 -1.8279999 51
4.0669999 -0.237 -1.826 69
4.25 -0.241 -1.822 115
4.454 -0.245 -1.821 100
4.6440001 -0.249 -1.809 51
4.8720002 -0.255 -1.806 11
3.8369999 -0.24600001 -1.83 56
4.0159998 -0.25 -1.831 72
4.1830001 -0.25400001 -1.821 81
4.3899999 -0.25999999 -1.824 110
4.5760002 -0.264 -1.812 12
4.796 -0.26899999 -1.808 10
3.79 -0.259 -1.836 60
3.96 -0.26300001 -1.8329999 83
4.1290002 -0.26699999 -1.826 59
4.3179998 -0.273 -1.822 103
4.513 -0.278 -1.816 10
4.7199998 -0.28400001 -1.8099999 10
3.7320001 -0.271 -1.834 69
3.901 -0.27599999 -1.8329999 86
4.0739999 -0.28099999 -1.829 101
4.2449999 -0.28600001 -1.8200001 44
4.4510002 -0.29300001 -1.8200001 9
4.6570001 -0.29899999 -1.814 10
3.6789999 -0.28400001 -1.835 63
3.8440001 -0.289 -1.8329999 91
4.0159998 -0.294 -1.83 119
4.1919999 -0.30000001 -1.824 11
4.3850002 -0.30700001 -1.821 10
4.5890002 -0.31400001 -1.816 10
3.6240001 -0.29499999 -1.8329999 71
3.799 -0.30199999 -1.8380001 120
3.961 -0.308 -1.831 105
4.1329999 -0.31400001 -1.825 9
4.3249998 -0.32100001 -1.823 10
4.5209999 -0.329 -1.817 10
3.582 -0.308 -1.837 57
3.7550001 -0.31600001 -1.842 105
3.8970001 -0.31999999 -1.8279999 21
4.0799999 -0.32800001 -1.8279999 9
4.2639999 -0.33500001 -1.824 10
4.4629998 -0.34400001 -1.821 10
3.5339999 -0.32100001 -1.837 60
3.6949999 -0.32800001 -1.8380001 103
3.852 -0.33399999 -1.832 9
4.0209999 -0.34099999 -1.827 9
4.2030001 -0.34900001 -1.823 10
4.3990002 -0.35800001 -1.821 10
3.4820001 -0.33199999 -1.834 65
3.6400001 -0.33899999 -1.835 30
3.8110001 -0.34799999 -1.837 9
3.974 -0.35499999 -1.831 9
4.1560001 -0.36399999 -1.8279999 9
4.3439999 -0.373 -1.824 9
3.447 -0.34599999 -1.84 57
3.609 -0.354 -1.844 9
3.766 -0.361 -1.839 8
3.9189999 -0.368 -1.83 8
4.098 -0.377 -1.8279999 9
4.2870002 -0.38699999 -1.825 9
3.3989999 -0.35800001 -1.8380001 11
3.5680001 -0.36700001 -1.846 9
3.717 -0.37400001 -1.839 8
3.8759999 -0.382 -1.8329999 8
4.04 -0.391 -1.826 9
4.2350001 -0.40200001 -1.827 9
3.3770001 -0.37200001 -1.849 7
3.526 -0.38 -1.848 8
3.681 -0.38800001 -1.845 8
3.823 -0.39500001 -1.832 8
3.9890001 -0.405 -1.826 9
4.1820002 -0.417 -1.8279999 10
3.3310001 -0.384 -1.846 7
3.477 -0.39199999 -1.844 8
3.6300001 -0.40099999 -1.842 8
3.7839999 -0.41 -1.836 8
3.947 -0.419 -1.83 9
4.1259999 -0.43099999 -1.827 9
3.2939999 -0.396 -1.848 7
3.4430001 -0.405 -1.848 7
3.596 -0.41499999 -1.847 8
3.743 -0.42399999 -1.8380001 9
3.9000001 -0.433 -1.83 9
4.0749998 -0.44499999 -1.827 9
3.253 -0.40799999 -1.846 7
3.4030001 -0.41800001 -1.848 8
3.5550001 -0.428 -1.847 8
3.701 -0.43700001 -1.839 8
3.8570001 -0.447 -1.832 9
4.0229998 -0.458 -1.825 9
3.2219999 -0.421 -1.85 7
3.368 -0.43099999 -1.85 8
3.516 -0.44100001 -1.848 8
3.668 -0.45199999 -1.844 8
3.812 -0.461 -1.832 9
3.9849999 -0.47400001 -1.829 8
3.1889999 -0.43399999 -1.851 7
3.3299999 -0.44400001 -1.85 8
3.4749999 -0.454 -1.847 8
3.6270001 -0.465 -1.8430001 8
3.783 -0.47600001 -1.8380001 8
3.9400001 -0.48800001 -1.829 8
3.1570001 -0.44600001 -1.853 7
3.2969999 -0.456 -1.851 8
3.4400001 -0.46700001 -1.848 8
3.586 -0.47799999 -1.8430001 8
3.744 -0.49000001 -1.839 8
3.902 -0.50199997 -1.831 8
3.1210001 -0.458 -1.851 7
3.26 -0.46799999 -1.85 8
3.402 -0.479 -1.847 8
3.5510001 -0.491 -1.844 8
3.707 -0.50400001 -1.84 8
3.8699999 -0.51800001 -1.836 9
3.096 -0.47099999 -1.855 6
3.2260001 -0.48100001 -1.849 8
3.368 -0.49200001 -1.847 8
3.52 -0.505 -1.847 8
3.6719999 -0.51800001 -1.841 8
3.8269999 -0.53100002 -1.834 8
3.0650001 -0.48300001 -1.855 6
3.198 -0.49399999 -1.852 7
3.3399999 -0.50599998 -1.85 8
3.4920001 -0.51899999 -1.85 8
3.6389999 -0.53200001 -1.8430001 8
3.8010001 -0.54699999 -1.84 8
3.0350001 -0.495 -1.855 6
3.1670001 -0.50599998 -1.851 7
3.3139999 -0.51999998 -1.853 7
3.46 -0.53299999 -1.851 8
3.6059999 -0.546 -1.844 8
3.7650001 -0.56099999 -1.84 8
3.0079999 -0.50700003 -1.8559999 6
3.1389999 -0.51899999 -1.852 7
3.279 -0.53200001 -1.851 7
3.4189999 -0.54400003 -1.846 8
3.573 -0.55900002 -1.844 8
3.7349999 -0.57499999 -1.842 8
2.9820001 -0.51999998 -1.857 6
3.1099999 -0.53100002 -1.852 7
3.25 -0.54400003 -1.851 7
3.392 -0.55800003 -1.847 7
3.5439999 -0.57300001 -1.845 8
3.7019999 -0.58999997 -1.8430001 8
2.9560001 -0.53200001 -1.857 9
3.089 -0.54400003 -1.8559999 7
3.2249999 -0.55800003 -1.853 7
3.3699999 -0.57300001 -1.852 8
3.5150001 -0.58700001 -1.846 7
3.6700001 -0.60399997 -1.842 8
0 0 0 0
3.069 -0.55800003 -1.86 7
3.197 -0.56999999 -1.852 7
3.335 -0.58499998 -1.848 8
3.487 -0.60100001 -1.847 8
3.641 -0.61799997 -1.8430001 8
1.643 -0.31400001 -1.05 5
3.039 -0.56999999 -1.857 7
3.1730001 -0.583 -1.854 7
3.3110001 -0.59799999 -1.849 7
3.464 -0.61500001 -1.849 8
3.612 -0.63200003 -1.8430001 8
1.561 -0.30700001 -1.006 4
3.0179999 -0.58200002 -1.859 6
3.1459999 -0.59600002 -1.852 6
3.2880001 -0.61199999 -1.851 7
3.4400001 -0.62900001 -1.851 8
3.5899999 -0.64700001 -1.846 7
1.534 -0.31099999 -0.99599999 4
2.9979999 -0.59500003 -1.86 7
3.128 -0.60900003 -1.855 7
3.27 -0.62599999 -1.854 7
3.415 -0.64300001 -1.851 8
3.5650001 -0.66100001 -1.846 8
1.5140001 -0.315 -0.99000001 5
2.9760001 -0.60699999 -1.86 6
3.105 -0.62199998 -1.855 7
3.2390001 -0.63700002 -1.85 7
3.3900001 -0.65600002 -1.85 7
3.5409999 -0.67500001 -1.847 8
1.492 -0.31900001 -0.98299998 5
2.9519999 -0.61900002 -1.858 6
3.0880001 -0.63499999 -1.858 6
3.221 -0.65100002 -1.852 7
3.3710001 -0.671 -1.852 8
3.5139999 -0.68900001 -1.845 8
1.473 -0.324 -0.977 6
2.0079999 -0.43200001 -1.272 5
3.062 -0.64700001 -1.854 6
3.201 -0.66399997 -1.852 6
3.346 -0.68300003 -1.85 8
3.4990001 -0.704 -1.848 8
0 0 0 0
1.758 -0.38800001 -1.1210001 3
3.046 -0.66000003 -1.8559999 6
3.1930001 -0.68000001 -1.859 7
3.325 -0.69700003 -1.85 7
3.48 -0.71799999 -1.849 8
0 0 0 0
1.594 -0.361 -1.023 2
3.029 -0.67299998 -1.857 6
3.1700001 -0.69199997 -1.8559999 7
3.306 -0.70999998 -1.849 7
3.4590001 -0.73199999 -1.848 7
0 0 0 0
1.5470001 -0.359 -0.99800003 2
3.016 -0.68699998 -1.859 6
3.154 -0.70599997 -1.857 7
3.2950001 -0.72500002 -1.853 7
3.448 -0.74699998 -1.852 7
0 0 0 0
1.533 -0.36399999 -0.99400002 3
2.9990001 -0.699 -1.858 6
3.135 -0.71799999 -1.855 6
3.276 -0.73799998 -1.852 7
3.4319999 -0.76200002 -1.852 7
0 0 0 0
1.511 -0.36700001 -0.98500001 4
2.9860001 -0.71200001 -1.859 6
3.122 -0.73100001 -1.8559999 6
3.263 -0.75199997 -1.853 7
3.418 -0.77600002 -1.853 7
0 0 0 0
1.494 -0.37099999 -0.97899997 4
2.974 -0.72500002 -1.86 6
3.1040001 -0.74400002 -1.854 6
3.2509999 -0.76700002 -1.854 6
3.4000001 -0.79000002 -1.851 8
0 0 0 0
1.483 -0.37599999 -0.97600001 5
2.9660001 -0.73900002 -1.863 6
3.0929999 -0.75700003 -1.855 6
3.24 -0.77999997 -1.855 7
3.3900001 -0.80500001 -1.853 8
0 0 0 0
0 0 0 0
2.951 -0.75099999 -1.8609999 6
3.0899999 -0.773 -1.86 6
3.2219999 -0.79299998 -1.852 7
3.378 -0.81900001 -1.853 8
0 0 0 0
0 0 0 0
2.9349999 -0.76200002 -1.858 5
3.076 -0.78500003 -1.858 6
3.221 -0.80900002 -1.857 7
3.372 -0.83399999 -1.855 7
0 0 0 0
0 0 0 0
1.5779999 -0.41800001 -1.002 0
3.063 -0.79699999 -1.8559999 6
3.2090001 -0.82200003 -1.855 7
3.359 -0.84799999 -1.853 7
0 0 0 0
0 0 0 0
2.9170001 -0.787 -1.857 6
3.059 -0.81099999 -1.858 6
3.204 -0.83700001 -1.857 7
3.3499999 -0.86199999 -1.853 7
0 0 0 0
0 0 0 0
0 0 0 0
3.0550001 -0.82599998 -1.8609999 6
3.1949999 -0.85000002 -1.8559999 7
3.3499999 -0.87800002 -1.8559999 7
0 0 0 0
0 0 0 0
2.888 -0.80800003 -1.847 5
3.0510001 -0.83899999 -1.8609999 6
3.1960001 -0.866 -1.86 7
3.342 -0.89200002 -1.855 7
0 0 0 0
0 0 0 0
0 0 0 0
3.043 -0.852 -1.86 6
3.1830001 -0.87699997 -1.855 7
3.336 -0.90600002 -1.854 7
0 0 0 0
0 0 0 0
2.8629999 -0.829 -1.837 4
3.05 -0.86799997 -1.8660001 6
3.187 -0.89300001 -1.859 7
3.3399999 -0.92299998 -1.858 7
0 0 0 0
0 0 0 0
2.8659999 -0.84399998 -1.841 4
3.039 -0.87900001 -1.8609999 5
3.188 -0.90799999 -1.8609999 7
3.342 -0.93800002 -1.86 13
0 0 0 0
0 0 0 0
0 0 0 0
3.0339999 -0.89200002 -1.859 6
3.181 -0.921 -1.858 7
3.3540001 -0.95700002 -1.867 55
0 0 0 0
0 0 0 0
0 0 0 0
3.04 -0.90799999 -1.863 6
3.1830001 -0.93599999 -1.859 7
3.349 -0.97000003 -1.864 53
0 0 0 0
0 0 0 0
2.8670001 -0.88300002 -1.844 5
3.0420001 -0.92199999 -1.864 6
3.197 -0.954 -1.8660001 31
3.355 -0.98699999 -1.8660001 63
0 0 0 0
0 0 0 0
2.881 -0.89999998 -1.852 5
3.039 -0.93400002 -1.8609999 6
3.194 -0.96700001 -1.863 65
3.3559999 -1.001 -1.865 58
0 0 0 0
0 0 0 0
1.459 -0.46200001 -0.93699998 0
3.049 -0.94999999 -1.865 7
3.197 -0.98100001 -1.862 52
3.352 -1.0140001 -1.86 35
0 0 0 0
0 0 0 0
2.904 -0.93199998 -1.863 5
3.062 -0.96600002 -1.8710001 37
3.2049999 -0.99599999 -1.864 67
3.368 -1.0319999 -1.8660001 55
0 0 0 0
0 0 0 0
2.9130001 -0.94700003 -1.8660001 5
3.066 -0.98000002 -1.869 61
3.2119999 -1.011 -1.865 72
3.375 -1.048 -1.8660001 44
0 0 0 0
0 0 0 0
2.9260001 -0.96200001 -1.87 7
3.0680001 -0.99199998 -1.867 50
3.2160001 -1.024 -1.863 52
3.3840001 -1.063 -1.865 42
0 0 0 0
0 0 0 0
2.9330001 -0.97600001 -1.87 33
3.0829999 -1.0089999 -1.8710001 64
3.2260001 -1.039 -1.863 66
3.3889999 -1.077 -1.863 42
0 0 0 0
0 0 0 0
2.9400001 -0.98900002 -1.87 39
3.085 -1.021 -1.8660001 54
3.2360001 -1.0549999 -1.863 56
3.404 -1.094 -1.865 38
0 0 0 0
0 0 0 0
2.951 -1.003 -1.8710001 51
3.096 -1.035 -1.867 61
3.2550001 -1.072 -1.867 65
3.421 -1.1109999 -1.867 48
0 0 0 0
0 0 0 0
2.9649999 -1.018 -1.873 39
3.1040001 -1.048 -1.865 58
3.2639999 -1.086 -1.865 57
3.4330001 -1.127 -1.8660001 54
0 0 0 0
0 0 0 0
2.9760001 -1.031 -1.872 50
3.122 -1.064 -1.868 49
3.277 -1.101 -1.864 63
3.4489999 -1.143 -1.8660001 48
0 0 0 0
0 0 0 0
2.993 -1.046 -1.875 46
3.1359999 -1.079 -1.868 62
3.2939999 -1.117 -1.8660001 57
3.467 -1.159 -1.8660001 45
0 0 0 0
0 0 0 0
2.997 -1.057 -1.868 61
3.1500001 -1.0930001 -1.867 52
3.3110001 -1.132 -1.865 61
3.4860001 -1.176 -1.867 43
0 0 0 0
0 0 0 0
3.0120001 -1.0700001 -1.868 68
3.1659999 -1.107 -1.8660001 74
3.332 -1.149 -1.867 65
3.5020001 -1.191 -1.865 41
0 0 0 0
1.467 -0.53399998 -0.95200002 0
3.0250001 -1.0829999 -1.8660001 61
3.1800001 -1.1210001 -1.864 66
3.358 -1.1670001 -1.8710001 62
3.5190001 -1.207 -1.862 50
0 0 0 0
2.8970001 -1.063 -1.87 48
3.043 -1.097 -1.8660001 51
3.2079999 -1.1390001 -1.869 61
3.368 -1.179 -1.864 53
3.5480001 -1.226 -1.865 47
0 0 0 0
2.9130001 -1.076 -1.869 36
3.0710001 -1.115 -1.8710001 56
3.227 -1.154 -1.868 58
3.3940001 -1.196 -1.8660001 57
3.5810001 -1.2460001 -1.869 53
1.441 -0.54500002 -0.96700001 0
2.9349999 -1.09 -1.87 36
3.0869999 -1.127 -1.868 55
3.2479999 -1.168 -1.867 79
3.421 -1.214 -1.867 53
3.6059999 -1.263 -1.869 65
0 0 0 0
2.9489999 -1.102 -1.867 33
3.1040001 -1.141 -1.865 60
3.276 -1.1849999 -1.869 63
3.4449999 -1.229 -1.8660001 57
3.6289999 -1.279 -1.8660001 58
2.6849999 -1.026 -1.777 10
2.9760001 -1.118 -1.87 58
3.131 -1.156 -1.867 63
3.299 -1.2 -1.868 72
3.4760001 -1.248 -1.868 66
3.6630001 -1.298 -1.868 64
0 0 0 0
2.9990001 -1.132 -1.87 51
3.1559999 -1.1720001 -1.868 71
3.329 -1.217 -1.869 68
3.5020001 -1.263 -1.8660001 66
3.6670001 -1.306 -1.854 13
2.8659999 -1.105 -1.868 34
3.0190001 -1.1440001 -1.867 56
3.1819999 -1.186 -1.867 57
3.355 -1.232 -1.868 72
3.536 -1.2819999 -1.868 64
3.707 -1.327 -1.857 7
2.898 -1.1210001 -1.873 31
3.0510001 -1.16 -1.8710001 55
3.2079999 -1.201 -1.8660001 69
3.3859999 -1.249 -1.869 61
3.5680001 -1.299 -1.868 71
3.737 -1.344 -1.855 8
2.9189999 -1.133 -1.87 35
3.075 -1.173 -1.868 70
3.24 -1.217 -1.868 78
3.4200001 -1.267 -1.8710001 68
3.5840001 -1.3099999 -1.859 37
3.7739999 -1.363 -1.8559999 8
2.9489999 -1.148 -1.872 35
3.1010001 -1.187 -1.867 63
3.266 -1.2309999 -1.865 71
3.4549999 -1.283 -1.8710001 70
3.6140001 -1.325 -1.8559999 8
3.8199999 -1.3839999 -1.859 8
2.97 -1.159 -1.868 39
3.1340001 -1.2029999 -1.869 62
3.3039999 -1.249 -1.869 79
3.483 -1.298 -1.868 75
3.655 -1.345 -1.858 7
3.8540001 -1.401 -1.8559999 8
3.0050001 -1.175 -1.8710001 40
3.165 -1.217 -1.869 70
3.336 -1.2640001 -1.868 68
3.5150001 -1.313 -1.865 61
3.697 -1.364 -1.859 8
3.892 -1.419 -1.853 8
3.03 -1.187 -1.867 46
3.1960001 -1.2309999 -1.867 73
3.3800001 -1.283 -1.872 81
3.5480001 -1.329 -1.863 9
3.7360001 -1.381 -1.858 7
3.9419999 -1.441 -1.8559999 8
3.062 -1.201 -1.867 41
3.2309999 -1.2460001 -1.867 76
3.414 -1.298 -1.87 78
3.5869999 -1.345 -1.862 8
3.78 -1.401 -1.858 8
3.99 -1.462 -1.8559999 8
3.0999999 -1.217 -1.87 46
3.266 -1.262 -1.867 84
3.451 -1.314 -1.87 86
3.622 -1.3609999 -1.858 7
3.8269999 -1.42 -1.859 7
4.0430002 -1.484 -1.858 9
3.1270001 -1.228 -1.865 46
3.3069999 -1.278 -1.869 66
3.4679999 -1.321 -1.8559999 18
3.671 -1.381 -1.8609999 8
3.869 -1.438 -1.857 7
4.092 -1.5039999 -1.857 8
3.1700001 -1.245 -1.868 47
3.348 -1.294 -1.87 63
3.536 -1.348 -1.87 7
3.7160001 -1.398 -1.8609999 7
3.9289999 -1.461 -1.8609999 7
4.1479998 -1.526 -1.858 9
3.2060001 -1.258 -1.867 50
3.3859999 -1.309 -1.868 78
3.573 -1.362 -1.867 7
3.77 -1.419 -1.864 7
3.98 -1.4809999 -1.8609999 7
4.197 -1.545 -1.854 8
3.244 -1.273 -1.8660001 50
3.424 -1.323 -1.865 50
3.6199999 -1.38 -1.867 7
3.8169999 -1.437 -1.863 8
4.0310001 -1.5 -1.86 8
4.263 -1.5700001 -1.858 8
3.289 -1.289 -1.868 46
3.4749999 -1.342 -1.869 8
3.6630001 -1.396 -1.865 7
3.8640001 -1.454 -1.8609999 8
4.0840001 -1.5190001 -1.858 9
4.316 -1.589 -1.854 9
3.3329999 -1.3049999 -1.869 50
3.5239999 -1.359 -1.8710001 8
3.71 -1.4119999 -1.863 7
3.924 -1.475 -1.863 8
4.145 -1.541 -1.86 9
4.3740001 -1.61 -1.852 9
3.3729999 -1.318 -1.8660001 49
3.569 -1.375 -1.869 7
3.76 -1.429 -1.862 7
3.9779999 -1.494 -1.863 9
4.2030001 -1.561 -1.858 9
4.4219999 -1.626 -1.844 8
3.421 -1.334 -1.867 10
3.622 -1.392 -1.87 7
3.8150001 -1.448 -1.863 8
4.0320001 -1.512 -1.8609999 8
4.2589998 -1.58 -1.855 8
4.5139999 -1.658 -1.854 8
3.487 -1.3559999 -1.876 7
3.665 -1.406 -1.8660001 8
3.8710001 -1.466 -1.863 7
4.099 -1.535 -1.863 8
4.3309999 -1.604 -1.858 9
4.5809999 -1.6799999 -1.851 9
3.5309999 -1.37 -1.873 7
3.717 -1.4220001 -1.865 8
3.934 -1.487 -1.8660001 8
4.152 -1.551 -1.859 8
4.395 -1.625 -1.855 8
4.658 -1.706 -1.852 9
3.5780001 -1.3839999 -1.87 7
3.7679999 -1.438 -1.862 8
3.994 -1.506 -1.865 9
4.2259998 -1.575 -1.862 8
4.4590001 -1.645 -1.852 8
4.7309999 -1.728 -1.849 8
3.6340001 -1.401 -1.8710001 7
3.825 -1.455 -1.862 8
4.0580001 -1.525 -1.865 8
4.2839999 -1.592 -1.857 8
4.5149999 -1.661 -1.844 8
4.8429999 -1.765 -1.8609999 15
3.687 -1.416 -1.869 8
3.892 -1.475 -1.865 8
4.119 -1.543 -1.863 8
4.3590002 -1.615 -1.859 9
4.618 -1.694 -1.855 9
4.9120002 -1.785 -1.854 24
3.7390001 -1.4299999 -1.8660001 7
3.9590001 -1.495 -1.867 9
4.191 -1.564 -1.865 8
4.4239998 -1.633 -1.855 7
4.6999998 -1.7180001 -1.855 9
4.9920001 -1.809 -1.851 30
3.7969999 -1.446 -1.865 8
4.02 -1.512 -1.865 9
4.2579999 -1.5829999 -1.863 8
4.5079999 -1.658 -1.858 8
4.7779999 -1.74 -1.852 9
5.0830002 -1.835 -1.85 24
3.8559999 -1.462 -1.863 8
4.0869999 -1.53 -1.864 8
4.329 -1.602 -1.862 9
4.5830002 -1.679 -1.8559999 9
4.8860002 -1.773 -1.86 21
5.1750002 -1.8609999 -1.848 34
3.9230001 -1.48 -1.865 9
4.1550002 -1.548 -1.863 8
4.3889999 -1.617 -1.855 8
4.6719999 -1.704 -1.858 8
4.9590001 -1.7920001 -1.853 40
5.2670002 -1.886 -1.845 32
3.984 -1.495 -1.862 9
4.2249999 -1.567 -1.863 9
4.473 -1.64 -1.857 8
4.75 -1.724 -1.855 9
5.052 -1.817 -1.852 37
5.3769999 -1.9170001 -1.846 30
4.066 -1.517 -1.867 9
4.2969999 -1.584 -1.8609999 9
4.559 -1.663 -1.859 8
4.8429999 -1.749 -1.855 12
5.1459999 -1.841 -1.849 55
5.4920001 -1.948 -1.847 31
4.1350002 -1.534 -1.8660001 9
4.3709998 -1.603 -1.859 9
4.6500001 -1.687 -1.8609999 8
4.9419999 -1.775 -1.857 30
5.2459998 -1.867 -1.848 47
5.6079998 -1.979 -1.847 30
4.198 -1.5470001 -1.86 9
4.447 -1.62 -1.8559999 9
4.737 -1.7079999 -1.86 9
5.026 -1.795 -1.852 57
5.3470001 -1.892 -1.845 50
5.7199998 -2.0079999 -1.844 32
4.277 -1.566 -1.862 9
4.5370002 -1.643 -1.859 8
4.816 -1.726 -1.855 8
5.119 -1.817 -1.849 43
5.4569998 -1.92 -1.844 45
5.8449998 -2.04 -1.844 31
4.3499999 -1.582 -1.859 9
4.6269999 -1.664 -1.86 9
4.9400001 -1.758 -1.865 17
5.2210002 -1.841 -1.848 67
5.579 -1.95 -1.846 43
5.9400001 -2.0610001 -1.8329999 23
4.4450002 -1.605 -1.864 9
4.7129998 -1.683 -1.858 8
5.0110002 -1.772 -1.854 47
5.3309999 -1.867 -1.848 61
5.7090001 -1.982 -1.848 64
6.1220002 -2.109 -1.846 10
4.513 -1.617 -1.8559999 9
4.8039999 -1.7029999 -1.857 9
5.1069999 -1.7920001 -1.851 72
5.4369998 -1.891 -1.844 76
5.8280001 -2.01 -1.845 63
6.257 -2.141 -1.8430001 9
4.6110001 -1.6390001 -1.859 9
4.8990002 -1.723 -1.855 9
5.2080002 -1.814 -1.849 55
5.5640001 -1.921 -1.847 57
5.9510002 -2.0369999 -1.842 45
6.3940001 -2.1719999 -1.839 9
4.6939998 -1.655 -1.8559999 9
5.013 -1.749 -1.86 18
5.3140001 -1.836 -1.846 62
5.6820002 -1.946 -1.844 62
6.0539999 -2.056 -1.83 22
6.5500002 -2.2079999 -1.8380001 9
4.7909999 -1.675 -1.8559999 9
5.098 -1.7640001 -1.852 48
5.4190001 -1.857 -1.842 73
5.8150001 -1.975 -1.845 62
6.2470002 -2.105 -1.844 9
6.724 -2.2490001 -1.84 9
4.8870001 -1.693 -1.855 8
5.1939998 -1.781 -1.848 54
5.5450001 -1.8839999 -1.845 81
5.9349999 -1.999 -1.841 53
6.3990002 -2.138 -1.844 9
6.8940001 -2.2869999 -1.839 10
4.994 -1.715 -1.8559999 8
5.3070002 -1.804 -1.848 47
5.6729999 -1.911 -1.845 61
6.0669999 -2.026 -1.8380001 47
6.5770001 -2.1789999 -1.849 8
7.0879998 -2.3310001 -1.842 9
5.1199999 -1.7410001 -1.863 14
5.4190001 -1.825 -1.845 75
5.8080001 -1.938 -1.846 65
6.1859999 -2.046 -1.829 20
6.7309999 -2.21 -1.845 8
7.2670002 -2.369 -1.8380001 9
5.2090001 -1.7539999 -1.855 22
5.533 -1.845 -1.8430001 62
5.9320002 -1.96 -1.842 68
6.3920002 -2.095 -1.845 9
6.9229999 -2.2509999 -1.849 9
7.4489999 -2.405 -1.8329999 9
5.309 -1.77 -1.85 23
5.6630001 -1.869 -1.8430001 67
6.073 -1.987 -1.842 73
6.573 -2.1329999 -1.85 8
7.072 -2.277 -1.84 9
7.6529999 -2.447 -1.831 10
5.4180002 -1.7869999 -1.846 24
5.7950001 -1.893 -1.844 81
6.204 -2.0090001 -1.836 72
6.7309999 -2.1619999 -1.847 9
7.257 -2.313 -1.8380001 9
7.868 -2.4909999 -1.83 10
5.54 -1.807 -1.846 24
5.9320002 -1.9170001 -1.844 62
6.3260002 -2.026 -1.827 28
6.902 -2.1930001 -1.846 9
7.441 -2.3469999 -1.834 10
8.0979996 -2.5369999 -1.83 10
5.6630001 -1.826 -1.844 25
6.0630002 -1.938 -1.84 84
6.5380001 -2.0710001 -1.842 9
7.0679998 -2.2219999 -1.841 9
7.645 -2.385 -1.832 10
8.335 -2.5829999 -1.8279999 11
5.7950001 -1.847 -1.844 25
6.197 -1.957 -1.836 75
6.697 -2.0969999 -1.839 10
7.243 -2.25 -1.837 9
7.8540001 -2.4230001 -1.829 10
8.6020002 -2.635 -1.829 10
5.9349999 -1.869 -1.845 24
6.3499999 -1.982 -1.835 81
6.8889999 -2.132 -1.844 9
7.4250002 -2.28 -1.832 9
8.085 -2.464 -1.8279999 10
8.8719997 -2.6860001 -1.827 10
6.0640001 -1.886 -1.84 25
6.4860001 -1.999 -1.827 35
7.052 -2.155 -1.8380001 10
7.6259999 -2.313 -1.829 10
8.3369999 -2.51 -1.829 10
9.1520004 -2.7379999 -1.825 10
6.2090001 -1.906 -1.839 28
6.6599998 -2.027 -1.83 12
7.2329998 -2.1830001 -1.836 9
7.8400002 -2.348 -1.8279999 10
8.5839996 -2.553 -1.8279999 10
9.4560003 -2.7939999 -1.825 11
6.3559999 -1.926 -1.837 29
6.882 -2.0669999 -1.8430001 9
7.4159999 -2.2090001 -1.831 9
8.0710001 -2.3859999 -1.8279999 9
8.8479996 -2.5969999 -1.826 11
9.79 -2.855 -1.827 10
6.5219998 -1.95 -1.839 28
7.0209999 -2.0799999 -1.832 11
7.6209998 -2.24 -1.83 10
8.3260002 -2.4289999 -1.83 10
9.1370001 -2.6459999 -1.826 10
10.138 -2.9170001 -1.827 10
6.6760001 -1.967 -1.835 29
7.2259998 -2.1110001 -1.835 10
7.829 -2.2690001 -1.8279999 10
8.5629997 -2.4630001 -1.826 11
9.4350004 -2.6949999 -1.825 10
10.5 -2.98 -1.826 9
6.8070002 -1.977 -1.824 23
7.401 -2.131 -1.83 10
8.0500002 -2.3 -1.826 10
8.8310003 -2.5039999 -1.826 11
9.7360001 -2.7409999 -1.822 11
10.882 -3.0439999 -1.825 9
7.0279999 -2.0109999 -1.834 11
7.5910001 -2.1530001 -1.825 10
8.3100004 -2.339 -1.83 10
9.1230001 -2.5480001 -1.8279999 11
10.106 -2.803 -1.827 10
11.304 -3.115 -1.825 9
7.237 -2.039 -1.84 10
7.8060002 -2.1800001 -1.825 9
8.5500002 -2.369 -1.827 11
9.4099998 -2.5880001 -1.825 11
10.454 -2.855 -1.824 11
11.735 -3.1849999 -1.823 9
7.408 -2.0539999 -1.8329999 9
8.0410004 -2.211 -1.827 10
8.7989998 -2.3989999 -1.824 11
9.7259998 -2.6329999 -1.825 11
10.848 -2.9159999 -1.826 10
12.206 -3.26 -1.821 9
7.5970001 -2.072 -1.829 10
8.2749996 -2.237 -1.826 11
9.0900002 -2.438 -1.826 11
10.062 -2.6789999 -1.825 11
11.237 -2.971 -1.822 10
12.695 -3.335 -1.818 9
7.8080001 -2.0929999 -1.8279999 10
8.526 -2.266 -1.826 11
9.3859997 -2.4749999 -1.826 11
10.416 -2.7260001 -1.825 11
11.686 -3.0380001 -1.824 9
13.238 -3.4200001 -1.818 9
8.033 -2.1159999 -1.829 11
8.776 -2.2920001 -1.824 11
9.6780005 -2.5079999 -1.823 11
10.789 -2.7750001 -1.825 11
12.133 -3.0999999 -1.823 9
13.793 -3.5020001 -1.814 10
8.2580004 -2.1370001 -1.8279999 11
9.0389996 -2.319 -1.823 12
10.014 -2.549 -1.825 11
11.153 -2.8180001 -1.8200001 10
12.596 -3.161 -1.819 10
14.417 -3.5940001 -1.813 8
8.5109997 -2.161 -1.83 11
9.3260002 -2.348 -1.823 12
10.357 -2.5869999 -1.825 11
11.584 -2.872 -1.822 10
13.13 -3.233 -1.818 9
15.113 -3.697 -1.813 8
8.7539997 -2.1800001 -1.827 11
9.6169996 -2.375 -1.821 12
10.719 -2.6259999 -1.825 11
12.034 -2.9260001 -1.821 10
13.679 -3.3039999 -1.816 10
15.854 -3.803 -1.812 9
9.0179996 -2.201 -1.826 12
9.9379997 -2.405 -1.821 12
11.078 -2.6600001 -1.821 11
12.486 -2.9760001 -1.818 10
14.27 -3.3770001 -1.813 10
16.643 -3.9130001 -1.809 10
9.2950001 -2.2219999 -1.826 11
10.267 -2.4330001 -1.821 12
11.481 -2.7 -1.8200001 11
12.989 -3.0320001 -1.817 10
14.892 -3.4519999 -1.8099999 8
17.497 -4.0289998 -1.807 11
9.5790005 -2.2420001 -1.825 12
10.613 -2.4630001 -1.821 12
11.904 -2.74 -1.819 11
13.497 -3.0840001 -1.813 10
15.572 -3.533 -1.807 9
18.455 -4.1589999 -1.806 13
9.8839998 -2.2620001 -1.825 12
10.979 -2.4920001 -1.8200001 11
12.359 -2.7820001 -1.819 10
14.064 -3.142 -1.811 10
16.379999 -3.6329999 -1.8099999 10
19.504 -4.2969999 -1.803 14
10.207 -2.283 -1.825 11
11.348 -2.517 -1.817 11
12.816 -2.819 -1.8150001 10
14.685 -3.2060001 -1.8099999 10
17.18 -3.723 -1.806 11
20.77 -4.4699998 -1.8099999 14
10.539 -2.3010001 -1.824 12
11.761 -2.546 -1.817 10
13.318 -2.8599999 -1.813 11
15.307 -3.2620001 -1.8049999 9
18.098 -3.829 -1.807 12
22.157 -4.6570001 -1.817 11
10.87 -2.316 -1.821 11
12.166 -2.5699999 -1.813 10
13.871 -2.9059999 -1.814 11
16.045 -3.336 -1.808 9
19.048 -3.9319999 -1.804 14
23.608 -4.8400002 -1.817 9
11.231 -2.3340001 -1.8200001 10
12.608 -2.5969999 -1.812 11
14.404 -2.9430001 -1.808 10
16.802 -3.4059999 -1.807 10
20.125 -4.0500002 -1.8049999 15
25.281 -5.052 -1.821 7
11.611 -2.3510001 -1.8200001 11
13.064 -2.622 -1.809 11
14.99 -2.983 -1.8049999 10
17.594999 -3.474 -1.803 12
21.427999 -4.198 -1.8150001 17
27.193001 -5.289 -1.824 8
11.999 -2.3629999 -1.817 11
13.569 -2.6489999 -1.809 11
15.654 -3.03 -1.8049999 9
18.500999 -3.552 -1.803 13
22.681 -4.322 -1.8099999 13
27.761 -5.2509999 -1.728 8
12.418 -2.3770001 -1.816 11
14.069 -2.6689999 -1.803 12
16.337999 -3.072 -1.802 10
19.496 -3.6370001 -1.8049999 14
24.174999 -4.4749999 -1.812 8
27.601 -5.072 -1.5880001 9
12.851 -2.388 -1.813 11
14.614 -2.691 -1.8 11
17.1 -3.122 -1.803 11
20.620001 -3.733 -1.8099999 16
26.007999 -4.671 -1.827 9
27.408001 -4.8870001 -1.45 67
13.294 -2.3959999 -1.8099999 12
15.19 -2.7130001 -1.7970001 8
17.896 -3.168 -1.8 12
21.816999 -3.829 -1.812 17
27.301001 -4.7529998 -1.7920001 19
27.362 -4.7280002 -1.323 65
13.773 -2.405 -1.808 11
15.837 -2.7379999 -1.798 9
18.754999 -3.214 -1.799 13
22.987 -3.9059999 -1.804 12
27.281 -4.5970001 -1.6670001 47
27.052 -4.5229998 -1.187 69
14.29 -2.4130001 -1.807 11
16.52 -2.763 -1.798 10
19.742001 -3.2720001 -1.804 14
24.556 -4.0339999 -1.816 10
27.115 -4.4159999 -1.536 73
26.993 -4.3600001 -1.066 69
14.791 -2.4119999 -1.802 11
17.268 -2.789 -1.8 11
20.822001 -3.332 -1.809 16
26.389999 -4.184 -1.835 14
26.884001 -4.2259998 -1.4069999 65
27.731001 -4.323 -0.97600001 30
15.365 -2.4170001 -1.801 11
18.011999 -2.8039999 -1.7970001 12
21.921 -3.3800001 -1.807 17
26.858 -4.1030002 -1.752 21
26.796 -4.0570002 -1.288 58
33.141998 -4.9749999 -1.028 48
15.96 -2.4159999 -1.8 9
18.808001 -2.8180001 -1.794 13
23.146 -3.434 -1.808 13
26.895 -3.9519999 -1.64 43
26.632 -3.8770001 -1.169 68
34.803001 -5.0229998 -0.93699998 44
16.638 -2.4200001 -1.803 10
19.716 -2.8369999 -1.796 14
24.535 -3.4960001 -1.814 12
26.468 -3.734 -1.5039999 60
26.664 -3.7260001 -1.062 69
34.421001 -4.7670002 -0.79000002 49
17.305 -2.414 -1.802 11
20.704 -2.858 -1.8 16
26.031 -3.5550001 -1.818 12
26.327999 -3.5599999 -1.392 71
27.65 -3.701 -0.99299997 34
34.429001 -4.566 -0.65700001 65
17.993999 -2.402 -1.8 12
21.709 -2.8670001 -1.8 17
26.332001 -3.4400001 -1.735 34
26.169001 -3.382 -1.28 76
28.353001 -3.628 -0.91000003 5
34.676998 -4.3940001 -0.52999997 58
18.782 -2.3940001 -1.803 13
22.777 -2.8710001 -1.799 17
26.277 -3.2750001 -1.6289999 56
26.028999 -3.207 -1.174 74
35.416 -4.3189998 -1.003 26
35.470001 -4.2820001 -0.41100001 37
19.587 -2.3770001 -1.803 14
24.030001 -2.882 -1.8049999 15
26.087 -3.092 -1.5190001 72
26.129999 -3.062 -1.082 73
35.408001 -4.1040001 -0.87300003 47
35.362999 -4.053 -0.28099999 38
20.475 -2.358 -1.806 15
25.313999 -2.8789999 -1.8049999 15
25.855 -2.905 -1.409 80
26.864 -2.984 -1.015 44
34.970001 -3.8399999 -0.73699999 70
35.417 -3.8469999 -0.15899999 20
21.423 -2.336 -1.811 17
25.857 -2.783 -1.75 22
25.715 -2.7309999 -1.3099999 69
28.278 -2.967 -0.96899998 31
34.964001 -3.6240001 -0.616 62
88.339996 -9.0489998 -0.093000002 5
22.389999 -2.3 -1.811 18
25.818001 -2.6170001 -1.656 65
25.621 -2.563 -1.216 73
29.215 -2.8840001 -0.90100002 5
35.036999 -3.4159999 -0.5 63
98.875999 -9.5209999 0.221 7
23.438 -2.26 -1.814 20
25.737 -2.447 -1.562 66
25.528 -2.3940001 -1.126 74
35.210999 -3.2579999 -0.97000003 44
35.277 -3.2190001 -0.389 57
93.928001 -8.4619999 0.509 11
24.589001 -2.2190001 -1.821 22
25.445 -2.2609999 -1.462 71
25.944 -2.2709999 -1.0599999 76
35.182999 -3.0369999 -0.85799998 62
35.502998 -3.02 -0.28 14
71.541 -6 0.60900003 3
25.277 -2.1199999 -1.789 16
25.320999 -2.0899999 -1.373 83
25.683001 -2.0880001 -0.97000003 4
35.573002 -2.845 -0.75700003 28
87.095001 -6.8590002 -0.42300001 13
70.362 -5.454 0.81199998 11
25.409 -1.9680001 -1.7180001 38
25.232 -1.921 -1.29 75
28.683001 -2.1459999 -0.99400002 40
40.32 -2.9679999 -0.73699999 2
76.994003 -5.5700002 -0.145 66
133.006 -9.4639997 1.921 13
25.355 -1.799 -1.637 70
25.219999 -1.757 -1.214 70
29.027 -1.9859999 -0.921 19
47.557999 -3.1960001 -0.73199999 18
77.015999 -5.0819998 0.071999997 45
128.896 -8.3579998 2.2179999 17
25.132 -1.622 -1.549 68
25.054001 -1.585 -1.1339999 83
0 0 0 0
0 0 0 0
79.237999 -4.7189999 0.28999999 43
129.32401 -7.5479999 2.576 9
24.983 -1.45 -1.47 67
25.054001 -1.4220001 -1.064 76
42.403 -2.3529999 -1.1109999 12
75.113998 -4.0770001 -0.745 3
79.278 -4.2069998 0.49900001 42
128.408 -6.664 2.891 55
24.947001 -1.283 -1.399 74
25.517 -1.28 -1.016 24
43.006001 -2.1040001 -1.013 11
76.587997 -3.654 -0.56199998 51
79.624001 -3.704 0.704 4
128.868 -5.849 3.2219999 46
24.813 -1.1109999 -1.327 77
0 0 0 0
29.27 -1.238 -0.616 59
76.646004 -3.154 -0.375 53
87.634003 -3.5020001 0.98699999 17
72.151001 -2.802 1.976 3
24.726 -0.94400001 -1.261 68
28.483999 -1.053 -0.99199998 70
28.989 -1.035 -0.54100001 57
29.364 -1.015 -0.074000001 31
0 0 0 0
128.85699 -4.152 3.8239999 36
24.649 -0.77600002 -1.199 67
28.709999 -0.86799997 -0.93199998 72
28.763 -0.83499998 -0.47099999 54
29.113001 -0.81199998 -0.0080000004 44
141.31599 -3.776 2.2309999 11
129.119 -3.3010001 4.1129999 29
24.657 -0.611 -1.143 59
28.655001 -0.676 -0.86799997 61
28.589001 -0.63999999 -0.40599999 62
28.934 -0.61400002 0.052999999 62
139.94701 -2.803 2.5039999 11
0 0 0 0
24.749001 -0.44600001 -1.094 64
28.357 -0.477 -0.79900002 70
28.400999 -0.44499999 -0.345 76
28.808001 -0.419 0.111 70
134.716 -1.804 2.677 44
134.48801 -1.652 4.823 18
24.483999 -0.27700001 -1.034 30
28.214001 -0.287 -0.74000001 75
28.291 -0.25600001 -0.289 80
28.725 -0.22400001 0.16500001 71
133.537 -0.89700001 2.902 41
135.14 -0.75400001 5.0960002 24
0 0 0 0
28.115999 -0.093999997 -0.68400002 85
28.253 -0.063000001 -0.237 76
28.725 -0.032000002 0.21699999 64
133.62 -0.003 3.1389999 35
0 0 0 0
25.046 0.057 -0.96499997 1
28.077999 0.094999999 -0.634 77
28.219999 0.127 -0.18799999 71
28.794001 0.161 0.26499999 54
132.713 0.89499998 3.3380001 35
136.18401 1.066 5.592 13
27.441999 0.248 -1.012 59
28.082001 0.285 -0.58899999 60
28.193001 0.31799999 -0.14300001 81
28.870001 0.35800001 0.31200001 54
131.66901 1.777 3.5150001 45
134.746 1.976 5.7389998 18
27.570999 0.44 -0.97299999 70
28.048 0.479 -0.54500002 61
28.219 0.51200002 -0.101 78
29.01 0.55800003 0.35600001 36
132.72701 2.704 3.7349999 18
133.812 2.8699999 5.888 60
27.823999 0.63300002 -0.94300002 50
27.993999 0.66799998 -0.505 65
28.268999 0.70499998 -0.061999999 84
29.132 0.759 0.39700001 24
80.957001 2.2 2.385 22
123.98 3.507 5.6170001 29
27.997 0.83099997 -0.912 76
28.139 0.866 -0.47099999 59
28.348 0.903 -0.026000001 74
29.200001 0.96200001 0.43399999 2
80.758003 2.75 2.4779999 11
85.181 2.9979999 3.9619999 5
28.049 1.029 -0.87900001 77
28.113001 1.061 -0.43700001 79
28.511 1.107 0.0060000001 79
49.243 1.9630001 0.78799999 1
80.797997 3.309 2.569 3
86.848 3.652 4.1339998 10
28.207001 1.234 -0.85299999 59
28.257999 1.265 -0.40900001 69
28.709999 1.3150001 0.035999998 80
48.811001 2.2880001 0.83099997 17
90.480003 4.335 2.9679999 150
80.626999 3.951 3.9170001 11
28.323999 1.437 -0.829 61
28.384001 1.471 -0.384 85
29.018 1.533 0.063000001 57
48.681 2.6229999 0.87300003 30
114.41 6.2820001 3.855 53
114.108 6.3889999 5.6440001 25
28.587999 1.652 -0.81300002 60
28.648001 1.683 -0.36399999 63
29.542999 1.765 0.088 1
38.355999 2.3340001 0.71799999 18
114.89 7.1079998 3.961 7
95.244003 5.9949999 4.7839999 6
28.881001 1.872 -0.80000001 57
29.122999 1.916 -0.34900001 57
36.999001 2.4719999 0.13600001 43
37.557999 2.546 0.72899997 50
114.112 7.8569999 4.0100002 13
81.351997 5.6849999 4.138 12
30.254999 2.1730001 -0.81900001 10
37.012001 2.6960001 -0.42199999 50
36.581001 2.6989999 0.156 52
36.924 2.7620001 0.73799998 47
38.428001 2.9130001 1.3710001 38
117.406 9.0249996 6.0370002 35
30.181 2.3829999 -0.80199999 7
36.415001 2.9100001 -0.39700001 48
36.257 2.9319999 0.17200001 54
36.605999 2.997 0.74800003 48
37.486 3.1059999 1.355 50
118.139 9.915 6.1259999 33
30.084 2.5880001 -0.78799999 5
36.083 3.1370001 -0.38 65
36.048 3.168 0.184 51
36.289001 3.2249999 0.75400001 59
37.039001 3.3299999 1.351 50
0 0 0 0
27.558001 2.5669999 -0.71399999 42
27.516001 2.5880001 -0.28299999 54
27.811001 2.642 0.148 0
36.064999 3.46 0.75800002 62
24.673 2.392 0.90499997 28
38.438 3.7650001 2.013 5
27.261999 2.733 -0.70300001 48
27.400999 2.7720001 -0.278 42
27.615 2.8180001 0.15099999 43
24.572001 2.5309999 0.51899999 60
24.52 2.55 0.90200001 75
37.720001 3.9619999 1.98 16
27.028999 2.9030001 -0.69599998 48
24.452999 2.648 -0.248 0
24.479 2.6730001 0.134 56
24.410999 2.6889999 0.51599997 70
24.354 2.707 0.89600003 64
37.426998 4.197 1.964 29
26.951 3.089 -0.69700003 37
26.950001 3.112 -0.27599999 51
27.181 3.164 0.146 44
24.26 2.846 0.50999999 38
24.231001 2.8670001 0.889 86
37.104 4.4250002 1.943 40
26.719999 3.2550001 -0.69599998 48
26.796 3.286 -0.28 53
26.968 3.332 0.139 41
27.566 3.4319999 0.57300001 41
35.82 4.4920001 1.306 57
36.900002 4.664 1.924 44
26.666 3.4419999 -0.704 49
26.669001 3.4619999 -0.287 52
26.823999 3.5050001 0.12899999 41
27.34 3.5969999 0.55900002 53
35.648998 4.7220001 1.288 57
36.666 4.895 1.899 48
26.433001 3.602 -0.70899999 55
26.506001 3.632 -0.29699999 60
26.780001 3.6919999 0.117 43
27.218 3.7750001 0.54500002 44
35.533001 4.961 1.268 57
36.483002 5.1300001 1.873 48
26.499001 3.8 -0.72600001 51
26.415001 3.8080001 -0.31099999 57
26.683001 3.8699999 0.102 57
27.201 3.9679999 0.52899998 38
35.43 5.1989999 1.245 59
36.292 5.3610001 1.8430001 48
26.584999 4.006 -0.74699998 32
26.457001 4.0040002 -0.329 65
26.643 4.0539999 0.083999999 39
27.018999 4.1339998 0.50800002 46
27.596001 4.2480001 0.95099998 0
36.136002 5.5960002 1.811 46
26.296 4.152 -0.759 55
26.388 4.1849999 -0.34999999 48
26.544001 4.23 0.061999999 59
26.969 4.3200002 0.48500001 44
27.674 4.4559999 0.93199998 2
36.032001 5.835 1.778 46
26.288 4.342 -0.78299999 53
26.409 4.3769999 -0.37400001 50
26.468 4.408 0.039000001 58
26.892 4.4990001 0.461 52
27.792999 4.6729999 0.91100001 1
35.887001 6.066 1.74 46
26.306999 4.533 -0.81099999 57
26.424 4.5689998 -0.40099999 45
26.533001 4.6069999 0.012 44
26.858999 4.684 0.433 51
27.921 4.8930001 0.88800001 1
35.806999 6.3060002 1.7 45
26.421 4.743 -0.84399998 41
26.396 4.7550001 -0.43000001 40
26.563 4.8039999 -0.017000001 37
26.954 4.8940001 0.405 43
35.074001 6.3969998 1.077 60
35.743 6.5489998 1.659 46
26.399 4.9289999 -0.87699997 54
26.422001 4.9489999 -0.46399999 44
26.542999 4.9879999 -0.050000001 60
26.927999 5.0809999 0.37099999 45
35.077999 6.6479998 1.035 59
35.675999 6.7909999 1.613 49
26.326 5.1059999 -0.91100001 51
26.52 5.1589999 -0.50099999 38
26.558001 5.1820002 -0.085000001 48
26.974001 5.2820001 0.336 42
35.071999 6.8959999 0.98799998 65
35.721001 7.052 1.568 47
25.950001 5.2199998 -0.93699998 31
26.604 5.3660002 -0.54299998 60
26.57 5.3740001 -0.124 54
27.062 5.493 0.29800001 35
35.077 7.1469998 0.93800002 48
35.689999 7.3000002 1.516 41
0 0 0 0
26.542999 5.5440001 -0.583 61
26.780001 5.6090002 -0.167 41
27.232 5.7210002 0.25799999 44
35.115002 7.402 0.88499999 61
35.719002 7.5570002 1.4630001 43
0 0 0 0
26.743999 5.7789998 -0.63200003 43
26.837999 5.8140001 -0.212 40
27.490999 5.973 0.215 28
35.146999 7.6609998 0.82800001 41
35.667 7.8010001 1.403 49
23.127001 5.1539998 -0.954 40
26.898001 6.006 -0.685 37
27.058001 6.0570002 -0.26300001 38
27.438 6.1589999 0.16500001 1
35.284 7.9439998 0.76899999 39
35.749001 8.0760002 1.3430001 48
23.086 5.3130002 -0.99800003 63
27.343 6.302 -0.74900001 37
27.521999 6.3569999 -0.31999999 5
35.199001 8.1499996 0.146 46
35.328999 8.2049999 0.70499998 51
35.883999 8.3629999 1.2819999 45
23.049 5.473 -1.044 63
29.396999 6.9899998 -0.866 25
35.410999 8.4359999 -0.484 61
35.374001 8.4449997 0.075999998 47
35.467999 8.4899998 0.63700002 45
36.057999 8.6590004 1.2180001 46
23.125999 5.658 -1.098 57
29.412001 7.2059999 -0.93000001 24
35.800999 8.7869997 -0.56599998 48
35.532001 8.7370005 0.001 47
35.650002 8.7910004 0.565 47
36.289001 8.9729996 1.151 49
23.145 5.8309999 -1.152 60
25.577999 6.4510002 -0.86699998 18
36.111 9.1210003 -0.65100002 47
35.914001 9.0880003 -0.077 46
35.914001 9.1079998 0.49200001 40
36.792 9.3549995 1.087 48
23.132999 5.994 -1.207 49
24.708 6.4089999 -0.89600003 30
28.527 7.4099998 -0.58099997 1
36.252998 9.4329996 -0.162 46
36.412998 9.493 0.41499999 45
37.422001 9.7799997 1.021 14
23.136999 6.1620002 -1.266 49
23.922001 6.3759999 -0.92699999 26
28.056999 7.4860001 -0.63999999 38
28.329 7.5710001 -0.19499999 31
28.621 7.664 0.25799999 2
105.715 28.378 2.6329999 20
23.191999 6.3439999 -1.33 52
23.188 6.3470001 -0.95899999 62
27.756001 7.605 -0.70499998 39
27.721001 7.6040001 -0.26100001 43
28.142 7.7329998 0.183 42
149.327 41.118999 3.355 14
23.229 6.5209999 -1.395 46
23.131001 6.4959998 -1.0190001 55
27.621 7.7639999 -0.77499998 40
27.580999 7.7610002 -0.33199999 30
27.716 7.8109999 0.108 39
28.297001 7.9910002 0.56199998 21
23.155001 6.6659999 -1.4579999 61
23.177 6.6739998 -1.087 62
27.613001 7.9580002 -0.85100001 31
27.311001 7.8790002 -0.40400001 34
27.382999 7.9099998 0.033 42
27.856001 8.0620003 0.479 44
23.246 6.8600001 -1.533 53
23.101999 6.8179998 -1.151 52
26.711 7.888 -0.90100002 38
27.101 8.0109997 -0.47799999 44
27.18 8.0430002 -0.043000001 46
27.545 8.165 0.39700001 36
23.23 7.0219998 -1.603 28
23.187 7.0089998 -1.226 57
0 0 0 0
27.113001 8.2040005 -0.55800003 37
27.068001 8.1999998 -0.122 31
27.264999 8.2720003 0.31400001 45
23.079 7.1409998 -1.666 17
23.15 7.1609998 -1.296 54
23.389 7.2360001 -0.93099999 28
27.011 8.3599997 -0.63800001 29
27.006001 8.3669996 -0.20299999 33
27.084 8.401 0.23199999 46
22.539 7.1329999 -1.701 19
23.139 7.3200002 -1.37 53
23.250999 7.3540001 -0.99900001 49
27.153 8.5930004 -0.72600001 43
27.024 8.5579996 -0.285 37
26.966 8.5500002 0.149 49
21.504999 6.9580002 -1.696 12
23.323999 7.5419998 -1.4579999 55
23.136999 7.4809999 -1.0700001 47
26.819 8.6750002 -0.80500001 50
26.993 8.7370005 -0.373 29
26.860001 8.7030001 0.061999999 49
20.559999 6.8000002 -1.694 14
23.224001 7.6739998 -1.533 33
23.167999 7.6529999 -1.151 60
26.216 8.6610003 -0.875 43
26.902 8.8929996 -0.46000001 28
26.809999 8.8699999 -0.024 45
19.691999 6.651 -1.693 13
23.221001 7.836 -1.615 18
23.179001 7.8169999 -1.232 50
0 0 0 0
26.789 9.0360003 -0.54900002 43
26.809999 9.052 -0.114 39
18.834999 6.493 -1.689 14
22.797001 7.8499999 -1.668 17
23.264 8.007 -1.319 44
23.299 8.0170002 -0.93900001 37
26.809 9.2259998 -0.64200002 48
26.788 9.2229996 -0.204 49
18.077 6.3569999 -1.689 13
21.74 7.6360002 -1.671 11
23.351 8.1960001 -1.41 46
23.183001 8.1330004 -1.018 55
26.878 9.4300003 -0.74000001 43
26.892 9.4399996 -0.301 41
17.346001 6.2199998 -1.688 12
20.690001 7.4099998 -1.67 9
23.416 8.3780003 -1.501 44
23.261999 8.3190002 -1.108 47
