# .PCD v0.7 - Point Cloud Data file format
VERSION 0.7
FIELDS x y z intensity
SIZE 4 4 4 4
TYPE F F F F
COUNT 1 1 1 1
WIDTH 1869
HEIGHT 1
VIEWPOINT 0 0 0 1 0 0 0
POINTS 1869
DATA ascii
0 0 0 0
65.450996 -10.909 5.2280002 63
65.442001 -10.853 6.2069998 30
64.672997 -10.677 7.105 49
67.495003 -11.091 8.4329996 23
0 0 0 0
0 0 0 0
70.013 -11.201 5.3990002 22
66.671997 -10.613 6.1350002 9
65.754997 -10.414 7.0359998 43
66.959999 -10.558 8.1750002 40
0 0 0 0
0 0 0 0
70.292999 -10.784 5.2199998 21
66.267998 -10.112 5.9070001 50
65.827003 -9.9919996 6.8520002 38
66.573997 -10.054 7.9289999 41
70.669998 -10.625 9.4890003 3
0 0 0 0
69.411003 -10.187 4.9460001 29
67.069 -9.7889996 5.7750001 20
65.894997 -9.5649996 6.6570001 10
66.412003 -9.5900002 7.7059999 27
66.805 -9.6000004 8.7600002 33
0 0 0 0
70.694 -9.9139996 4.8179998 20
65.691002 -9.1560001 5.4499998 16
67.237999 -9.3210001 6.5809999 18
65.439003 -9.0220003 7.3860002 56
67.096001 -9.2060003 8.585 55
0 0 0 0
70.417999 -9.4219999 4.5780001 3
66.101997 -8.7910004 5.276 32
66.500999 -8.7910004 6.296 29
65.563004 -8.6149998 7.1859999 30
67.419998 -8.8109999 8.4029999 56
0 0 0 0
129.461 -16.488001 7.9899998 22
66.127998 -8.3690004 5.0580001 24
69.277 -8.7110004 6.3280001 15
66.309998 -8.29 7.0479999 33
66.649002 -8.2849998 8.0839996 17
70.330002 -8.6949997 9.592 5
129.153 -15.631 7.5349998 38
0 0 0 0
68.282997 -8.151 6.0029998 7
66.316002 -7.868 6.8189998 11
67.008003 -7.9050002 7.895 39
70.527 -8.2709999 9.3719997 15
72.630997 -8.3409996 3.9890001 4
72.632004 -8.2790003 5.059 11
68.184998 -7.717 5.7589998 31
69.241997 -7.7820001 6.8759999 9
67.474998 -7.5370002 7.711 51
70.873001 -7.8699999 9.165 40
72.045998 -7.8270001 3.701 21
130.364 -14.053 8.6140003 31
76.866997 -8.224 6.2160001 20
71.759003 -7.625 6.8699999 8
67.521004 -7.125 7.4720001 42
68.035004 -7.131 8.5500002 35
129.394 -13.263 6.177 44
130.218 -13.24 8.1269999 37
0 0 0 0
75.314003 -7.5380001 6.9299998 21
67.435997 -6.6999998 7.21 47
0 0 0 0
132.06 -12.737 5.8099999 33
132.09801 -12.63 7.7509999 55
77.310997 -7.329 5.6760001 6
71.977997 -6.77 6.3530002 9
0 0 0 0
70.085999 -6.4910002 8.276 19
131.604 -11.911 5.2880001 23
132.293 -11.863 7.256 18
132.44 -11.769 9.2159996 13
75.464996 -6.6500001 6.3699999 31
68.051003 -5.9460001 6.756 9
68.736 -5.9590001 7.8509998 44
132.08299 -11.178 4.7930002 79
131.17599 -10.997 6.6869998 23
132.396 -10.992 8.698 41
74.957001 -6.165 6.033 17
73.230003 -5.9679999 6.9809999 16
69.125999 -5.586 7.6220002 43
131.408 -10.357 4.2459998 44
131.271 -10.239 6.1630001 42
75.009003 -5.79 4.625 12
76.189003 -5.822 5.8239999 9
73.046997 -5.526 6.6669998 25
69.751999 -5.2290001 7.4060001 32
74.456001 -5.4390001 2.0999999 33
74.783997 -5.4039998 3.207 16
74.315002 -5.3080001 4.277 11
0 0 0 0
76.119003 -5.3200002 6.632 38
71.353996 -4.934 7.2779999 36
144.90199 -9.7559996 3.4760001 15
132.062 -8.783 5.1020002 34
74.777 -4.9130001 3.9879999 12
0 0 0 0
72.816002 -4.6739998 6.0370002 13
70.879997 -4.4949999 6.927 25
143.252 -8.8360004 2.8199999 21
130.91299 -7.9720001 4.4970002 22
73.786003 -4.4369998 3.6199999 5
74.775002 -4.4349999 4.7690001 32
72.746002 -4.2620001 5.7179999 35
70.916 -4.1020002 6.6259999 35
142.388 -7.9990001 2.1860001 12
137.164 -7.5929999 4.1129999 11
0 0 0 0
0 0 0 0
72.992996 -3.8699999 5.415 34
70.652 -3.6930001 6.2880001 43
31.42 -1.5930001 0.34200001 47
136.883 -6.8319998 3.4949999 39
136.55 -6.7059999 5.4920001 14
0 0 0 0
73.315002 -3.4849999 5.1090002 14
70.723 -3.3080001 5.9759998 6
31.041 -1.406 0.19599999 65
135.64 -6.0359998 2.8429999 13
137.078 -5.9959998 4.8899999 25
0 0 0 0
81.162003 -3.424 5.289 39
71.910004 -2.9790001 5.7509999 46
30.808001 -1.233 0.052999999 71
31.462999 -1.233 0.514 35
136.30299 -5.237 4.2290001 24
137.06599 -5.164 6.2750001 25
81.672997 -3.0139999 4.9439998 5
72.153 -2.608 5.4349999 37
30.705999 -1.068 -0.092 62
31.086 -1.058 0.36199999 67
136.12399 -4.5250001 3.5869999 40
137.271 -4.4520001 5.6339998 36
0 0 0 0
72.813004 -2.25 5.1389999 9
30.546 -0.90600002 -0.23899999 74
30.837 -0.88999999 0.20999999 71
135.133 -3.7950001 2.9100001 33
134.47 -3.6760001 4.8800001 13
0 0 0 0
81.541 -2.1040001 5.368 44
30.531 -0.75199997 -0.38699999 58
30.698999 -0.73100001 0.059999999 69
31.406 -0.72299999 0.523 35
135.11099 -3.0120001 4.2459998 37
137.13 -2.951 6.3330002 14
81.709 -1.696 4.9809999 6
30.473 -0.59799999 -0.53799999 62
30.565001 -0.57599998 -0.090999998 65
31.094 -0.56300002 0.36500001 62
134.72099 -2.335 3.569 33
136.468 -2.256 5.6240001 19
101.921 -1.6059999 5.7059999 28
30.483 -0.44800001 -0.69400001 62
30.500999 -0.426 -0.244 58
30.851999 -0.40700001 0.206 74
135.187 -1.676 2.8929999 16
83.498001 -0.97100002 3.0190001 7
126.551 -1.374 6.447 21
29.632999 -0.29300001 -0.82800001 35
30.459 -0.27700001 -0.40200001 74
30.691 -0.257 0.046999998 71
31.455 -0.237 0.50999999 35
83.371002 -0.56699997 2.5880001 28
83.044998 -0.50099999 3.8050001 5
26.747 -0.13699999 -0.88700002 26
30.51 -0.134 -0.56199998 69
30.615 -0.112 -0.111 68
31.191999 -0.090000004 0.347 68
93.099998 -0.199 2.4119999 52
83.236 -0.113 3.3870001 4
26.496 -0.015 -1.018 54
30.437 0.0060000001 -0.72100002 59
30.638 0.028999999 -0.273 64
31.047001 0.052999999 0.18099999 67
51.551998 0.127 1.0650001 5
92.941002 0.301 3.2950001 63
26.451 0.105 -1.159 70
28.318001 0.133 -0.82099998 31
30.721001 0.168 -0.43700001 59
30.934 0.192 0.017000001 67
31.854 0.222 0.49000001 10
93.045998 0.72299999 2.806 126
26.552 0.223 -1.308 71
26.457001 0.242 -0.91100001 75
30.784 0.30500001 -0.60399997 61
30.875 0.32800001 -0.148 64
31.598 0.359 0.317 41
51.417 0.625 1.277 4
26.479 0.338 -1.451 52
26.434999 0.35600001 -1.0549999 77
0 0 0 0
31 0.46399999 -0.317 61
31.465 0.495 0.14399999 56
50.912998 0.83899999 0.98900002 67
26.309 0.447 -1.5880001 20
26.427999 0.46799999 -1.201 59
27.584999 0.509 -0.84299999 36
31.134001 0.59899998 -0.491 54
31.431 0.62699997 -0.028000001 58
40.146 0.82999998 0.56199998 47
24.629 0.52100003 -1.626 12
26.466999 0.579 -1.353 54
26.393 0.597 -0.95599997 67
31.389 0.73400003 -0.67000002 55
31.517 0.75999999 -0.20299999 56
39.655998 0.986 0.33199999 50
22.625999 0.57099998 -1.624 14
26.336 0.68400002 -1.497 39
26.271 0.70200002 -1.101 70
28.85 0.792 -0.77899998 30
31.938999 0.89999998 -0.38600001 32
39.394001 1.141 0.108 42
20.882 0.611 -1.6210001 16
25.681 0.76999998 -1.609 23
26.326 0.80800003 -1.255 67
26.444 0.83099997 -0.866 44
32.773998 1.056 -0.58499998 6
39.212002 1.2920001 -0.116 40
19.393999 0.64300001 -1.6210001 14
23.476 0.796 -1.609 11
26.429001 0.91500002 -1.415 57
26.188 0.926 -1.011 74
29.391001 1.0599999 -0.69400001 1
39.220001 1.4450001 -0.34200001 50
18.198 0.67299998 -1.6289999 12
21.622 0.81400001 -1.609 16
26.242001 1.007 -1.559 24
26.231001 1.027 -1.166 73
0 0 0 0
39.084 1.5880001 -0.56800002 51
17.094 0.69599998 -1.6339999 10
19.979 0.82700002 -1.608 15
24.530001 1.033 -1.604 10
26.325001 1.127 -1.326 52
26.299 1.146 -0.93000001 44
32.645 1.446 -0.66600001 15
16.156 0.71700001 -1.6440001 9
18.643 0.83999997 -1.614 13
22.487 1.029 -1.607 11
26.266001 1.22 -1.4809999 44
26.167 1.235 -1.082 59
29.201 1.4 -0.76899999 32
15.266 0.73100001 -1.647 12
17.472 0.84799999 -1.619 11
20.816999 1.025 -1.614 15
25.754 1.286 -1.607 23
26.187 1.327 -1.24 62
26.205999 1.348 -0.847 40
14.498 0.74400002 -1.655 12
16.482 0.85699999 -1.63 11
19.285 1.016 -1.615 14
23.5 1.255 -1.612 8
26.245001 1.42 -1.403 50
26.040001 1.429 -1 72
13.801 0.75400001 -1.663 12
15.545 0.86000001 -1.635 12
18.011 1.008 -1.619 12
21.542 1.221 -1.609 16
26.104 1.499 -1.5549999 24
26.063999 1.516 -1.159 62
13.139 0.75999999 -1.6670001 11
14.755 0.86400002 -1.645 13
16.906 1.002 -1.627 10
19.798 1.187 -1.603 14
24.389999 1.479 -1.604 12
26.143999 1.6059999 -1.326 48
12.554 0.76700002 -1.675 11
13.995 0.86400002 -1.651 12
15.932 0.99400002 -1.6339999 11
18.513 1.168 -1.6160001 13
22.167999 1.415 -1.598 17
26.181999 1.6900001 -1.49 33
12.002 0.76999998 -1.6799999 11
13.337 0.86400002 -1.66 13
15.068 0.986 -1.643 12
17.256001 1.141 -1.6160001 11
20.503 1.3710001 -1.608 15
25.466999 1.721 -1.6109999 23
11.484 0.77100003 -1.683 12
12.719 0.86199999 -1.6670001 12
14.283 0.97799999 -1.651 12
16.264 1.124 -1.63 11
18.934 1.322 -1.607 13
22.868999 1.613 -1.5930001 11
10.985 0.76899999 -1.684 12
12.143 0.85799998 -1.6720001 12
13.583 0.96899998 -1.66 13
15.335 1.104 -1.636 11
17.704 1.2869999 -1.617 11
21.004 1.5420001 -1.598 16
10.532 0.76700002 -1.686 12
11.595 0.852 -1.674 12
12.924 0.95700002 -1.664 12
14.534 1.086 -1.646 11
16.584 1.251 -1.623 10
19.382 1.476 -1.6 13
10.116 0.764 -1.689 13
11.096 0.84399998 -1.677 13
12.333 0.94700003 -1.671 11
13.787 1.068 -1.653 12
15.625 1.22 -1.632 13
18.066999 1.424 -1.609 12
9.6759996 0.75599998 -1.682 40
10.625 0.83600003 -1.679 12
11.777 0.935 -1.676 12
13.114 1.049 -1.66 12
14.772 1.192 -1.641 13
16.872999 1.373 -1.615 10
9.4029999 0.75800002 -1.701 40
10.19 0.82800001 -1.681 13
11.237 0.92000002 -1.676 13
12.484 1.03 -1.666 12
13.993 1.164 -1.648 12
15.864 1.33 -1.624 13
9.0799999 0.75400001 -1.706 36
9.7410002 0.81400001 -1.674 43
10.772 0.90700001 -1.679 13
11.922 1.012 -1.671 11
13.303 1.137 -1.656 12
14.985 1.2920001 -1.633 13
8.7770004 0.74900001 -1.712 34
9.4639997 0.81300002 -1.693 54
10.327 0.89300001 -1.682 12
11.391 0.99299997 -1.675 12
12.64 1.11 -1.66 12
14.199 1.256 -1.643 12
8.4919996 0.74299997 -1.717 35
9.1359997 0.80500001 -1.699 48
9.8500004 0.87400001 -1.673 17
10.887 0.97299999 -1.676 12
12.062 1.085 -1.6670001 11
13.471 1.221 -1.651 12
8.2139997 0.736 -1.72 34
8.8240004 0.796 -1.704 46
9.5469999 0.86699998 -1.689 60
10.432 0.954 -1.679 12
11.529 1.061 -1.673 11
12.802 1.187 -1.656 12
7.9510002 0.72899997 -1.723 34
8.5469999 0.78799999 -1.711 44
9.224 0.85600001 -1.697 51
10.015 0.935 -1.682 12
11.021 1.036 -1.674 12
12.224 1.158 -1.665 12
7.7080002 0.72100002 -1.726 32
8.2729998 0.77899998 -1.717 50
8.915 0.84399998 -1.704 45
9.6149998 0.91600001 -1.682 48
10.551 1.012 -1.676 12
11.673 1.127 -1.67 11
7.474 0.713 -1.729 30
8.0019999 0.76700002 -1.7180001 47
8.6210003 0.83099997 -1.709 45
9.3129997 0.90399998 -1.6950001 54
10.123 0.98900002 -1.6799999 12
11.149 1.096 -1.6720001 11
7.2639999 0.70499998 -1.734 30
7.7480001 0.75599998 -1.72 46
8.3570004 0.81999999 -1.7180001 46
9.0019999 0.88800001 -1.702 48
9.6829996 0.96100003 -1.675 37
10.67 1.066 -1.675 12
7.0630002 0.69700003 -1.739 28
7.5209999 0.74599999 -1.725 42
8.0810003 0.80599999 -1.719 45
8.6929998 0.87199998 -1.706 46
9.3959999 0.94800001 -1.691 54
10.235 1.039 -1.677 12
6.8699999 0.68800002 -1.743 30
7.3070002 0.736 -1.73 42
7.8239999 0.792 -1.722 45
8.4029999 0.85500002 -1.71 47
9.0670004 0.92799997 -1.697 49
9.7559996 1.0039999 -1.669 24
6.6830001 0.67900002 -1.747 30
7.0929999 0.72399998 -1.733 43
7.5780001 0.77700001 -1.724 43
8.1389999 0.83999997 -1.716 47
8.757 0.90799999 -1.702 45
9.4650002 0.98699999 -1.686 55
6.506 0.66900003 -1.751 31
6.9089999 0.71399999 -1.74 62
7.3540001 0.764 -1.727 41
7.8790002 0.82300001 -1.7180001 43
8.4680004 0.889 -1.707 43
9.1490002 0.96600002 -1.6950001 52
6.3429999 0.66000003 -1.756 30
6.7189999 0.70300001 -1.743 57
7.152 0.75099999 -1.733 37
7.6339998 0.80599999 -1.721 42
8.1949997 0.87 -1.711 45
8.8520002 0.94499999 -1.7029999 44
6.178 0.64999998 -1.758 29
6.5469999 0.69199997 -1.748 47
6.9489999 0.73699999 -1.7359999 47
7.414 0.79100001 -1.726 43
7.9510002 0.852 -1.717 43
8.5559998 0.92199999 -1.706 40
6.0409999 0.64099997 -1.765 28
6.3829999 0.68099999 -1.753 45
6.777 0.72600001 -1.743 53
7.2119999 0.77600002 -1.732 40
7.697 0.83200002 -1.719 43
8.2779999 0.89999998 -1.711 43
5.8889999 0.63099998 -1.767 27
6.2249999 0.66900003 -1.757 47
6.598 0.71200001 -1.747 46
7.0110002 0.75999999 -1.735 38
7.4790001 0.815 -1.724 42
8.0249996 0.87900001 -1.716 40
5.744 0.62 -1.768 36
6.0739999 0.65799999 -1.761 58
6.428 0.699 -1.75 44
6.829 0.74599999 -1.7410001 37
7.2639999 0.79699999 -1.728 46
7.7659998 0.85699999 -1.717 39
5.6269999 0.611 -1.777 25
5.9250002 0.64600003 -1.7640001 45
6.2659998 0.68599999 -1.7539999 50
6.645 0.73000002 -1.744 35
7.066 0.77999997 -1.733 38
7.5430002 0.83700001 -1.722 35
5.4970002 0.60000002 -1.779 32
5.7800002 0.63300002 -1.766 42
6.1139998 0.67299998 -1.758 68
6.4710002 0.71499997 -1.747 33
6.8740001 0.76300001 -1.737 39
7.3189998 0.81599998 -1.725 34
5.3800001 0.58999997 -1.784 31
5.651 0.62199998 -1.77 47
5.9720001 0.66000003 -1.763 67
6.3109999 0.69999999 -1.752 36
6.7020001 0.74699998 -1.743 37
7.1240001 0.79699999 -1.7309999 32
5.2600002 0.579 -1.7869999 36
5.533 0.611 -1.777 42
5.8189998 0.64499998 -1.763 53
6.164 0.68599999 -1.757 49
6.5219998 0.72899997 -1.745 34
6.9400001 0.77899998 -1.737 35
5.1409998 0.56800002 -1.788 37
5.4070001 0.59899998 -1.779 55
5.6890001 0.63200003 -1.768 56
6.02 0.67199999 -1.762 56
6.3600001 0.71200001 -1.749 31
6.7600002 0.76099998 -1.742 34
5.0349998 0.55699998 -1.7920001 42
5.2930002 0.58700001 -1.784 48
5.5760002 0.62099999 -1.776 49
5.8790002 0.65700001 -1.766 47
6.2069998 0.69599998 -1.7539999 37
6.5830002 0.74199998 -1.745 33
4.9289999 0.54500002 -1.794 39
5.1760001 0.574 -1.786 60
5.4439998 0.60600001 -1.776 51
5.7389998 0.64200002 -1.768 51
6.0640001 0.68099999 -1.7589999 52
6.4180002 0.72299999 -1.748 28
4.835 0.53500003 -1.799 34
5.0619998 0.56199998 -1.7869999 69
5.329 0.59299999 -1.78 48
5.6199999 0.62800002 -1.774 41
5.9239998 0.66500002 -1.762 37
6.2620001 0.70499998 -1.752 27
4.7340002 0.523 -1.8 30
4.9640002 0.551 -1.7920001 73
5.2199998 0.58099997 -1.785 57
5.4920001 0.61299998 -1.776 41
5.7859998 0.648 -1.765 44
6.1199999 0.68800002 -1.758 30
4.6339998 0.51099998 -1.801 34
4.8559999 0.537 -1.7920001 57
5.1110001 0.56699997 -1.788 72
5.3829999 0.60000002 -1.7819999 43
5.658 0.63300002 -1.7690001 44
5.9819999 0.671 -1.762 28
4.5500002 0.50099999 -1.806 43
4.7690001 0.52600002 -1.798 51
4.9990001 0.55299997 -1.788 71
5.2740002 0.58600003 -1.786 54
5.5370002 0.61699998 -1.772 32
5.8470001 0.65399998 -1.765 27
4.4549999 0.48899999 -1.8049999 60
4.6719999 0.514 -1.799 55
4.9089999 0.54100001 -1.794 67
5.1589999 0.57099998 -1.7869999 57
5.4310002 0.60299999 -1.78 41
5.711 0.63599998 -1.767 31
4.3709998 0.477 -1.807 59
4.5840001 0.50099999 -1.803 64
4.8119998 0.528 -1.7970001 52
5.059 0.55699998 -1.791 60
5.3140001 0.58700001 -1.7819999 44
5.5879998 0.61900002 -1.77 25
4.2849998 0.465 -1.808 55
4.4970002 0.48899999 -1.8049999 92
4.7220001 0.51499999 -1.801 60
4.9429998 0.54100001 -1.789 70
5.2049999 0.57099998 -1.785 55
5.4780002 0.60399997 -1.776 27
4.204 0.45300001 -1.808 65
4.4070001 0.47600001 -1.8049999 91
4.6209998 0.50099999 -1.799 66
4.8559999 0.528 -1.794 61
5.0960002 0.55599999 -1.785 57
5.3779998 0.58899999 -1.783 32
4.1339998 0.442 -1.812 67
4.3299999 0.46399999 -1.808 77
4.5450001 0.48899999 -1.8049999 79
4.7680001 0.514 -1.798 56
4.9970002 0.54100001 -1.788 42
5.2690001 0.57200003 -1.785 33
4.072 0.43200001 -1.819 61
4.2470002 0.45199999 -1.807 87
4.4590001 0.47600001 -1.806 95
4.6719999 0.5 -1.798 49
4.9060001 0.52600002 -1.7920001 63
5.151 0.55400002 -1.783 33
3.9909999 0.41999999 -1.816 71
4.171 0.43900001 -1.809 83
4.3769999 0.46200001 -1.807 88
4.5910001 0.486 -1.802 102
4.8109999 0.51099998 -1.793 63
5.0640001 0.54000002 -1.79 37
3.931 0.40900001 -1.822 38
4.1090002 0.428 -1.8150001 89
4.2979999 0.449 -1.808 94
4.5139999 0.47299999 -1.807 99
4.7329998 0.498 -1.8 58
4.967 0.52399999 -1.7920001 59
3.8599999 0.39700001 -1.821 22
4.039 0.41600001 -1.817 83
4.2249999 0.43599999 -1.811 87
4.4359999 0.45899999 -1.809 97
4.6469998 0.48300001 -1.802 56
4.875 0.50800002 -1.794 50
3.806 0.38699999 -1.827 12
3.971 0.40400001 -1.818 81
4.1490002 0.42300001 -1.811 92
4.3559999 0.44600001 -1.8099999 75
4.5599999 0.46799999 -1.802 64
4.7839999 0.49200001 -1.796 39
3.7460001 0.375 -1.829 8
3.9070001 0.39199999 -1.8200001 48
4.0819998 0.41100001 -1.813 99
4.2740002 0.43099999 -1.809 79
4.4970002 0.45500001 -1.811 70
4.7049999 0.477 -1.801 37
3.6819999 0.36300001 -1.829 8
3.845 0.38 -1.823 39
4.0229998 0.39899999 -1.819 102
4.2030001 0.41800001 -1.811 81
4.408 0.43900001 -1.808 88
4.6209998 0.46200001 -1.802 46
3.6300001 0.35299999 -1.834 8
3.7950001 0.36899999 -1.83 11
3.9590001 0.38600001 -1.821 106
4.138 0.40400001 -1.814 110
4.335 0.42500001 -1.8099999 87
4.539 0.44600001 -1.803 47
3.5669999 0.34 -1.832 8
3.724 0.35600001 -1.825 9
3.8970001 0.37400001 -1.823 48
4.0770001 0.39199999 -1.818 96
4.263 0.41100001 -1.811 82
4.48 0.433 -1.812 68
3.5120001 0.329 -1.8329999 7
3.671 0.34400001 -1.83 9
3.8380001 0.361 -1.825 30
4.0180001 0.37900001 -1.822 95
4.1939998 0.39700001 -1.813 94
4.401 0.417 -1.811 66
3.4630001 0.31799999 -1.836 7
3.6159999 0.333 -1.831 8
3.786 0.34900001 -1.83 9
3.954 0.36500001 -1.823 78
4.1290002 0.382 -1.8150001 93
4.3260002 0.40200001 -1.811 73
3.4100001 0.30599999 -1.836 7
3.5680001 0.32100001 -1.835 8
3.727 0.336 -1.831 8
3.8889999 0.352 -1.823 45
4.0749998 0.37 -1.821 77
4.263 0.38800001 -1.8150001 72
3.3559999 0.29499999 -1.835 7
3.5120001 0.30899999 -1.834 8
3.675 0.324 -1.8329999 8
3.835 0.33899999 -1.825 29
4.0100002 0.35499999 -1.8200001 110
4.1939998 0.373 -1.814 59
3.303 0.28299999 -1.8329999 7
3.4579999 0.29699999 -1.8329999 8
3.6159999 0.31099999 -1.831 8
3.7850001 0.32600001 -1.829 8
3.9660001 0.34299999 -1.8279999 79
4.1360002 0.359 -1.818 115
3.2620001 0.27200001 -1.837 7
3.411 0.285 -1.835 8
3.5710001 0.29899999 -1.835 9
3.723 0.31299999 -1.827 8
3.882 0.32699999 -1.818 10
4.073 0.34400001 -1.818 24
3.2179999 0.26100001 -1.8380001 7
3.365 0.27399999 -1.837 7
3.5109999 0.28600001 -1.831 8
3.671 0.30000001 -1.8279999 8
3.8280001 0.31400001 -1.819 8
3.9979999 0.329 -1.812 9
3.178 0.25 -1.841 7
3.323 0.26199999 -1.84 8
3.4649999 0.27399999 -1.8329999 8
3.628 0.28799999 -1.8329999 8
3.779 0.301 -1.822 8
3.944 0.315 -1.814 8
3.1300001 0.23899999 -1.8380001 6
3.273 0.25 -1.837 8
3.4200001 0.26199999 -1.834 8
3.575 0.27500001 -1.831 8
3.734 0.28799999 -1.826 8
3.892 0.301 -1.816 8
3.095 0.228 -1.8430001 6
3.2249999 0.23800001 -1.835 8
3.381 0.25099999 -1.8380001 8
3.529 0.26199999 -1.8329999 8
3.6889999 0.27500001 -1.829 8
3.8429999 0.287 -1.819 8
3.052 0.21699999 -1.841 7
3.1900001 0.227 -1.839 7
3.3329999 0.23800001 -1.836 7
3.4809999 0.249 -1.832 8
3.6329999 0.26100001 -1.826 8
3.802 0.27399999 -1.824 8
3.013 0.206 -1.841 6
3.1530001 0.21600001 -1.841 7
3.2909999 0.226 -1.837 7
3.4430001 0.237 -1.836 8
3.5899999 0.248 -1.8279999 8
3.7550001 0.25999999 -1.826 8
2.971 0.19499999 -1.839 8
3.112 0.204 -1.841 7
3.256 0.215 -1.84 7
3.3970001 0.22499999 -1.835 7
3.546 0.235 -1.83 8
3.7090001 0.24699999 -1.827 8
1.655 0.103 -1.0369999 2
3.073 0.193 -1.84 7
3.2130001 0.20299999 -1.839 7
3.3599999 0.212 -1.837 7
3.5109999 0.223 -1.834 8
3.664 0.233 -1.8279999 8
1.5470001 0.092 -0.98100001 2
3.0369999 0.182 -1.841 6
3.174 0.191 -1.8380001 7
3.3169999 0.2 -1.836 7
3.4619999 0.20999999 -1.83 7
3.619 0.22 -1.8279999 8
1.505 0.085000001 -0.96600002 2
3.006 0.171 -1.8430001 6
3.1340001 0.17900001 -1.837 7
3.28 0.18799999 -1.837 7
3.4189999 0.197 -1.829 7
3.579 0.207 -1.829 8
1.4680001 0.078000002 -0.95200002 3
0 0 0 0
3.109 0.168 -1.8430001 7
3.24 0.176 -1.835 7
3.3889999 0.184 -1.834 7
3.5439999 0.19400001 -1.832 8
1.434 0.071999997 -0.94199997 4
1.617 0.082000002 -1.0140001 1
3.0710001 0.156 -1.841 7
3.207 0.164 -1.837 7
3.346 0.171 -1.831 7
3.5079999 0.18000001 -1.834 8
0 0 0 0
1.562 0.074000001 -0.991 2
3.0409999 0.14399999 -1.8430001 7
3.175 0.152 -1.839 7
3.3139999 0.15899999 -1.834 7
3.464 0.167 -1.831 7
0 0 0 0
1.5140001 0.066 -0.97000003 3
3.0109999 0.133 -1.844 6
3.145 0.14 -1.84 7
3.2750001 0.146 -1.831 7
3.431 0.154 -1.832 8
0 0 0 0
1.483 0.059999999 -0.95999998 3
2.971 0.121 -1.8380001 6
3.1099999 0.12800001 -1.839 6
3.2539999 0.134 -1.8380001 7
3.392 0.141 -1.831 7
0 0 0 0
1.449 0.052999999 -0.94800001 4
0 0 0 0
3.0810001 0.116 -1.839 6
3.2190001 0.122 -1.837 7
3.3629999 0.12800001 -1.8329999 7
0 0 0 0
0 0 0 0
1.575 0.052999999 -0.99400002 1
3.0569999 0.104 -1.8430001 6
3.1919999 0.11 -1.8380001 7
3.3380001 0.116 -1.837 7
0 0 0 0
0 0 0 0
1.538 0.046 -0.97899997 2
3.036 0.093000002 -1.847 6
3.1589999 0.097999997 -1.836 7
3.309 0.103 -1.8380001 7
0 0 0 0
0 0 0 0
1.503 0.039999999 -0.96499997 2
3.0020001 0.081 -1.842 5
3.1300001 0.085000001 -1.835 7
3.28 0.090000004 -1.8380001 7
0 0 0 0
0 0 0 0
1.479 0.034000002 -0.958 2
2.967 0.068999998 -1.837 6
3.1110001 0.074000001 -1.84 6
3.2509999 0.078000002 -1.837 7
0 0 0 0
0 0 0 0
1.454 0.028000001 -0.94999999 3
0 0 0 0
3.0910001 0.061999999 -1.8430001 6
3.224 0.064999998 -1.837 7
0 0 0 0
0 0 0 0
1.4349999 0.022 -0.94499999 3
1.58 0.025 -0.99400002 1
3.062 0.048999999 -1.84 6
3.204 0.052999999 -1.84 7
0 0 0 0
0 0 0 0
1.414 0.016000001 -0.93800002 4
1.551 0.017999999 -0.98299998 2
3.039 0.037999999 -1.84 6
3.177 0.039999999 -1.8380001 7
0 0 0 0
0 0 0 0
0 0 0 0
1.527 0.012 -0.97500002 2
3.0209999 0.026000001 -1.842 6
3.1530001 0.028000001 -1.837 7
0 0 0 0
0 0 0 0
0 0 0 0
1.512 0.0060000001 -0.972 2
2.9949999 0.014 -1.839 6
3.132 0.016000001 -1.837 6
0 0 0 0
0 0 0 0
0 0 0 0
1.4859999 0 -0.96200001 2
1.579 0.001 -0.97600001 0
3.115 0.003 -1.839 6
0 0 0 0
0 0 0 0
0 0 0 0
1.469 -0.0049999999 -0.95599997 2
0 0 0 0
3.0969999 -0.0080000004 -1.839 6
0 0 0 0
0 0 0 0
0 0 0 0
1.45 -0.0099999998 -0.949 2
0 0 0 0
3.0810001 -0.02 -1.84 6
0 0 0 0
0 0 0 0
0 0 0 0
1.433 -0.016000001 -0.94300002 2
1.586 -0.017000001 -0.99699998 1
3.0699999 -0.032000002 -1.844 6
0 0 0 0
0 0 0 0
0 0 0 0
1.424 -0.022 -0.94199997 2
1.568 -0.023 -0.991 1
3.059 -0.044 -1.846 6
0 0 0 0
0 0 0 0
0 0 0 0
1.416 -0.027000001 -0.94099998 2
1.545 -0.028999999 -0.98100001 2
3.039 -0.057 -1.842 6
0 0 0 0
0 0 0 0
0 0 0 0
0 0 0 0
1.53 -0.035 -0.97600001 2
3.029 -0.068999998 -1.844 6
0 0 0 0
0 0 0 0
0 0 0 0
1.3940001 -0.037999999 -0.93400002 2
1.522 -0.041000001 -0.97399998 2
3.017 -0.081 -1.844 6
0 0 0 0
0 0 0 0
0 0 0 0
0 0 0 0
1.508 -0.046999998 -0.96799999 2
3 -0.092 -1.84 6
0 0 0 0
0 0 0 0
0 0 0 0
0 0 0 0
1.506 -0.052999999 -0.97000003 2
2.9949999 -0.105 -1.8430001 6
0 0 0 0
0 0 0 0
0 0 0 0
0 0 0 0
1.495 -0.059 -0.96600002 2
2.993 -0.116 -1.846 6
0 0 0 0
0 0 0 0
0 0 0 0
0 0 0 0
1.487 -0.064000003 -0.963 2
2.9849999 -0.12800001 -1.846 6
0 0 0 0
0 0 0 0
0 0 0 0
0 0 0 0
1.479 -0.07 -0.95999998 2
1.638 -0.077 -1.015 0
0 0 0 0
0 0 0 0
0 0 0 0
0 0 0 0
1.48 -0.075999998 -0.96200001 2
2.9749999 -0.152 -1.846 8
0 0 0 0
0 0 0 0
0 0 0 0
0 0 0 0
1.469 -0.082000002 -0.95700002 2
2.96 -0.163 -1.839 7
0 0 0 0
0 0 0 0
0 0 0 0
0 0 0 0
1.47 -0.088 -0.958 2
2.957 -0.175 -1.839 8
0 0 0 0
0 0 0 0
0 0 0 0
0 0 0 0
1.471 -0.093999997 -0.95899999 2
2.9530001 -0.18700001 -1.837 8
0 0 0 0
0 0 0 0
0 0 0 0
0 0 0 0
1.474 -0.1 -0.96100003 2
2.96 -0.199 -1.841 8
0 0 0 0
0 0 0 0
0 0 0 0
0 0 0 0
1.474 -0.106 -0.96100003 2
2.9630001 -0.211 -1.8430001 8
0 0 0 0
0 0 0 0
0 0 0 0
0 0 0 0
1.479 -0.112 -0.96399999 2
1.623 -0.122 -1.0089999 0
0 0 0 0
0 0 0 0
0 0 0 0
0 0 0 0
1.4859999 -0.119 -0.96700001 2
2.971 -0.236 -1.845 5
0 0 0 0
0 0 0 0
0 0 0 0
0 0 0 0
1.489 -0.125 -0.96799999 2
2.9790001 -0.248 -1.847 6
0 0 0 0
0 0 0 0
0 0 0 0
0 0 0 0
1.497 -0.131 -0.97100002 2
2.9809999 -0.25999999 -1.845 6
0 0 0 0
0 0 0 0
0 0 0 0
0 0 0 0
1.502 -0.13699999 -0.97299999 2
2.993 -0.27200001 -1.848 6
0 0 0 0
0 0 0 0
0 0 0 0
0 0 0 0
1.51 -0.14399999 -0.97500002 2
3 -0.285 -1.848 5
0 0 0 0
0 0 0 0
0 0 0 0
0 0 0 0
1.522 -0.15099999 -0.98100001 2
3.0090001 -0.29699999 -1.848 6
0 0 0 0
0 0 0 0
0 0 0 0
0 0 0 0
1.536 -0.15800001 -0.986 2
3.0239999 -0.30899999 -1.851 6
0 0 0 0
0 0 0 0
0 0 0 0
1.4069999 -0.15099999 -0.94499999 3
1.5599999 -0.16599999 -0.99800003 1
3.0309999 -0.32100001 -1.849 6
0 0 0 0
0 0 0 0
0 0 0 0
0 0 0 0
1.575 -0.17399999 -1.0039999 1
3.046 -0.33399999 -1.85 6
0 0 0 0
0 0 0 0
0 0 0 0
1.432 -0.164 -0.954 3
1.7410001 -0.198 -1.105 2
3.062 -0.347 -1.852 6
0 0 0 0
0 0 0 0
0 0 0 0
1.443 -0.171 -0.95599997 3
0 0 0 0
3.0799999 -0.359 -1.853 6
0 0 0 0
0 0 0 0
0 0 0 0
1.461 -0.178 -0.96399999 2
2.931 -0.354 -1.841 7
3.0869999 -0.37099999 -1.848 6
0 0 0 0
0 0 0 0
0 0 0 0
1.48 -0.185 -0.97100002 2
2.954 -0.36700001 -1.846 6
3.109 -0.384 -1.851 6
0 0 0 0
0 0 0 0
0 0 0 0
1.502 -0.193 -0.97899997 2
2.987 -0.382 -1.8559999 6
3.125 -0.39700001 -1.849 6
0 0 0 0
0 0 0 0
0 0 0 0
1.521 -0.20100001 -0.986 2
3.006 -0.39399999 -1.8559999 6
3.1459999 -0.41 -1.85 7
0 0 0 0
0 0 0 0
0 0 0 0
1.559 -0.211 -1.0039999 1
3.0239999 -0.40599999 -1.854 6
3.1659999 -0.42199999 -1.849 6
1.1619999 -0.16500001 -0.86299998 5
0 0 0 0
0 0 0 0
1.5829999 -0.219 -1.012 1
3.04 -0.41800001 -1.851 6
3.184 -0.435 -1.847 7
0 0 0 0
0 0 0 0
0 0 0 0
0 0 0 0
3.069 -0.43099999 -1.8559999 6
3.2130001 -0.449 -1.849 7
0 0 0 0
0 0 0 0
1.46 -0.212 -0.96700001 2
2.9560001 -0.42699999 -1.863 6
3.0869999 -0.44299999 -1.852 6
3.2420001 -0.46200001 -1.852 6
0 0 0 0
0 0 0 0
1.4859999 -0.22 -0.97600001 2
2.971 -0.43799999 -1.858 5
3.112 -0.45500001 -1.852 6
3.27 -0.47600001 -1.852 6
0 0 0 0
0 0 0 0
1.521 -0.23 -0.991 2
2.994 -0.449 -1.8559999 6
3.135 -0.46799999 -1.85 6
3.302 -0.49000001 -1.854 7
0 0 0 0
0 0 0 0
1.557 -0.23999999 -1.006 2
3.017 -0.461 -1.855 6
3.1719999 -0.48199999 -1.855 6
3.3310001 -0.50300002 -1.854 7
0 0 0 0
0 0 0 0
1.608 -0.252 -1.03 1
3.049 -0.47400001 -1.857 6
3.1949999 -0.49399999 -1.852 6
3.359 -0.51599997 -1.853 7
0 0 0 0
0 0 0 0
0 0 0 0
3.082 -0.48699999 -1.8609999 6
3.227 -0.50700003 -1.853 7
3.391 -0.52999997 -1.852 7
0 0 0 0
1.477 -0.241 -0.97600001 3
2.9579999 -0.47799999 -1.859 5
3.105 -0.49900001 -1.8559999 6
3.2620001 -0.52100003 -1.855 7
3.427 -0.54400003 -1.854 7
0 0 0 0
1.516 -0.25099999 -0.99199998 2
2.9960001 -0.49200001 -1.864 6
3.135 -0.51099998 -1.855 6
3.293 -0.53399998 -1.853 7
3.46 -0.55800003 -1.852 7
0 0 0 0
1.561 -0.26199999 -1.011 2
3.0220001 -0.50300002 -1.8609999 6
3.168 -0.52399999 -1.855 6
3.326 -0.54699999 -1.853 7
3.494 -0.57099998 -1.85 8
0 0 0 0
1.661 -0.28200001 -1.064 2
3.0539999 -0.51499999 -1.8609999 6
3.2 -0.53600001 -1.854 7
3.362 -0.56 -1.852 7
3.5339999 -0.58600003 -1.851 8
1.45 -0.252 -0.96700001 3
0 0 0 0
3.085 -0.52700001 -1.859 6
3.2420001 -0.55000001 -1.858 7
3.4070001 -0.57499999 -1.8559999 7
3.572 -0.60000002 -1.85 7
1.485 -0.26100001 -0.97899997 2
2.9719999 -0.51700002 -1.863 6
3.1199999 -0.53899997 -1.859 6
3.277 -0.56300002 -1.857 7
3.451 -0.58899999 -1.858 8
3.612 -0.61400002 -1.848 7
1.534 -0.27200001 -1 2
3.0079999 -0.52899998 -1.864 6
3.1570001 -0.55199999 -1.86 6
3.316 -0.57599998 -1.8559999 7
3.4790001 -0.60100001 -1.851 7
3.6589999 -0.62900001 -1.85 7
1.587 -0.28400001 -1.022 2
3.052 -0.54299998 -1.869 6
3.194 -0.56400001 -1.859 6
3.3570001 -0.58899999 -1.857 7
3.5190001 -0.61500001 -1.849 7
3.704 -0.64399999 -1.849 7
0 0 0 0
3.0799999 -0.55299997 -1.864 6
3.2349999 -0.57700002 -1.86 6
3.405 -0.60399997 -1.86 7
3.5639999 -0.62900001 -1.85 8
3.753 -0.65899998 -1.849 8
2.971 -0.54299998 -1.868 6
3.1170001 -0.565 -1.862 7
3.2780001 -0.58999997 -1.8609999 7
3.4419999 -0.616 -1.857 8
3.6159999 -0.64399999 -1.852 8
3.7969999 -0.67400002 -1.846 8
2.9979999 -0.55199999 -1.862 6
3.151 -0.57599998 -1.859 7
3.3180001 -0.60299999 -1.86 7
3.4820001 -0.62900001 -1.854 7
3.665 -0.65899998 -1.853 8
3.845 -0.68800002 -1.845 8
3.043 -0.565 -1.865 6
3.194 -0.58899999 -1.86 7
3.3640001 -0.616 -1.8609999 7
3.526 -0.64200002 -1.853 7
3.714 -0.67299998 -1.852 8
3.9030001 -0.70499998 -1.847 8
3.082 -0.57599998 -1.864 6
3.237 -0.60100001 -1.86 7
3.4070001 -0.62900001 -1.86 7
3.5769999 -0.65600002 -1.854 8
3.7509999 -0.685 -1.845 8
3.9519999 -0.71899998 -1.8430001 8
3.119 -0.58700001 -1.8609999 7
3.2850001 -0.61400002 -1.863 7
3.4560001 -0.64200002 -1.8609999 8
3.6259999 -0.67000002 -1.853 8
3.809 -0.70099998 -1.847 8
4.0139999 -0.736 -1.845 8
3.1630001 -0.59899998 -1.862 6
3.326 -0.62599999 -1.859 7
3.507 -0.65600002 -1.862 8
3.681 -0.685 -1.854 7
3.8629999 -0.71499997 -1.846 8
4.0689998 -0.75099999 -1.842 8
3.2079999 -0.611 -1.862 7
3.375 -0.639 -1.86 7
3.546 -0.667 -1.8559999 7
3.7279999 -0.69700003 -1.851 8
3.9159999 -0.73000002 -1.8430001 8
4.1409998 -0.76899999 -1.846 8
3.25 -0.62199998 -1.859 7
3.4230001 -0.65100002 -1.859 8
3.5999999 -0.68099999 -1.8559999 7
3.7909999 -0.713 -1.853 8
3.9849999 -0.74699998 -1.847 8
4.2069998 -0.78500003 -1.846 8
3.2980001 -0.634 -1.859 7
3.48 -0.66500002 -1.862 8
3.658 -0.69499999 -1.858 8
3.8340001 -0.72500002 -1.846 8
4.0440001 -0.76099998 -1.845 8
4.263 -0.80000001 -1.84 8
3.3510001 -0.64700001 -1.8609999 7
3.5309999 -0.67699999 -1.8609999 9
3.711 -0.708 -1.8559999 7
3.8970001 -0.74000001 -1.848 8
4.1100001 -0.77700001 -1.845 8
4.3410001 -0.81900001 -1.844 9
3.4089999 -0.66100001 -1.865 7
3.579 -0.68900001 -1.858 8
3.7720001 -0.72299999 -1.857 8
3.9590001 -0.755 -1.847 8
4.1900001 -0.796 -1.85 8
4.4039998 -0.83399999 -1.839 8
3.454 -0.671 -1.86 7
3.638 -0.70300001 -1.859 8
3.825 -0.73500001 -1.853 8
4.0339999 -0.77200001 -1.851 8
4.244 -0.80900002 -1.842 8
4.4860001 -0.852 -1.84 9
3.507 -0.68300003 -1.859 7
3.694 -0.71600002 -1.857 8
3.8800001 -0.74800003 -1.849 8
4.0949998 -0.78600001 -1.847 8
4.322 -0.82599998 -1.844 9
4.559 -0.86799997 -1.837 9
3.5650001 -0.69599998 -1.859 7
3.7539999 -0.72899997 -1.857 8
3.9530001 -0.76300001 -1.852 8
4.1719999 -0.80199999 -1.851 8
4.3940001 -0.84200001 -1.842 8
4.638 -0.88599998 -1.836 9
3.6199999 -0.708 -1.858 7
3.8110001 -0.741 -1.854 8
4.0209999 -0.778 -1.853 9
4.2379999 -0.81599998 -1.847 8
4.473 -0.85900003 -1.842 9
4.7210002 -0.90399998 -1.835 9
3.6889999 -0.722 -1.862 7
3.8670001 -0.75300002 -1.85 8
4.086 -0.79100001 -1.85 8
4.316 -0.833 -1.848 9
4.553 -0.875 -1.841 9
4.8099999 -0.92199999 -1.834 10
3.747 -0.73400003 -1.859 8
3.9360001 -0.76700002 -1.85 8
4.165 -0.80699998 -1.853 8
4.3930001 -0.84799999 -1.847 8
4.6290002 -0.89099997 -1.837 9
4.8779998 -0.93599999 -1.824 9
3.8069999 -0.74599999 -1.8559999 7
4.007 -0.78100002 -1.851 9
4.2420001 -0.82200003 -1.853 8
4.4689999 -0.86299998 -1.845 8
4.7220001 -0.90899998 -1.8380001 8
4.9819999 -0.95599997 -1.826 9
3.868 -0.75700003 -1.854 7
4.0710001 -0.79299998 -1.847 8
4.3080001 -0.83499998 -1.848 9
4.553 -0.87900001 -1.844 9
4.8080001 -0.92500001 -1.836 9
5.0760002 -0.97399998 -1.824 9
3.934 -0.76899999 -1.852 7
4.1459999 -0.80699998 -1.847 8
4.3839998 -0.84899998 -1.846 9
4.632 -0.89399999 -1.84 9
4.8779998 -0.93800002 -1.825 9
5.2030001 -0.99800003 -1.831 10
4.0019999 -0.78200001 -1.85 8
4.2389998 -0.824 -1.853 8
4.4749999 -0.866 -1.848 9
4.7189999 -0.90899998 -1.8380001 8
4.9959998 -0.95999998 -1.832 9
5.2880001 -1.013 -1.821 9
4.0809999 -0.796 -1.852 8
4.309 -0.83600003 -1.848 9
4.553 -0.87900001 -1.844 9
4.8150001 -0.92699999 -1.8380001 9
5.0809999 -0.97500002 -1.825 9
5.402 -1.033 -1.821 9
4.1500001 -0.80699998 -1.848 8
4.3839998 -0.84799999 -1.845 9
4.6430001 -0.89499998 -1.844 9
4.9130001 -0.94300002 -1.837 9
5.2080002 -0.99699998 -1.831 10
5.5180001 -1.053 -1.819 10
4.2389998 -0.82200003 -1.852 8
4.4679999 -0.86299998 -1.844 8
4.724 -0.90799999 -1.839 9
5.0139999 -0.95999998 -1.836 9
5.3150001 -1.015 -1.8279999 9
5.6690001 -1.079 -1.827 21
4.322 -0.83499998 -1.852 9
4.5619998 -0.87800002 -1.845 10
4.8260002 -0.92500001 -1.84 10
5.1199999 -0.977 -1.836 10
5.4369998 -1.035 -1.829 10
5.7800002 -1.097 -1.8200001 27
4.3870001 -0.84500003 -1.8430001 9
4.6399999 -0.889 -1.84 9
4.9219999 -0.94 -1.837 9
5.2270002 -0.99400002 -1.8329999 10
5.5510001 -1.052 -1.825 10
5.915 -1.118 -1.819 28
4.4819999 -0.85900003 -1.846 9
4.7350001 -0.90399998 -1.839 9
5.0219998 -0.954 -1.835 9
5.3340001 -1.01 -1.83 9
5.6939998 -1.075 -1.83 22
6.0380001 -1.137 -1.812 30
4.5689998 -0.87199998 -1.8430001 10
4.8309999 -0.91799998 -1.837 10
5.138 -0.972 -1.837 10
5.4549999 -1.028 -1.829 9
5.7979999 -1.089 -1.819 41
6.1810002 -1.158 -1.809 31
4.6659999 -0.88599998 -1.844 9
4.9330001 -0.93199998 -1.835 10
5.2480001 -0.98699999 -1.834 8
5.5879998 -1.0470001 -1.83 9
5.9330001 -1.109 -1.817 28
6.3260002 -1.179 -1.8049999 30
4.757 -0.898 -1.84 10
5.0440001 -0.94700003 -1.836 10
5.3569999 -1.002 -1.831 9
5.7249999 -1.067 -1.832 18
6.0739999 -1.1289999 -1.814 45
6.4809999 -1.201 -1.801 33
4.8470001 -0.90899998 -1.835 9
5.158 -0.963 -1.836 9
5.4749999 -1.018 -1.8279999 10
5.836 -1.081 -1.822 40
6.2119999 -1.147 -1.809 42
6.6500001 -1.225 -1.799 34
4.9530001 -0.92199999 -1.834 10
5.2670002 -0.97600001 -1.8329999 9
5.605 -1.034 -1.8279999 9
5.9629998 -1.097 -1.817 42
6.3460002 -1.164 -1.801 59
6.822 -1.248 -1.796 33
5.0710001 -0.93699998 -1.837 10
5.3800001 -0.99000001 -1.83 9
5.75 -1.053 -1.831 10
6.0970001 -1.113 -1.812 36
6.5279999 -1.188 -1.804 48
6.9980001 -1.27 -1.791 34
5.1739998 -0.94800001 -1.8329999 10
5.5019999 -1.0039999 -1.8279999 9
5.8800001 -1.069 -1.826 26
6.2470002 -1.131 -1.809 63
6.6869998 -1.207 -1.799 44
7.1849999 -1.294 -1.7869999 38
5.2989998 -0.963 -1.834 10
5.6199999 -1.016 -1.822 9
6.0040002 -1.082 -1.819 54
6.388 -1.147 -1.802 55
6.8499999 -1.226 -1.7920001 38
7.402 -1.321 -1.788 42
5.4130001 -0.97399998 -1.83 10
5.7610002 -1.0319999 -1.823 10
6.1389999 -1.096 -1.813 49
6.5619998 -1.1670001 -1.802 52
7.0549998 -1.251 -1.794 38
7.605 -1.345 -1.7819999 39
5.533 -0.986 -1.826 10
5.9109998 -1.049 -1.824 13
6.2820001 -1.11 -1.807 75
6.7280002 -1.1849999 -1.798 50
7.2340002 -1.27 -1.7869999 60
7.7779999 -1.362 -1.767 25
5.665 -0.99900001 -1.826 11
6.0479999 -1.062 -1.821 26
6.4239998 -1.124 -1.8 73
6.9060001 -1.2029999 -1.794 48
7.441 -1.2920001 -1.784 42
8.0970001 -1.403 -1.7819999 11
5.8070002 -1.013 -1.826 9
6.1700001 -1.071 -1.8099999 50
6.5960002 -1.141 -1.799 68
7.0960002 -1.223 -1.791 56
7.6690001 -1.317 -1.783 53
8.3389997 -1.428 -1.776 10
5.941 -1.024 -1.822 10
6.3169999 -1.084 -1.8049999 50
6.777 -1.158 -1.7970001 52
7.289 -1.2410001 -1.786 73
7.8740001 -1.337 -1.775 50
8.6059999 -1.457 -1.772 11
6.0970001 -1.038 -1.822 11
6.4640002 -1.095 -1.798 55
6.9489999 -1.173 -1.7920001 56
7.5 -1.261 -1.784 45
8.0780001 -1.354 -1.763 28
8.8900003 -1.4859999 -1.7690001 11
6.2459998 -1.049 -1.819 23
6.6409998 -1.1109999 -1.798 54
7.1370001 -1.188 -1.7869999 61
7.7220001 -1.281 -1.781 67
8.401 -1.3890001 -1.774 10
9.1890001 -1.515 -1.7640001 12
6.3660002 -1.0549999 -1.8049999 27
6.8239999 -1.125 -1.796 69
7.335 -1.205 -1.784 70
7.9520001 -1.301 -1.777 81
8.6829996 -1.416 -1.772 11
9.4899998 -1.543 -1.756 11
6.5180001 -1.064 -1.8 31
7.0009999 -1.138 -1.791 47
7.559 -1.223 -1.783 54
8.1929998 -1.321 -1.773 52
8.9619999 -1.4400001 -1.767 11
9.8050003 -1.571 -1.747 11
6.6939998 -1.077 -1.798 30
7.184 -1.15 -1.786 66
7.7800002 -1.24 -1.78 79
8.3929996 -1.332 -1.758 36
9.2589998 -1.465 -1.761 12
10.192 -1.607 -1.7460001 12
6.868 -1.087 -1.794 31
7.3850002 -1.163 -1.7819999 60
8.0109997 -1.256 -1.776 67
8.7390003 -1.365 -1.7690001 11
9.5699997 -1.489 -1.755 11
10.606 -1.645 -1.7460001 12
7.0599999 -1.098 -1.7920001 32
7.6009998 -1.176 -1.779 46
8.2639999 -1.273 -1.773 75
9.0190001 -1.3839999 -1.762 11
9.9110003 -1.515 -1.749 12
11.053 -1.6849999 -1.745 12
7.243 -1.107 -1.786 32
7.8249998 -1.1900001 -1.776 69
8.5220003 -1.29 -1.7690001 77
9.3249998 -1.406 -1.758 11
10.285 -1.545 -1.7460001 12
11.511 -1.723 -1.7410001 12
7.4439998 -1.1160001 -1.7819999 33
8.0539999 -1.201 -1.771 52
8.7639999 -1.301 -1.7589999 54
9.6309996 -1.424 -1.751 12
10.693 -1.575 -1.744 13
12.028 -1.765 -1.739 12
7.678 -1.1289999 -1.784 34
8.3179998 -1.217 -1.771 53
9.0209999 -1.313 -1.749 22
9.9680004 -1.4450001 -1.745 12
11.153 -1.61 -1.744 13
12.598 -1.812 -1.739 12
7.8909998 -1.136 -1.777 36
8.5679998 -1.227 -1.765 57
9.3870001 -1.3380001 -1.755 12
10.357 -1.47 -1.743 13
11.625 -1.643 -1.742 13
13.188 -1.857 -1.735 12
8.1339998 -1.146 -1.775 36
8.849 -1.24 -1.762 56
9.698 -1.352 -1.749 13
10.788 -1.497 -1.744 13
12.124 -1.675 -1.737 12
13.827 -1.903 -1.73 12
8.3940001 -1.156 -1.773 39
9.1309996 -1.25 -1.756 61
10.046 -1.369 -1.744 13
11.219 -1.521 -1.74 13
12.715 -1.716 -1.74 13
14.518 -1.951 -1.723 11
8.6379995 -1.161 -1.765 39
9.4230003 -1.2589999 -1.749 62
10.428 -1.386 -1.7410001 13
11.711 -1.549 -1.74 13
13.297 -1.751 -1.733 12
15.281 -2.0039999 -1.7180001 11
8.9320002 -1.17 -1.765 42
9.6969995 -1.263 -1.735 53
10.873 -1.408 -1.744 13
12.237 -1.577 -1.739 13
13.933 -1.7869999 -1.728 11
16.153 -2.063 -1.714 9
9.21 -1.175 -1.758 42
10.066 -1.276 -1.734 16
11.311 -1.426 -1.7410001 13
12.769 -1.601 -1.733 13
14.658 -1.829 -1.725 11
17.07 -2.1199999 -1.704 11
9.4960003 -1.177 -1.749 46
10.506 -1.295 -1.742 12
11.781 -1.443 -1.738 14
13.408 -1.6339999 -1.735 12
15.413 -1.868 -1.7180001 10
18.08 -2.1800001 -1.694 12
9.7889996 -1.178 -1.739 39
10.908 -1.304 -1.738 13
12.295 -1.461 -1.7359999 13
14.046 -1.66 -1.73 11
16.285 -1.914 -1.715 10
19.322001 -2.2590001 -1.693 14
10.191 -1.188 -1.744 13
11.343 -1.314 -1.734 14
12.856 -1.48 -1.734 12
14.729 -1.6849999 -1.722 11
17.129999 -1.949 -1.7 11
20.724001 -2.346 -1.692 15
10.57 -1.193 -1.742 12
11.833 -1.326 -1.7359999 14
13.437 -1.4960001 -1.73 12
15.477 -1.7130001 -1.717 10
18.110001 -1.992 -1.689 12
22.296 -2.4389999 -1.689 17
10.976 -1.197 -1.7410001 13
12.335 -1.335 -1.733 13
14.078 -1.513 -1.727 12
16.264999 -1.7359999 -1.706 9
19.410999 -2.059 -1.6950001 14
24.117001 -2.543 -1.684 11
11.408 -1.198 -1.738 14
12.866 -1.341 -1.729 13
14.758 -1.528 -1.721 11
17.205999 -1.768 -1.7029999 11
20.742001 -2.1170001 -1.689 15
26.386999 -2.677 -1.6900001 12
11.894 -1.201 -1.738 13
13.464 -1.349 -1.728 12
15.497 -1.541 -1.715 9
18.18 -1.794 -1.692 12
22.389 -2.1949999 -1.694 18
27.618 -2.6889999 -1.6109999 35
12.38 -1.199 -1.735 13
14.066 -1.351 -1.721 12
16.312 -1.554 -1.7079999 10
19.334999 -1.8279999 -1.687 14
24.059999 -2.2579999 -1.682 9
27.584999 -2.5699999 -1.452 58
12.905 -1.196 -1.7309999 13
14.75 -1.355 -1.7180001 11
17.172001 -1.563 -1.699 11
20.73 -1.872 -1.6900001 15
26.483 -2.3729999 -1.702 14
27.343 -2.431 -1.2869999 74
13.48 -1.191 -1.729 13
15.438 -1.352 -1.709 10
18.146999 -1.574 -1.692 12
22.202 -1.909 -1.6849999 17
27.475 -2.3440001 -1.613 27
27.434 -2.3210001 -1.14 64
14.072 -1.182 -1.724 12
16.218 -1.349 -1.7029999 10
19.254 -1.587 -1.688 13
23.924999 -1.955 -1.686 11
27.504 -2.227 -1.465 56
27.426001 -2.2019999 -0.99400002 79
14.715 -1.1720001 -1.719 11
17.027 -1.341 -1.693 10
20.565001 -1.604 -1.6900001 15
26.098 -2.016 -1.697 12
27.215 -2.082 -1.304 81
28.101999 -2.1289999 -0.86799997 25
15.396 -1.156 -1.712 11
17.955 -1.334 -1.687 12
21.996 -1.617 -1.689 17
27.273001 -1.984 -1.627 26
27.129999 -1.952 -1.155 82
31.370001 -2.2349999 -0.80500001 64
16.152 -1.14 -1.7079999 9
19.030001 -1.327 -1.6849999 13
23.514999 -1.62 -1.679 12
27.285 -1.859 -1.483 52
27.077 -1.824 -1.012 78
31.198999 -2.0780001 -0.63800001 68
16.952 -1.117 -1.7 10
20.231001 -1.316 -1.682 15
25.462 -1.635 -1.683 10
27.112 -1.719 -1.331 82
27.419001 -1.7180001 -0.88300002 27
31.198999 -1.9299999 -0.47799999 50
17.822001 -1.089 -1.692 12
21.561001 -1.299 -1.679 16
27.054001 -1.608 -1.646 25
27.104 -1.589 -1.191 58
30.885 -1.786 -0.83600003 68
31.007999 -1.7690001 -0.31799999 58
18.837 -1.0599999 -1.688 13
23.079 -1.279 -1.677 18
27.072001 -1.477 -1.508 62
26.983999 -1.45 -1.048 61
30.844999 -1.633 -0.68099999 61
30.922001 -1.614 -0.16500001 71
19.959999 -1.026 -1.687 15
24.731001 -1.25 -1.671 12
26.934999 -1.339 -1.367 77
27.247999 -1.331 -0.92400002 27
30.731001 -1.476 -0.52700001 71
30.934 -1.462 -0.015 57
21.229 -0.986 -1.687 16
26.604 -1.212 -1.665 25
26.853001 -1.201 -1.23 76
30.042 -1.317 -0.87199998 50
30.646 -1.319 -0.37799999 77
30.936001 -1.306 0.133 70
22.662001 -0.93800002 -1.687 16
26.964001 -1.092 -1.5549999 52
26.833 -1.063 -1.097 78
30.559 -1.1849999 -0.74000001 77
30.621 -1.1619999 -0.23199999 67
31.042 -1.151 0.28 70
24.357 -0.88300002 -1.694 11
26.830999 -0.949 -1.4170001 78
26.757999 -0.92199999 -0.96600002 56
30.563999 -1.028 -0.59600002 69
30.666 -1.005 -0.088 66
31.291 -0.99900001 0.426 49
26.101 -0.81099999 -1.691 24
26.726 -0.80699998 -1.285 81
27.087 -0.792 -0.85100001 2
30.516001 -0.866 -0.45300001 67
30.695999 -0.84399998 0.052000001 75
31.618 -0.84200001 0.57599998 3
26.747 -0.69 -1.6059999 32
26.736 -0.66500002 -1.161 73
30.325001 -0.727 -0.81400001 73
30.488001 -0.704 -0.31400001 74
30.868 -0.68400002 0.192 74
135.04601 -2.878 3.0639999 41
26.834 -0.54799998 -1.487 57
26.580999 -0.51800001 -1.0319999 78
30.493 -0.56800002 -0.68099999 72
30.516001 -0.54000002 -0.178 74
31.138 -0.52399999 0.329 63
0 0 0 0
26.672001 -0.40200001 -1.358 78
26.736 -0.37900001 -0.921 33
30.608999 -0.405 -0.55000001 47
30.620001 -0.377 -0.046 78
31.451 -0.359 0.46799999 35
83.417999 -0.87800002 2.6099999 37
26.549 -0.25400001 -1.234 74
29.540001 -0.25600001 -0.88800001 38
30.521999 -0.236 -0.41600001 53
30.768 -0.20900001 0.083999999 77
83.385002 -0.49000001 1.596 49
83.157997 -0.414 2.9519999 26
26.549 -0.108 -1.12 57
30.671 -0.096000001 -0.792 44
30.573999 -0.067000002 -0.28799999 66
31.066 -0.039999999 0.214 81
92.976997 -0.032000002 2.161 36
83.280998 0.050000001 3.2969999 4
26.516001 0.039000001 -1.008 63
30.594 0.075000003 -0.662 64
30.708 0.105 -0.162 72
31.488001 0.138 0.347 43
93.031998 0.498 2.543 150
83.351997 0.52700001 3.6389999 10
0 0 0 0
30.702 0.25099999 -0.53799999 72
30.936001 0.28099999 -0.039000001 79
50.888 0.51300001 0.76300001 75
98.455002 1.092 3.0829999 9
83.107002 1.0039999 3.9560001 7
0 0 0 0
30.917999 0.43099999 -0.419 61
31.406 0.46799999 0.083999999 71
51.009998 0.81099999 0.96600002 59
116.998 1.973 4.1149998 58
116.609 2.0829999 5.9970002 24
29.596001 0.55699998 -0.764 1
31.132 0.61699998 -0.29899999 68
40.022999 0.833 0.26300001 48
40.987999 0.89200002 0.93300003 14
0 0 0 0
117.501 2.7950001 6.487 27
31.429001 0.77700001 -0.69099998 56
31.731001 0.81599998 -0.184 37
39.543999 1.056 0.40900001 47
40.563 1.123 1.074 59
116.204 3.336 4.96 26
83.556 2.4849999 4.9200001 42
32.722 1.0039999 -0.597 0
39.278 1.245 -0.082999997 55
39.25 1.283 0.54900002 54
40.258999 1.357 1.214 60
116.925 4.0630002 5.415 32
82.987999 2.971 5.1849999 21
39.285999 1.443 -0.574 54
38.877998 1.466 0.057 53
39.094002 1.5140001 0.68699998 59
39.792 1.582 1.34 57
120.52 4.9239998 6.007 38
126.222 5.296 8.3330002 36
38.778999 1.663 -0.42699999 47
38.594002 1.694 0.193 71
38.862999 1.744 0.81800002 54
39.691002 1.822 1.474 57
0 0 0 0
97.335999 4.6820002 6.756 29
30.216 1.4809999 -0.229 48
38.441002 1.924 0.324 65
38.766998 1.98 0.94800001 53
39.549999 2.062 1.602 56
0 0 0 0
97.57 5.2950001 7.0910001 40
29.955999 1.655 -0.127 55
30.319 1.707 0.35600001 32
27.108999 1.554 0.75199997 75
27.042999 1.5779999 1.183 64
0 0 0 0
97.649002 5.9109998 7.4099998 18
29.761 1.831 -0.029999999 47
26.889999 1.682 0.40099999 0
26.950001 1.714 0.83200002 70
26.919001 1.74 1.262 39
0 0 0 0
0 0 0 0
29.541 2.0039999 0.061999999 55
26.85 1.85 0.484 7
26.812 1.876 0.91100001 103
39.622002 2.8139999 1.979 56
0 0 0 0
0 0 0 0
29.525999 2.1930001 0.152 47
30.082001 2.2650001 0.63300002 51
38.514999 2.9419999 1.424 51
39.617001 3.069 2.0969999 36
0 0 0 0
0 0 0 0
29.417 2.372 0.236 56
30.089001 2.4579999 0.71899998 48
38.484001 3.1849999 1.5319999 49
39.798 3.336 2.2179999 13
0 0 0 0
0 0 0 0
29.465 2.566 0.31900001 51
30.15 2.658 0.80400002 52
38.479 3.4330001 1.638 53
40.150002 3.6270001 2.348 3
0 0 0 0
0 0 0 0
29.42 2.7550001 0.39899999 53
30.110001 2.8499999 0.884 32
38.556 3.6919999 1.744 53
217.933 21.117001 13.323 28
0 0 0 0
0 0 0 0
29.584999 2.9679999 0.479 39
30.238001 3.0650001 0.96700001 7
38.633999 3.9590001 1.848 54
216.493 22.431999 13.795 28
0 0 0 0
0 0 0 0
29.535 3.161 0.55299997 45
30.402 3.2850001 1.048 3
38.745998 4.2290001 1.949 49
120.791 13.323 7.994 33
0 0 0 0
0 0 0 0
29.582001 3.3629999 0.62400001 52
37.955002 4.3540001 1.398 70
38.987999 4.5139999 2.052 55
120.691 14.115 8.2679996 32
0 0 0 0
0 0 0 0
29.739 3.5810001 0.69599998 52
38.012001 4.618 1.488 56
39.097 4.7919998 2.1470001 44
102.115 12.631 7.2259998 18
0 0 0 0
0 0 0 0
30.046 3.822 0.76800001 38
38.078999 4.8829999 1.572 52
39.585999 5.1230001 2.2590001 17
96.222 12.561 7.0149999 35
220.35699 29.042999 19.573 51
0 0 0 0
30.264 4.0570002 0.83700001 29
38.198002 5.1620002 1.6569999 61
40.015999 5.4530001 2.3670001 2
93.223999 12.815 6.9889998 39
100.207 13.894 9.1040001 23
0 0 0 0
37.706001 5.3179998 1.118 70
38.321999 5.4460001 1.738 53
91.303001 13.08 5.5809999 29
92.679001 13.387 7.131 19
92.585999 13.489 8.5939999 25
0 0 0 0
37.821999 5.598 1.192 66
38.580002 5.7519999 1.822 54
89.432999 13.435 5.6329999 30
89.511002 13.554 7.053 33
91.932999 14.032 8.7030001 32
0 0 0 0
37.978001 5.8870001 1.265 36
38.894001 6.0700002 1.905 56
88.959 13.981 5.757 29
88.947998 14.086 7.1620002 34
91.955002 14.678 8.8640003 35
0 0 0 0
38.113998 6.177 1.3329999 45
39.230999 6.3990002 1.9859999 57
89.047997 14.627 5.9109998 28
88.759003 14.687 7.2940001 29
91.772003 15.303 8.9980001 39
0 0 0 0
38.277 6.474 1.397 53
39.521 6.7259998 2.062 18
89.010002 15.25 6.0440001 10
89.181 15.384 7.4640002 47
91.716003 15.942 9.1350002 33
0 0 0 0
38.577999 6.7979999 1.464 55
40.902 7.2519999 2.1930001 1
89.323997 15.942 6.1950002 35
90.797997 16.312 7.7319999 21
91.667 16.586 9.2600002 33
0 0 0 0
38.890999 7.1350002 1.529 55
95.069 17.540001 5.2270002 30
89.087997 16.540001 6.2989998 47
90.954002 16.993999 7.868 40
91.536003 17.222 9.3710003 18
0 0 0 0
39.535999 7.5370002 1.602 58
95.296997 18.271999 5.355 12
91.523003 17.65 6.5819998 28
92.376999 17.929001 8.1029997 28
92.271004 18.032 9.5620003 9
0 0 0 0
40.242001 7.9640002 1.677 9
95.628998 19.025 5.4829998 12
91.958 18.402 6.7189999 30
215.44501 43.380001 19.146 50
0 0 0 0
0 0 0 0
0 0 0 0
102.135 21.062 5.9580002 14
102.1 21.173 7.5619998 29
215.18201 44.898998 19.348 36
0 0 0 0
0 0 0 0
109.407 23.236 4.7670002 12
96.707001 20.646999 5.7319999 20
96.769997 20.768 7.2589998 32
103.75 22.395 9.4230003 29
0 0 0 0
0 0 0 0
0 0 0 0
95.023003 20.983999 5.7069998 43
95.300003 21.156 7.224 36
96.149002 21.459 8.8100004 42
0 0 0 0
0 0 0 0
95.203003 21.631001 4.2940001 16
94.766998 21.634001 5.7600002 31
94.959 21.783001 7.2680001 38
95.922997 22.124001 8.8599997 28
0 0 0 0
0 0 0 0
94.478996 22.166 4.316 18
93.766998 22.103001 5.757 41
94.746002 22.443001 7.3099999 29
95.168999 22.663 8.8500004 40
0 0 0 0
0 0 0 0
93.719002 22.693001 4.3270001 9
92.144997 22.41 5.6999998 11
92.896004 22.702999 7.2150002 21
96.237999 23.636 9.0010004 34
0 0 0 0
0 0 0 0
0 0 0 0
91.625999 22.975 5.7049999 41
91.832001 23.136 7.1700001 36
93.153999 23.577999 8.7480001 12
0 0 0 0
0 0 0 0
110.389 28.393999 5.1719999 9
91.5 23.632 5.724 38
91.183998 23.650999 7.145 44
99.164001 25.844999 9.3450003 27
101.277 26.533001 11.16 11
0 0 0 0
92.858002 24.584 4.3639998 16
90.985001 24.177999 5.7069998 41
91.194 24.337999 7.1620002 33
91.836998 24.628 8.6750002 22
104.518 28.166 11.543 15
0 0 0 0
92.808998 25.27 4.369 33
90.975998 24.865 5.7150002 20
91.178001 25.024 7.1700001 22
91.917999 25.341999 8.6899996 12
100.228 27.77 11.079 27
0 0 0 0
0 0 0 0
90.208 25.344999 5.664 37
97.206001 27.417 7.645 7
91.470001 25.913 8.6499996 33
94.799004 26.986 10.482 13
0 0 0 0
0 0 0 0
89.901001 25.941 5.631 19
90.629997 26.249001 7.1149998 16
89.323997 25.985001 8.4399996 18
0 0 0 0
0 0 0 0
87.468002 25.823999 4.0760002 13
89.466003 26.499001 5.5840001 18
88.189003 26.219999 6.9039998 23
90.984001 27.163 8.5749998 12
88.075996 26.419001 9.7180004 18
0 0 0 0
87.406998 26.481001 4.0419998 17
89.946999 27.334999 5.5830002 18
88.693001 27.052999 6.915 23
89.096001 27.281 8.3719997 36
68.392998 21.035 7.5250001 14
0 0 0 0
87.483002 27.17 4.0029998 11
88.988998 27.724001 5.4819999 17
89.074997 27.853001 6.908 6
85.849998 26.950001 8.0319996 8
88.067001 27.764999 9.6560001 22
87.903999 27.844999 11.06 20
69.407997 22.094999 3.1359999 27
90.301003 28.833 5.513 9
87.425003 28.004999 6.7319999 6
69.540001 22.361 6.4689999 66
87.808998 28.358 9.5869999 8
87.524002 28.392 10.975 23
70.094002 22.854 3.1210001 25
88.672997 28.990999 5.3579998 20
88.477997 29.023001 6.7589998 21
85.350998 28.101 7.8899999 10
88.436996 29.232 9.6040001 9
86.637001 28.767 10.814 32
97.612 32.577999 4.2670002 7
87.676003 29.344 5.2280002 25
92.061996 30.913 6.9650002 12
84.969002 28.629999 7.796 15
86.685997 29.325001 9.3549995 35
85.929001 29.191999 10.671 28
94.362999 32.224998 4.0430002 23
88.012001 30.136 5.1739998 17
