# .PCD v0.7 - Point Cloud Data file format
VERSION 0.7
FIELDS x y z intensity
SIZE 4 4 4 4
TYPE F F F F
COUNT 1 1 1 1
WIDTH 1815
HEIGHT 1
VIEWPOINT 0 0 0 1 0 0 0
POINTS 1815
DATA ascii
13.724 -7.4549999 -1.7640001 8
8.1440001 -4.5580001 -1.844 7
8.8629999 -4.915 -1.818 7
9.7930002 -5.3860002 -1.804 7
10.917 -5.9580002 -1.786 9
12.387 -6.7129998 -1.774 7
14.408 -7.7579999 -1.776 20
8.3299999 -4.619 -1.8380001 6
9.1009998 -5.0009999 -1.816 7
10.049 -5.4759998 -1.795 8
11.288 -6.1040001 -1.785 7
12.844 -6.8979998 -1.772 7
14.66 -7.8239999 -1.7309999 43
8.5279999 -4.6830001 -1.8329999 7
9.3389997 -5.0819998 -1.8099999 7
10.357 -5.5900002 -1.794 7
11.654 -6.243 -1.781 8
13.339 -7.0970001 -1.771 8
15.423 -8.1540003 -1.7410001 10
8.7379999 -4.7509999 -1.8279999 8
9.5819998 -5.164 -1.8049999 7
10.653 -5.6950002 -1.7869999 8
12.032 -6.3839998 -1.774 9
13.978 -7.3660002 -1.7819999 22
16.121 -8.4440002 -1.738 10
8.948 -4.8150001 -1.822 7
9.8389997 -5.2490001 -1.799 7
10.988 -5.8150001 -1.784 7
12.46 -6.546 -1.773 7
14.186 -7.401 -1.7359999 42
16.948999 -8.7889996 -1.742 8
9.1759996 -4.8870001 -1.817 7
10.135 -5.3509998 -1.798 6
11.352 -5.9450002 -1.7819999 8
12.906 -6.7090001 -1.767 7
14.909 -7.6989999 -1.747 10
17.775999 -9.1239996 -1.7359999 10
9.4309998 -4.9679999 -1.814 7
10.418 -5.441 -1.791 7
11.711 -6.0669999 -1.777 8
13.548 -6.9679999 -1.785 29
15.493 -7.9159999 -1.7359999 10
18.614 -9.4530001 -1.724 8
9.6820002 -5.0440001 -1.809 6
10.712 -5.533 -1.783 7
12.105 -6.2030001 -1.772 6
13.723 -6.9819999 -1.737 36
16.233999 -8.2040005 -1.737 10
19.573 -9.8330002 -1.716 5
9.9449997 -5.1209998 -1.803 6
11.038 -5.6360002 -1.778 7
12.535 -6.3509998 -1.7690001 7
14.442 -7.2649999 -1.7539999 9
17.09 -8.5419998 -1.744 10
20.617001 -10.243 -1.706 4
10.214 -5.1989999 -1.798 6
11.401 -5.7550001 -1.777 6
13.116 -6.5689998 -1.784 25
15.013 -7.4650002 -1.748 9
17.9 -8.8439999 -1.737 9
21.73 -10.672 -1.692 4
10.512 -5.2859998 -1.793 6
11.756 -5.8629999 -1.771 6
13.282 -6.573 -1.738 32
15.562 -7.6469998 -1.734 10
18.674 -9.1169996 -1.72 6
23.046 -11.186 -1.6849999 4
10.823 -5.375 -1.789 6
12.137 -5.9790001 -1.766 6
13.994 -6.842 -1.762 8
16.280001 -7.9039998 -1.734 10
19.580999 -9.4460001 -1.71 5
24.372 -11.689 -1.666 4
11.132 -5.46 -1.7819999 7
12.691 -6.1739998 -1.7819999 26
14.486 -6.994 -1.751 9
17.017 -8.158 -1.729 10
20.555 -9.7919998 -1.697 5
26.1 -12.363 -1.6619999 4
11.48 -5.5580001 -1.779 7
12.886 -6.1880002 -1.744 43
15.039 -7.1680002 -1.743 9
17.899 -8.4720001 -1.733 8
21.790001 -10.25 -1.698 4
27.909 -13.052 -1.649 3
11.85 -5.6609998 -1.776 5
13.459 -6.3779998 -1.755 8
15.646 -7.3600001 -1.739 10
18.747999 -8.7589998 -1.726 7
22.947001 -10.654 -1.6799999 4
29.723 -13.721 -1.619 3
12.323 -5.8060002 -1.784 29
13.979 -6.5349998 -1.7539999 8
16.291 -7.5599999 -1.733 10
19.634001 -9.0500002 -1.717 6
24.142 -11.059 -1.6569999 4
31.867001 -14.515 -1.594 1
12.479 -5.7989998 -1.745 27
14.476 -6.6750002 -1.747 8
17.037001 -7.7979999 -1.732 10
20.620001 -9.375 -1.707 5
25.98 -11.74 -1.666 4
0 0 0 0
13.061 -5.9840002 -1.7640001 7
14.999 -6.8179998 -1.739 9
17.808001 -8.0360003 -1.728 9
21.546 -9.658 -1.686 4
27.788 -12.38 -1.659 4
0 0 0 0
13.523 -6.1059999 -1.761 8
15.563 -6.973 -1.7309999 10
18.646 -8.2939997 -1.725 7
22.783001 -10.066 -1.682 4
0 0 0 0
39.752998 -17.360001 -1.471 1
13.98 -6.2189999 -1.755 8
16.158001 -7.1329999 -1.725 11
19.475 -8.5349998 -1.714 6
24.030001 -10.463 -1.67 4
0 0 0 0
0 0 0 0
14.481 -6.3460002 -1.752 9
16.872 -7.3369999 -1.725 9
20.381001 -8.8000002 -1.705 6
25.351999 -10.872 -1.653 4
0 0 0 0
0 0 0 0
14.968 -6.4569998 -1.743 9
17.573999 -7.5229998 -1.7180001 10
21.288 -9.0489998 -1.688 5
27.254999 -11.507 -1.6619999 4
36.419998 -15.284 -1.557 1
59.348 -24.767 -1.462 2
15.548 -6.5999999 -1.742 9
18.365 -7.737 -1.716 8
22.406 -9.3730001 -1.682 5
28.818001 -11.976 -1.637 4
0 0 0 0
59.993 -24.645 -1.24 12
16.127001 -6.7350001 -1.7359999 10
19.209 -7.9619999 -1.714 9
23.587 -9.7069998 -1.673 4
31.535 -12.893 -1.664 1
0 0 0 0
60.460999 -24.440001 -1.0190001 41
16.746 -6.8790002 -1.732 11
20.035 -8.1689997 -1.705 7
24.813999 -10.045 -1.659 5
0 0 0 0
46.759998 -18.695999 -1.4450001 1
60.842999 -24.191999 -0.79299998 17
17.416 -7.0349998 -1.729 11
20.903 -8.3789997 -1.694 6
26.101 -10.389 -1.643 3
0 0 0 0
0 0 0 0
64.290001 -25.132 -0.60100001 8
18.138 -7.1999998 -1.727 11
21.805 -8.5900002 -1.681 6
28.058001 -10.976 -1.658 5
0 0 0 0
0 0 0 0
66.337997 -25.488001 -0.37900001 10
18.891001 -7.3660002 -1.724 10
22.806999 -8.8260002 -1.67 5
29.479 -11.328 -1.63 3
0 0 0 0
54.028999 -20.504999 -1.071 5
70.445999 -26.587999 -0.154 36
19.709 -7.5469999 -1.722 10
24.004 -9.1230001 -1.666 5
31.414 -11.855 -1.6210001 6
0 0 0 0
54.337002 -20.254999 -0.88700002 150
70.705002 -26.209 0.086999997 7
20.462 -7.6900001 -1.71 9
25.152 -9.3830004 -1.655 5
0 0 0 0
0 0 0 0
54.390999 -19.9 -0.70099998 66
54.577999 -19.857 0.249 20
21.329 -7.8660002 -1.705 8
26.48 -9.6929998 -1.647 5
0 0 0 0
0 0 0 0
54.554001 -19.586 -0.52200001 65
66.718002 -23.822001 0.51899999 29
22.167999 -8.0190001 -1.693 7
14.916 -5.355 -0.87599999 5
0 0 0 0
54.838001 -19.422001 -1.3 5
69.830002 -24.584999 -0.44299999 38
92.135002 -32.256001 1.012 9
14.89 -5.2789998 -1.084 80
14.96 -5.2649999 -0.82800001 37
14.549 -5.0840001 -0.551 0
62.216999 -21.601999 -1.273 5
69.842003 -24.098 -0.221 33
0 0 0 0
14.815 -5.1459999 -1.029 65
14.624 -5.0409999 -0.75999999 70
14.556 -4.9829998 -0.50400001 54
14.641 -4.9790001 -0.25299999 3
70.015999 -23.667 -0.0040000002 13
92.655998 -31.146999 1.5829999 17
14.593 -4.9640002 -0.96499997 75
14.527 -4.9050002 -0.70899999 93
14.608 -4.8979998 -0.46000001 67
14.659 -4.882 -0.20900001 3
70.429001 -23.311001 0.20200001 4
104.359 -34.348999 2.0829999 27
14.546 -4.8429999 -0.91600001 145
14.555 -4.8099999 -0.66500002 87
14.844 -4.8709998 -0.42300001 22
67.426003 -21.98 -0.76499999 6
118.015 -38.223 0.67900002 11
104.311 -33.59 2.3789999 42
14.537 -4.7340002 -0.87 126
14.564 -4.7069998 -0.62099999 49
14.673 -4.7090001 -0.375 0
69.474998 -22.153999 -0.59200001 38
76.889999 -24.365999 0.65399998 16
64.636002 -20.364 1.647 38
14.553 -4.6350002 -0.82800001 33
14.689 -4.6440001 -0.58499998 81
48.695 -15.285 -1.109 151
64.653999 -20.155001 -0.375 61
64.678001 -20.042 0.72100002 35
0 0 0 0
14.73 -4.585 -0.79699999 43
15.523 -4.7950001 -0.57499999 1
48.997002 -15.03 -0.986 13
49.174 -14.983 -0.156 57
76.444 -23.143999 1.048 11
105.568 -31.778 3.223 38
31.493 -9.5760002 -1.617 5
0 0 0 0
49.528999 -14.835 -0.86699998 34
71.060997 -21.139 -0.045000002 20
105.772 -31.268999 1.709 30
105.905 -31.121 3.49 29
32.708 -9.7069998 -1.5930001 5
38.403999 -11.31 -1.222 57
64.710999 -18.917999 -0.97000003 6
117.791 -34.205002 0.20900001 11
76.737999 -22.139999 1.4220001 16
106.487 -30.538 3.756 28
34.212002 -9.9020004 -1.579 4
36.673 -10.534 -1.077 52
68.527 -19.539 -0.86400002 13
117.99 -33.414001 0.48199999 19
76.875 -21.629 1.598 15
119.687 -33.473999 4.48 15
36.362999 -10.262 -1.591 17
35.855 -10.04 -0.96799999 49
40.137001 -11.157 -0.41499999 70
38.543999 -10.639 0.243 3
104.085 -28.542 2.3900001 27
118.074 -32.182999 4.6690001 11
35.577 -9.7840004 -1.474 46
35.626999 -9.717 -0.88200003 22
38.369999 -10.388 -0.31299999 59
37.258999 -10.018 0.31299999 4
104.746 -27.975 2.6170001 33
119.361 -31.679001 4.9580002 38
35.290001 -9.4460001 -1.385 8
36.570999 -9.7110004 -0.82800001 21
36.727001 -9.6789999 -0.223 14
91.875999 -24.039 0.95999998 15
121.636 -31.615999 3.2780001 16
73.446999 -18.966 3.1889999 22
35.455002 -9.2290001 -1.316 66
37.896999 -9.7869997 -0.78100002 49
45.950001 -11.776 -0.189 45
106.383 -27.066 1.314 9
72.721001 -18.378 2.0929999 7
72.792 -18.277 3.2920001 20
35.618999 -9.0089998 -1.251 71
42.577 -10.683 -0.796 51
46.624001 -11.608 -0.105 1
0 0 0 0
73.374001 -18.011 2.2409999 22
73.246002 -17.861 3.437 26
35.709999 -8.7720003 -1.187 82
0 0 0 0
47.512001 -11.488 -0.024 27
47.187 -11.324 0.74699998 13
72.862999 -17.365999 2.3440001 36
72.130997 -17.08 3.497 39
35.879002 -8.5559998 -1.13 79
45.895 -10.853 -0.69599998 39
89.922997 -21.09 0.1 6
73.334999 -17.069 1.277 5
72.855003 -16.837999 2.454 10
73.158997 -16.792999 3.6559999 22
36.042 -8.3290005 -1.076 80
46.522999 -10.662 -0.63200003 26
49.018002 -11.142 0.13 31
68.162003 -15.378 1.2869999 3
68.271004 -15.286 2.3989999 19
68.338997 -15.198 3.5090001 5
36.268002 -8.1190004 -1.027 76
48.661999 -10.799 -0.58899999 12
97.038002 -21.353001 0.39500001 13
77.767998 -16.978001 1.576 14
74.314003 -16.106001 2.7079999 39
90.167 -19.402 4.744 21
31.913 -6.9089999 -0.85799998 1
49.734001 -10.672 -0.53299999 14
50.207001 -10.685 0.271 39
78.330002 -16.533001 1.6849999 15
74.102997 -15.521 2.79 15
77.396004 -16.093 4.1630001 14
31.806 -6.6529999 -0.81300002 14
50.612999 -10.492 -0.47999999 18
50.712002 -10.425 0.33399999 8
89.698997 -18.292 2.033 34
78.998001 -15.984 3.0610001 12
79.095001 -15.884 4.3369999 18
31.753 -6.4120002 -0.77399999 8
51.012001 -10.208 -0.42500001 2
51.417999 -10.197 0.39399999 4
90.820999 -17.864 2.1530001 26
102.245 -19.945 4.0650001 14
102.601 -19.865999 5.723 20
31.827999 -6.1929998 -0.741 3
51.714001 -9.9689999 -0.37799999 42
51.872002 -9.9130001 0.449 13
90.510002 -17.148001 2.2320001 8
0 0 0 0
102.74 -19.153 5.8169999 8
32.455002 -6.0780001 -0.72500002 2
74.704002 -13.858 -0.47799999 21
183.832 -33.799 1.752 26
0 0 0 0
0 0 0 0
0 0 0 0
32.666 -5.8800001 -0.70099998 0
38.783001 -6.9130001 -0.21699999 37
52.943001 -9.3479996 0.54500002 9
87.185997 -15.255 2.2839999 39
0 0 0 0
0 0 0 0
38.890999 -6.717 -0.80699998 15
38.824001 -6.638 -0.19 40
76.109001 -12.892 0.833 6
87.089996 -14.611 2.3329999 30
0 0 0 0
72.038002 -11.874 4.2150002 14
38.706001 -6.402 -0.77899998 46
38.832001 -6.3579998 -0.168 22
88.515999 -14.35 1.016 10
87.617996 -14.068 2.392 18
72.491997 -11.532 3.1259999 25
73.018997 -11.512 4.302 14
39.208 -6.198 -0.76899999 44
39.698002 -6.21 -0.153 27
72.391998 -11.211 0.86199999 54
88.299004 -13.539 2.444 32
0 0 0 0
71.720001 -10.788 4.2480001 32
39.695999 -5.9860001 -0.76300001 60
39.471001 -5.8870001 -0.138 56
124.512 -18.381001 1.521 9
88.316002 -12.904 2.4679999 10
130.543 -18.889999 5.7030001 40
131.278 -18.82 7.803 23
39.474998 -5.671 -0.74800003 57
39.403 -5.599 -0.12899999 62
0 0 0 0
133.20799 -18.521 3.7449999 55
129.72099 -17.844 5.6820002 34
131.03799 -17.851 7.7989998 34
39.285 -5.3600001 -0.73900002 53
39.463001 -5.323 -0.125 56
143.99699 -19.211 1.7970001 12
0 0 0 0
74.810997 -9.7639999 3.2780001 5
130.995 -16.917999 7.7950001 18
39.490002 -5.105 -0.741 56
39.605 -5.0580001 -0.124 56
91.176003 -11.512 1.136 44
74.411003 -9.283 2.089 7
74.242996 -9.1610003 3.2460001 24
74.209 -9.0570002 4.4060001 39
39.772999 -4.8559999 -0.74900001 39
74.255997 -8.9530001 -0.242 18
142.842 -17.009001 1.76 27
132.90601 -15.629 3.7079999 13
131.202 -15.253 5.7090001 23
131.98399 -15.167 7.8039999 54
39.535 -4.5440001 -0.75300002 8
81.261002 -9.217 -0.28400001 44
84.959 -9.5120001 1.024 13
132.707 -14.669 3.6659999 10
133.998 -14.635 5.789 33
134.02299 -14.46 7.8800001 25
39.355 -4.2420001 -0.76099998 23
83.513 -8.8780003 -0.31900001 41
83.427002 -8.7480001 0.97399998 20
132.183 -13.676 3.598 44
0 0 0 0
133.991 -13.511 7.816 40
46.652 -4.6960001 -0.92199999 11
80.939003 -8.033 -0.347 8
83.559998 -8.1739998 0.93599999 24
133.004 -12.827 3.5539999 36
133.334 -12.668 5.631 29
133.561 -12.523 7.7150002 23
47.331001 -4.4260001 -0.96200001 5
80.844002 -7.447 -0.39300001 37
85.495003 -7.756 0.90700001 21
133.12 -11.895 3.474 18
134.089 -11.804 5.5770001 18
75.903 -6.5809999 4.3330002 11
33.773998 -2.918 -0.70899999 53
33.98 -2.8889999 -0.18799999 6
85.292 -7.1329999 0.84399998 47
0 0 0 0
75.926003 -6.152 3.0999999 16
0 0 0 0
33.335999 -2.6470001 -0.72500002 62
33.389999 -2.605 -0.211 58
85.577003 -6.5650001 0.77700001 34
134.815 -10.157 3.3039999 18
135.46899 -10.031 5.4130001 24
75.463997 -5.4959998 4.1820002 12
33.085999 -2.395 -0.74900001 63
33.132999 -2.3529999 -0.23999999 60
33.616001 -2.3429999 0.273 40
138.651 -9.4919996 3.2679999 14
0 0 0 0
0 0 0 0
32.863998 -2.1500001 -0.77700001 55
32.898998 -2.108 -0.27200001 63
33.237999 -2.0840001 0.235 60
138.533 -8.5089998 3.1159999 58
139.024 -8.3640003 5.2690001 19
142.49001 -8.4029999 7.598 15
32.43 -1.893 -0.80400002 50
32.694 -1.865 -0.308 76
33.002998 -1.839 0.19499999 70
137.981 -7.5139999 2.9389999 52
138.905 -7.3969998 5.098 42
142.672 -7.4239998 7.4330001 27
32.004002 -1.6440001 -0.833 61
32.591 -1.6339999 -0.34799999 71
32.891998 -1.607 0.153 67
0 0 0 0
0 0 0 0
0 0 0 0
29.218 -1.2970001 -0.801 2
32.577999 -1.405 -0.39300001 54
32.742001 -1.372 0.106 67
33.570999 -1.3660001 0.62400001 4
136.291 -5.3870001 4.631 19
138.938 -5.3260002 6.8559999 25
28.833 -1.084 -0.83200002 18
32.515999 -1.1799999 -0.44100001 59
32.668999 -1.145 0.057 76
33.466999 -1.133 0.57200003 17
137.242 -4.4829998 4.4530001 14
138.455 -4.3590002 6.618 17
28.797001 -0.88300002 -0.87699997 31
32.514999 -0.95599997 -0.493 63
32.606998 -0.91900003 0.0040000002 71
33.436001 -0.90399998 0.51700002 39
85.43 -2.21 2.632 12
128.578 -3.1760001 5.934 49
28.716999 -0.685 -0.92400002 32
32.465 -0.73299998 -0.54799998 66
32.632 -0.69800001 -0.050999999 70
33.384998 -0.67400002 0.458 40
85.432999 -1.625 2.4809999 9
84.779999 -1.515 3.7620001 7
28.643 -0.48500001 -0.97399998 50
32.536999 -0.514 -0.60900003 75
32.676998 -0.47799999 -0.111 71
33.417999 -0.44999999 0.39700001 52
94.931999 -1.176 2.5840001 96
84.559998 -0.954 3.598 5
28.493 -0.292 -1.024 62
32.717999 -0.29800001 -0.67500001 62
32.789001 -0.26100001 -0.175 72
33.499001 -0.228 0.333 40
95.027 -0.54500002 2.401 81
118.869 -0.54799998 4.8239999 18
28.440001 -0.101 -1.08 78
32.814999 -0.079999998 -0.74400002 64
32.952 -0.043000001 -0.243 67
33.647999 -0.0070000002 0.266 40
53.435001 0.046 1.24 9
119.001 0.23100001 4.586 36
28.360001 0.086999997 -1.138 60
31.006001 0.13 -0.76999998 34
33.209 0.17399999 -0.31600001 61
33.948002 0.21799999 0.19400001 1
42.689999 0.322 0.89700001 49
140.10899 1.204 5.092 11
28.302999 0.27700001 -1.201 70
0 0 0 0
33.881001 0.40400001 -0.40000001 40
41.389 0.53799999 0.14300001 54
41.651001 0.588 0.78100002 52
43.070999 0.65499997 1.466 19
28.290001 0.465 -1.268 65
28.93 0.50599998 -0.85399997 34
41.481998 0.76899999 -0.58999997 45
40.966 0.80299997 0.043000001 57
41.164001 0.85100001 0.67299998 60
41.796001 0.91000003 1.322 56
28.261999 0.65200001 -1.3380001 60
28.299999 0.68199998 -0.90700001 53
34.678001 0.87199998 -0.57999998 2
40.702999 1.064 -0.057 58
40.744999 1.108 0.565 57
41.228001 1.1619999 1.2029999 52
28.414 0.84100002 -1.419 53
28.127001 0.86299998 -0.97500002 69
32.271 1.02 -0.62400001 48
32.299999 1.052 -0.12899999 38
40.516998 1.364 0.456 52
40.84 1.415 1.085 52
28.256001 1.02 -1.489 50
28.062 1.041 -1.048 82
31.799 1.211 -0.70099998 37
31.91 1.25 -0.21600001 36
32.169998 1.291 0.27500001 37
29.122 1.198 0.69400001 62
28.122999 1.199 -1.562 23
28.075001 1.224 -1.1289999 75
30.931999 1.378 -0.76999998 40
29.122999 1.325 -0.278 22
29.093 1.352 0.167 148
28.986 1.376 0.61000001 58
27.728001 1.36 -1.622 27
28.049999 1.401 -1.21 83
0 0 0 0
31.405001 1.6289999 -0.391 46
31.555 1.666 0.090000004 53
32.049 1.722 0.583 50
26.277 1.456 -1.617 8
28.063999 1.58 -1.296 72
28.098 1.6059999 -0.86500001 58
31.273001 1.817 -0.48300001 50
31.400999 1.853 -0.003 45
31.732 1.903 0.48199999 51
24.813 1.531 -1.6059999 7
28.073999 1.757 -1.385 71
27.974001 1.775 -0.949 69
31.225 2.0090001 -0.57999998 42
31.243999 2.0409999 -0.101 52
31.518999 2.0869999 0.38100001 54
23.688 1.6109999 -1.6109999 10
28.083 1.934 -1.477 35
27.976 1.951 -1.041 61
31.118999 2.1960001 -0.67799997 43
31.146 2.227 -0.20100001 49
31.337999 2.2690001 0.278 56
22.541 1.674 -1.61 17
27.906 2.096 -1.562 27
28.142 2.138 -1.141 39
30.740999 2.3599999 -0.773 50
31.087999 2.414 -0.30399999 50
31.233 2.4530001 0.17399999 51
21.429001 1.725 -1.605 17
27.124001 2.204 -1.613 18
27.981001 2.296 -1.2309999 62
0 0 0 0
31.014 2.5969999 -0.40900001 50
31.155001 2.638 0.067000002 46
20.524 1.779 -1.612 16
25.038 2.1889999 -1.579 7
27.950001 2.4649999 -1.33 59
27.889 2.483 -0.89600003 66
30.995001 2.7839999 -0.51800001 52
31.249001 2.8340001 -0.041000001 34
19.573999 1.816 -1.6109999 14
23.747 2.2219999 -1.586 9
28.129 2.652 -1.442 48
27.892 2.652 -0.99800003 58
31.035999 2.977 -0.63300002 53
31.031 3.0020001 -0.154 58
18.743 1.854 -1.615 13
22.462 2.2390001 -1.586 13
27.924 2.802 -1.5369999 30
27.85 2.816 -1.102 66
30.781 3.1359999 -0.741 61
31.1 3.194 -0.26899999 44
17.979 1.886 -1.619 12
21.323 2.2520001 -1.5880001 16
0 0 0 0
27.927 2.9890001 -1.212 63
0 0 0 0
31.007 3.368 -0.38699999 50
17.231001 1.911 -1.622 11
20.32 2.267 -1.596 15
25.145 2.822 -1.582 6
28.011 3.1630001 -1.326 62
27.858 3.1659999 -0.88599998 59
31.186001 3.5680001 -0.50999999 44
16.603001 1.9400001 -1.632 10
19.323 2.27 -1.597 14
23.694 2.799 -1.5880001 9
28.066999 3.3329999 -1.442 47
27.85 3.3280001 -0.99900001 60
31.252001 3.7579999 -0.63700002 34
15.939 1.957 -1.635 11
18.405001 2.27 -1.599 12
22.223 2.7539999 -1.582 12
27.865999 3.471 -1.549 28
27.969999 3.5020001 -1.118 49
30.766001 3.875 -0.75199997 38
15.337 1.971 -1.64 12
17.632 2.277 -1.608 11
21.024 2.7249999 -1.586 16
0 0 0 0
27.809999 3.641 -1.228 57
27.837 3.6630001 -0.79500002 36
14.73 1.978 -1.641 12
16.893 2.277 -1.615 11
19.959 2.701 -1.5930001 15
24.454 3.3239999 -1.568 6
28.040001 3.8280001 -1.359 50
27.816 3.8169999 -0.91399997 60
14.195 1.987 -1.646 12
16.186001 2.273 -1.62 11
18.907 2.665 -1.594 13
22.927999 3.2449999 -1.571 9
27.969 3.9749999 -1.478 24
27.802 3.9690001 -1.034 61
13.693 1.994 -1.651 12
15.537 2.2690001 -1.627 12
18.052 2.645 -1.604 12
21.552 3.1700001 -1.574 17
27.551001 4.0669999 -1.579 17
27.868 4.131 -1.161 57
13.179 1.993 -1.653 11
14.902 2.26 -1.631 11
17.202 2.6159999 -1.608 11
20.362 3.1070001 -1.582 15
25.4 3.8900001 -1.573 5
27.934 4.2940001 -1.291 50
12.672 1.987 -1.651 12
14.316 2.25 -1.636 12
16.429001 2.589 -1.615 10
19.283001 3.0480001 -1.59 14
23.681 3.7550001 -1.577 6
27.964001 4.4499998 -1.423 46
12.239 1.987 -1.656 11
13.749 2.2360001 -1.6390001 12
15.724 2.5639999 -1.623 12
18.296 2.9909999 -1.596 13
22.034 3.6129999 -1.574 13
27.795 4.573 -1.5470001 21
11.803 1.9809999 -1.658 13
13.19 2.2179999 -1.64 12
15.032 2.5320001 -1.626 12
17.398001 2.937 -1.604 11
20.688999 3.5020001 -1.579 16
25.898001 4.3969998 -1.567 6
11.428 1.98 -1.665 12
12.703 2.204 -1.6440001 12
14.401 2.503 -1.632 12
16.566999 2.885 -1.6109999 10
19.424 3.3900001 -1.5779999 14
23.896999 4.1820002 -1.562 6
11.065 1.976 -1.67 11
12.237 2.188 -1.648 12
13.823 2.474 -1.637 13
15.812 2.835 -1.618 9
18.440001 3.3139999 -1.591 13
22.23 4.006 -1.5650001 11
10.696 1.967 -1.6720001 11
11.797 2.171 -1.651 13
13.259 2.4430001 -1.64 12
15.09 2.7839999 -1.623 12
17.450001 3.2249999 -1.595 11
20.805 3.8540001 -1.5700001 16
10.382 1.9630001 -1.6799999 12
11.396 2.155 -1.6569999 13
12.733 2.4100001 -1.642 13
14.424 2.734 -1.626 12
16.635 3.1589999 -1.608 10
19.601 3.7290001 -1.579 14
10.071 1.956 -1.686 11
11.029 2.142 -1.664 11
12.245 2.3800001 -1.646 13
13.831 2.691 -1.6339999 13
15.823 3.0829999 -1.612 9
18.464001 3.6029999 -1.584 13
9.7609997 1.9450001 -1.689 11
10.652 2.1229999 -1.666 11
11.784 2.349 -1.648 13
13.228 2.638 -1.633 12
15.073 3.01 -1.6160001 11
17.513 3.503 -1.595 11
9.4700003 1.934 -1.693 13
10.336 2.1110001 -1.675 12
11.373 2.323 -1.655 12
12.688 2.5929999 -1.637 12
14.384 2.9419999 -1.6210001 12
16.601999 3.4000001 -1.601 10
9.2150002 1.928 -1.702 12
10.012 2.0940001 -1.6799999 12
10.992 2.299 -1.6619999 10
12.184 2.549 -1.641 13
13.795 2.8889999 -1.632 11
15.744 3.3 -1.6059999 10
8.9540005 1.918 -1.7079999 11
9.6960001 2.075 -1.6849999 11
10.62 2.2720001 -1.6670001 11
11.652 2.493 -1.635 32
13.149 2.8150001 -1.6289999 11
14.999 3.214 -1.613 11
8.71 1.908 -1.7130001 11
9.4029999 2.0580001 -1.6900001 12
10.27 2.2460001 -1.673 11
11.317 2.4749999 -1.654 58
12.604 2.757 -1.633 12
14.301 3.131 -1.619 12
8.467 1.895 -1.7180001 11
9.125 2.04 -1.6950001 13
9.9469995 2.223 -1.6799999 11
10.92 2.4389999 -1.661 58
12.088 2.7 -1.637 11
13.663 3.0539999 -1.625 11
8.2469997 1.885 -1.725 11
8.8690004 2.0239999 -1.702 12
9.6260004 2.1949999 -1.683 11
10.551 2.405 -1.6670001 61
11.563 2.635 -1.6339999 34
13.04 2.9719999 -1.626 12
8.0240002 1.8710001 -1.729 11
8.6389999 2.0109999 -1.712 11
9.3389997 2.1719999 -1.6900001 12
10.237 2.3789999 -1.679 51
11.208 2.6040001 -1.651 55
12.473 2.898 -1.6289999 12
7.816 1.859 -1.735 10
8.3929996 1.993 -1.716 11
9.0559998 2.1470001 -1.696 12
9.9720001 2.362 -1.697 36
10.786 2.553 -1.653 62
11.967 2.832 -1.6339999 12
7.6079998 1.844 -1.738 10
8.1599998 1.973 -1.721 10
8.7959995 2.1240001 -1.702 12
9.6149998 2.319 -1.696 17
10.467 2.523 -1.669 56
11.457 2.7609999 -1.6339999 53
7.4320002 1.834 -1.747 10
7.9429998 1.956 -1.727 11
8.566 2.1059999 -1.7130001 11
9.2419996 2.2690001 -1.689 12
10.068 2.47 -1.668 50
11.103 2.7219999 -1.652 54
7.2449999 1.8200001 -1.752 10
7.7399998 1.9400001 -1.733 11
8.3210001 2.0810001 -1.717 10
8.9750004 2.2409999 -1.696 12
9.7659998 2.4360001 -1.678 51
10.69 2.665 -1.656 52
7.0549998 1.803 -1.753 10
7.52 1.916 -1.734 13
8.0950003 2.059 -1.723 11
8.7180004 2.2130001 -1.704 11
9.4560003 2.3970001 -1.684 49
10.313 2.612 -1.661 46
6.8579998 1.7819999 -1.752 11
7.3590002 1.906 -1.7460001 10
7.8769999 2.0350001 -1.729 11
8.4860001 2.188 -1.7130001 11
9.1409998 2.3540001 -1.686 47
9.9729996 2.566 -1.669 42
6.7059999 1.77 -1.7589999 11
7.1760001 1.888 -1.752 10
7.6739998 2.0139999 -1.735 11
8.2329998 2.1559999 -1.716 11
8.9099998 2.329 -1.701 42
9.6490002 2.5190001 -1.676 48
6.5580001 1.758 -1.766 11
6.9660001 1.8609999 -1.748 11
7.4879999 1.995 -1.743 10
8.0190001 2.131 -1.724 11
8.7119999 2.3110001 -1.72 33
9.3380003 2.474 -1.682 49
6.4000001 1.7410001 -1.7690001 11
6.7909999 1.841 -1.751 10
7.2989998 1.973 -1.749 10
7.8000002 2.1029999 -1.729 11
8.4379997 2.2709999 -1.721 13
9.0559998 2.4330001 -1.689 42
6.2589998 1.728 -1.774 11
6.6360002 1.825 -1.758 10
7.1220002 1.952 -1.755 10
7.592 2.075 -1.734 10
8.1709995 2.2279999 -1.72 11
8.7959995 2.395 -1.698 43
6.1059999 1.709 -1.775 11
6.4749999 1.8049999 -1.761 11
6.914 1.921 -1.752 11
7.4130001 2.0539999 -1.744 10
7.9499998 2.197 -1.727 10
8.5489998 2.358 -1.706 40
5.9359999 1.684 -1.7690001 14
6.3299999 1.788 -1.767 11
6.737 1.897 -1.7539999 11
7.2270002 2.0280001 -1.749 10
7.7199998 2.161 -1.729 10
8.3000002 2.3180001 -1.712 38
5.7909999 1.664 -1.768 19
6.1810002 1.7690001 -1.7690001 11
6.5809999 1.876 -1.76 11
7.0190001 1.994 -1.747 10
7.5279999 2.132 -1.737 10
8.1219997 2.296 -1.729 29
5.7030001 1.66 -1.784 16
6.026 1.7460001 -1.7690001 10
6.428 1.855 -1.765 11
6.8470001 1.969 -1.752 10
7.3449998 2.105 -1.745 10
7.8850002 2.2539999 -1.7309999 13
5.5780001 1.643 -1.786 10
5.9050002 1.7309999 -1.776 11
6.2779999 1.8329999 -1.768 11
6.6859999 1.944 -1.757 10
7.1630001 2.076 -1.75 10
7.6570001 2.2130001 -1.732 10
5.448 1.624 -1.786 10
5.7639999 1.71 -1.776 10
6.1389999 1.813 -1.773 10
6.5209999 1.918 -1.76 11
6.9819999 2.046 -1.7539999 9
7.4559999 2.1789999 -1.737 10
5.3390002 1.61 -1.791 9
5.6370001 1.691 -1.779 9
5.9970002 1.79 -1.775 10
6.3730001 1.8940001 -1.765 11
6.7859998 2.01 -1.752 11
7.2779999 2.148 -1.745 10
5.2340002 1.595 -1.795 10
5.526 1.675 -1.784 11
5.8629999 1.768 -1.778 10
6.2480001 1.876 -1.774 11
6.6230001 1.9809999 -1.756 11
7.0609999 2.105 -1.742 10
5.1240001 1.5779999 -1.7970001 10
5.4109998 1.6569999 -1.788 10
5.7280002 1.745 -1.779 10
6.0910001 1.848 -1.774 11
6.4710002 1.955 -1.761 11
6.8920002 2.075 -1.748 11
5.0159998 1.561 -1.798 10
5.289 1.636 -1.788 10
5.6069999 1.725 -1.783 11
5.9380002 1.818 -1.772 10
6.3179998 1.926 -1.7640001 11
6.7179999 2.0409999 -1.75 11
4.9169998 1.546 -1.801 9
5.1830001 1.619 -1.7920001 10
5.4910002 1.706 -1.7869999 10
5.8119998 1.796 -1.777 10
6.1810002 1.902 -1.77 10
6.5560002 2.0090001 -1.753 11
4.8119998 1.527 -1.801 10
5.0830002 1.602 -1.796 9
5.368 1.682 -1.7869999 11
5.6880002 1.773 -1.78 9
6.04 1.874 -1.772 10
6.415 1.982 -1.76 10
4.7189999 1.511 -1.803 9
4.993 1.5880001 -1.802 10
5.257 1.6619999 -1.789 10
5.5689998 1.751 -1.784 11
5.8990002 1.845 -1.773 11
6.2620001 1.95 -1.762 10
4.631 1.4960001 -1.806 10
4.8920002 1.569 -1.804 11
5.1599998 1.645 -1.795 10
5.447 1.726 -1.784 11
5.7779999 1.822 -1.778 10
6.1209998 1.921 -1.765 10
4.5510001 1.483 -1.812 9
4.783 1.5470001 -1.801 10
5.059 1.625 -1.798 10
5.3400002 1.705 -1.789 10
5.6479998 1.794 -1.779 10
5.9879999 1.893 -1.7690001 10
4.4619999 1.465 -1.811 10
4.697 1.531 -1.8049999 10
4.96 1.6059999 -1.801 11
5.224 1.681 -1.789 10
5.5380001 1.772 -1.784 11
5.8460002 1.8609999 -1.7690001 10
4.382 1.451 -1.8150001 10
4.6069999 1.513 -1.806 11
4.869 1.5880001 -1.8049999 11
5.125 1.661 -1.793 9
5.408 1.742 -1.7819999 11
5.717 1.832 -1.77 10
4.302 1.434 -1.816 10
4.52 1.495 -1.807 10
4.7670002 1.5650001 -1.803 10
5.026 1.6390001 -1.795 10
5.2979999 1.717 -1.784 10
5.605 1.807 -1.775 9
4.2259998 1.419 -1.818 9
4.4439998 1.48 -1.812 11
4.677 1.546 -1.8049999 11
4.9390001 1.6210001 -1.801 10
5.1950002 1.694 -1.786 11
5.4959998 1.7819999 -1.779 10
4.152 1.403 -1.8200001 10
4.3670001 1.4630001 -1.8150001 10
4.5960002 1.528 -1.809 10
4.8390002 1.597 -1.8 9
5.0970001 1.6720001 -1.79 11
5.3759999 1.753 -1.778 10
4.0780001 1.387 -1.821 10
4.2870002 1.446 -1.8150001 11
4.5050001 1.507 -1.807 10
4.7470002 1.576 -1.801 10
5.0089998 1.652 -1.795 10
5.263 1.725 -1.778 10
4.0100002 1.373 -1.823 9
4.2119999 1.428 -1.817 11
4.427 1.489 -1.8099999 11
4.6570001 1.554 -1.801 10
4.9239998 1.632 -1.8 10
5.1560001 1.698 -1.778 10
3.9289999 1.353 -1.818 9
4.1420002 1.4119999 -1.819 10
4.3540001 1.472 -1.812 10
4.5770001 1.535 -1.804 11
4.8299999 1.608 -1.8 10
5.085 1.682 -1.789 11
3.868 1.339 -1.821 9
4.0679998 1.395 -1.819 10
4.2820001 1.455 -1.8150001 11
4.4959998 1.515 -1.8049999 10
4.737 1.584 -1.8 10
4.9949999 1.659 -1.7920001 11
3.8110001 1.326 -1.825 9
4.0029998 1.3789999 -1.8200001 10
4.211 1.437 -1.817 11
4.4190001 1.495 -1.807 11
4.6570001 1.563 -1.802 11
4.901 1.6339999 -1.7920001 10
3.747 1.309 -1.825 8
3.937 1.362 -1.822 10
4.1360002 1.4170001 -1.816 10
4.3530002 1.479 -1.812 10
4.5770001 1.5420001 -1.804 11
4.8299999 1.6160001 -1.8 10
3.6919999 1.296 -1.827 9
3.8729999 1.345 -1.822 10
4.072 1.401 -1.818 10
4.276 1.4579999 -1.811 11
4.493 1.5190001 -1.802 10
4.743 1.591 -1.8 10
3.6389999 1.283 -1.831 9
3.8080001 1.3279999 -1.8200001 10
4.0050001 1.382 -1.818 10
4.2179999 1.442 -1.817 11
4.428 1.502 -1.808 11
4.6630001 1.569 -1.802 11
3.585 1.2690001 -1.832 8
3.756 1.314 -1.825 9
3.948 1.367 -1.822 10
4.1389999 1.419 -1.813 10
4.3610001 1.483 -1.811 11
4.5819998 1.545 -1.802 10
3.529 1.253 -1.832 8
3.6960001 1.2970001 -1.824 9
3.882 1.348 -1.821 10
4.0819998 1.404 -1.817 10
4.289 1.462 -1.811 10
4.5100002 1.524 -1.804 10
3.4749999 1.238 -1.832 8
3.6440001 1.283 -1.827 10
3.8239999 1.332 -1.822 10
4.02 1.385 -1.819 10
4.2249999 1.442 -1.813 10
4.4349999 1.501 -1.8049999 11
3.4349999 1.227 -1.8380001 8
3.5969999 1.2690001 -1.831 9
3.766 1.314 -1.822 9
3.9560001 1.3660001 -1.818 10
4.1620002 1.423 -1.8150001 10
4.3730001 1.482 -1.809 10
3.3710001 1.207 -1.831 8
3.546 1.2539999 -1.832 9
3.7079999 1.296 -1.821 9
3.9030001 1.349 -1.821 10
4.0929999 1.402 -1.814 10
4.3049998 1.461 -1.809 10
3.3299999 1.1950001 -1.835 8
3.4909999 1.237 -1.83 9
3.654 1.279 -1.821 11
3.846 1.332 -1.822 9
4.039 1.3839999 -1.817 9
4.2449999 1.441 -1.812 10
3.2850001 1.181 -1.836 8
3.4460001 1.223 -1.832 9
3.6099999 1.265 -1.825 10
3.7850001 1.311 -1.819 9
3.9760001 1.363 -1.8150001 10
4.1810002 1.42 -1.812 10
3.2409999 1.1670001 -1.836 8
3.4000001 1.2079999 -1.8329999 8
3.5669999 1.251 -1.829 9
3.733 1.294 -1.8200001 9
3.9189999 1.344 -1.8150001 10
4.125 1.401 -1.814 10
3.1960001 1.152 -1.835 7
3.3540001 1.192 -1.832 9
3.523 1.2359999 -1.831 8
3.6860001 1.278 -1.822 9
3.8729999 1.3279999 -1.819 10
4.0679998 1.381 -1.8150001 10
3.1530001 1.138 -1.834 7
3.3150001 1.179 -1.835 9
3.4749999 1.219 -1.83 8
3.6389999 1.262 -1.823 9
3.822 1.3099999 -1.8200001 10
4.0120001 1.3609999 -1.8150001 10
3.1159999 1.124 -1.836 7
3.2720001 1.163 -1.835 8
3.4300001 1.2029999 -1.83 9
3.599 1.247 -1.827 9
3.77 1.291 -1.819 9
3.9649999 1.3430001 -1.818 9
3.0799999 1.112 -1.837 7
3.2349999 1.15 -1.837 8
3.401 1.192 -1.837 9
3.556 1.2309999 -1.8279999 8
3.723 1.273 -1.8200001 9
3.9059999 1.321 -1.8150001 9
3.0450001 1.099 -1.839 7
3.1949999 1.135 -1.836 8
3.3540001 1.175 -1.834 8
3.5109999 1.2130001 -1.827 8
3.6830001 1.257 -1.823 9
3.8610001 1.303 -1.816 9
3.0139999 1.087 -1.841 7
3.158 1.1210001 -1.836 8
3.312 1.159 -1.8329999 9
3.474 1.199 -1.83 8
3.6359999 1.239 -1.821 8
3.812 1.284 -1.816 9
2.974 1.071 -1.837 7
3.1199999 1.105 -1.835 8
3.28 1.145 -1.836 8
3.4349999 1.182 -1.83 8
3.598 1.223 -1.824 8
3.7720001 1.267 -1.818 9
2.9460001 1.059 -1.84 7
3.086 1.092 -1.835 8
3.244 1.13 -1.836 8
3.398 1.1670001 -1.83 8
3.562 1.207 -1.826 8
3.73 1.249 -1.818 8
2.915 1.046 -1.84 7
3.059 1.079 -1.8380001 7
3.21 1.115 -1.836 8
3.3640001 1.152 -1.832 8
3.5239999 1.191 -1.826 8
3.6930001 1.232 -1.8200001 8
0 0 0 0
3.027 1.066 -1.8380001 8
3.1760001 1.1 -1.836 8
3.336 1.1390001 -1.835 8
3.4860001 1.174 -1.825 8
3.6559999 1.215 -1.821 8
1.552 0.55400002 -0.99900001 7
2.994 1.051 -1.836 7
3.142 1.085 -1.834 8
3.3010001 1.123 -1.835 8
3.461 1.16 -1.83 8
3.6240001 1.199 -1.824 8
1.472 0.52399999 -0.95700002 3
2.973 1.04 -1.84 7
3.1110001 1.0700001 -1.8329999 8
3.2679999 1.107 -1.834 8
3.4260001 1.1440001 -1.83 8
3.5940001 1.184 -1.827 9
0 0 0 0
2.947 1.027 -1.841 7
3.0880001 1.058 -1.836 8
3.24 1.092 -1.835 8
3.392 1.127 -1.829 8
3.5599999 1.1670001 -1.827 8
0 0 0 0
2.9189999 1.013 -1.84 6
3.063 1.044 -1.8380001 7
3.2019999 1.074 -1.83 8
3.362 1.1109999 -1.829 8
3.5280001 1.15 -1.827 8
0 0 0 0
0 0 0 0
3.036 1.03 -1.837 7
3.1860001 1.063 -1.836 8
3.3380001 1.097 -1.832 8
3.4990001 1.133 -1.8279999 8
0 0 0 0
1.615 0.55400002 -1.034 6
3.0109999 1.016 -1.837 7
3.158 1.048 -1.834 7
3.313 1.082 -1.8329999 8
3.474 1.118 -1.83 7
0 0 0 0
1.507 0.51499999 -0.97299999 3
2.9920001 1.003 -1.839 7
3.141 1.035 -1.839 8
3.2850001 1.066 -1.832 8
3.444 1.101 -1.829 8
0 0 0 0
0 0 0 0
2.973 0.991 -1.841 7
3.108 1.018 -1.8329999 7
3.26 1.05 -1.831 8
3.418 1.085 -1.8279999 8
0 0 0 0
0 0 0 0
2.9530001 0.977 -1.841 7
3.0940001 1.006 -1.837 7
3.2420001 1.0369999 -1.834 8
3.401 1.071 -1.832 8
0 0 0 0
0 0 0 0
2.931 0.963 -1.839 6
3.072 0.991 -1.836 7
3.214 1.02 -1.83 8
3.382 1.056 -1.834 8
0 0 0 0
0 0 0 0
2.895 0.94400001 -1.8279999 8
3.0510001 0.977 -1.835 7
3.197 1.006 -1.831 7
3.355 1.039 -1.831 7
0 0 0 0
0 0 0 0
0 0 0 0
3.036 0.96399999 -1.836 6
3.184 0.99299997 -1.834 7
3.3380001 1.024 -1.832 8
0 0 0 0
0 0 0 0
1.636 0.52399999 -1.044 2
3.0239999 0.95099998 -1.839 7
3.1670001 0.97899997 -1.835 7
3.3180001 1.008 -1.831 8
0 0 0 0
0 0 0 0
1.527 0.48500001 -0.98000002 2
3.0079999 0.93699998 -1.839 7
3.148 0.963 -1.8329999 7
3.3080001 0.995 -1.835 8
0 0 0 0
0 0 0 0
1.512 0.47499999 -0.97399998 3
2.99 0.92299998 -1.836 7
3.135 0.94999999 -1.834 7
3.293 0.98000002 -1.835 7
0 0 0 0
0 0 0 0
1.505 0.46900001 -0.97399998 5
2.9849999 0.91100001 -1.84 7
3.1240001 0.93599999 -1.835 8
3.2780001 0.96600002 -1.835 8
0 0 0 0
0 0 0 0
1.501 0.46200001 -0.97500002 5
2.9660001 0.89600003 -1.836 6
3.112 0.92199999 -1.835 7
3.2590001 0.949 -1.832 7
0 0 0 0
0 0 0 0
1.4910001 0.454 -0.97100002 5
2.961 0.884 -1.839 6
3.1040001 0.90899998 -1.837 7
3.2550001 0.93599999 -1.836 7
0 0 0 0
0 0 0 0
1.487 0.44800001 -0.972 4
2.951 0.87 -1.8380001 6
3.0929999 0.89399999 -1.836 7
3.2409999 0.921 -1.834 7
0 0 0 0
0 0 0 0
1.49 0.44299999 -0.97600001 3
2.9400001 0.85600001 -1.836 6
3.082 0.88 -1.834 7
3.2309999 0.90600002 -1.8329999 7
0 0 0 0
0 0 0 0
1.479 0.43399999 -0.972 2
1.521 0.43700001 -0.95200002 0
3.0799999 0.86799997 -1.8380001 7
3.2219999 0.89099997 -1.832 7
0 0 0 0
0 0 0 0
1.474 0.42699999 -0.97000003 2
2.8970001 0.82099998 -1.816 8
3.0699999 0.85299999 -1.835 7
3.2219999 0.87800002 -1.835 7
0 0 0 0
0 0 0 0
1.465 0.41800001 -0.96600002 2
2.0369999 0.56900001 -1.279 10
3.0669999 0.83999997 -1.836 7
3.214 0.86299998 -1.834 7
0 0 0 0
0 0 0 0
1.457 0.41 -0.96100003 2
0 0 0 0
3.073 0.829 -1.842 7
3.214 0.85000002 -1.836 7
0 0 0 0
0 0 0 0
1.456 0.40400001 -0.96100003 2
0 0 0 0
3.0639999 0.81400001 -1.8380001 7
3.2079999 0.83499998 -1.834 7
0 0 0 0
0 0 0 0
1.4529999 0.39700001 -0.95999998 3
0 0 0 0
3.0639999 0.80000001 -1.8380001 7
3.21 0.82200003 -1.836 7
0 0 0 0
0 0 0 0
1.447 0.389 -0.95599997 3
0 0 0 0
3.0639999 0.787 -1.8380001 7
3.2130001 0.80800003 -1.837 7
0 0 0 0
0 0 0 0
1.451 0.38299999 -0.958 3
0 0 0 0
3.066 0.77399999 -1.839 6
3.214 0.79500002 -1.837 7
0 0 0 0
0 0 0 0
1.4529999 0.377 -0.958 3
0 0 0 0
3.069 0.76099998 -1.839 6
3.2179999 0.78200001 -1.839 7
0 0 0 0
0 0 0 0
1.454 0.37099999 -0.958 2
2.026 0.505 -1.272 3
3.0739999 0.74900001 -1.84 7
3.2219999 0.76800001 -1.839 7
0 0 0 0
0 0 0 0
1.4579999 0.36500001 -0.958 2
0 0 0 0
3.0780001 0.73500001 -1.839 7
3.224 0.75400001 -1.837 7
0 0 0 0
0 0 0 0
1.465 0.36000001 -0.96200001 2
2.9300001 0.70200002 -1.8329999 6
3.0829999 0.722 -1.839 7
3.2290001 0.74000001 -1.836 7
0 0 0 0
0 0 0 0
1.464 0.352 -0.95899999 2
1.566 0.36700001 -0.977 0
3.092 0.70899999 -1.84 7
3.2390001 0.727 -1.8380001 7
0 0 0 0
0 0 0 0
1.475 0.34799999 -0.963 2
2.961 0.68099999 -1.844 5
3.096 0.69499999 -1.8380001 7
3.2460001 0.713 -1.837 7
0 0 0 0
0 0 0 0
1.48 0.34099999 -0.96399999 3
2.974 0.66900003 -1.846 6
3.108 0.68300003 -1.839 7
3.2539999 0.699 -1.837 7
0 0 0 0
0 0 0 0
1.492 0.33700001 -0.96799999 2
2.9790001 0.65600002 -1.8430001 6
3.1159999 0.67000002 -1.8380001 7
3.2679999 0.68599999 -1.839 7
0 0 0 0
0 0 0 0
1.51 0.333 -0.97600001 2
2.99 0.64300001 -1.8430001 6
3.131 0.65700001 -1.841 7
3.286 0.67400002 -1.842 7
0 0 0 0
0 0 0 0
1.522 0.32800001 -0.98000002 2
3.007 0.63200003 -1.846 6
3.141 0.64399999 -1.839 7
3.2920001 0.65899998 -1.8380001 7
0 0 0 0
0 0 0 0
1.533 0.322 -0.98299998 2
3.0179999 0.61900002 -1.845 6
3.1530001 0.63 -1.8380001 7
3.306 0.64499998 -1.8380001 7
0 0 0 0
0 0 0 0
1.557 0.31999999 -0.99299997 2
3.029 0.60600001 -1.8430001 6
3.1719999 0.61799997 -1.84 7
3.3169999 0.63099998 -1.835 7
0 0 0 0
1.4170001 0.292 -0.94300002 5
1.575 0.315 -0.99900001 1
3.0510001 0.59399998 -1.846 6
3.1930001 0.60600001 -1.8430001 7
3.342 0.61900002 -1.839 7
0 0 0 0
1.433 0.287 -0.949 5
0 0 0 0
3.062 0.57999998 -1.8430001 6
3.211 0.59299999 -1.8430001 7
3.359 0.60500002 -1.8380001 7
0 0 0 0
1.447 0.28200001 -0.95300001 5
0 0 0 0
3.0840001 0.56900001 -1.846 6
3.224 0.579 -1.84 7
3.3789999 0.59200001 -1.839 7
0 0 0 0
1.462 0.27700001 -0.95700002 5
2.964 0.54699999 -1.849 6
3.099 0.55599999 -1.8430001 6
3.2449999 0.56599998 -1.841 7
3.3989999 0.57800001 -1.8380001 8
0 0 0 0
1.483 0.273 -0.96399999 4
2.984 0.53500003 -1.85 6
3.1210001 0.54400003 -1.845 7
3.266 0.55299997 -1.841 7
3.425 0.565 -1.841 8
0 0 0 0
1.506 0.27000001 -0.972 3
2.9990001 0.52200001 -1.846 6
3.142 0.53100002 -1.845 7
3.2920001 0.54100001 -1.8430001 7
3.4489999 0.55199999 -1.841 8
0 0 0 0
1.527 0.26499999 -0.97899997 2
3.0209999 0.509 -1.847 7
3.1670001 0.51899999 -1.846 7
3.3150001 0.528 -1.8430001 8
3.4719999 0.53799999 -1.84 8
1.4 0.244 -0.935 6
1.5549999 0.26199999 -0.99000001 2
3.046 0.498 -1.848 7
3.187 0.50599998 -1.845 7
3.3410001 0.51499999 -1.8430001 8
3.503 0.52499998 -1.8430001 8
1.421 0.23999999 -0.94099998 5
1.603 0.26199999 -1.013 1
3.0710001 0.486 -1.849 6
3.2130001 0.493 -1.845 7
3.369 0.50199997 -1.844 8
3.5220001 0.51099998 -1.8380001 8
1.4400001 0.235 -0.94599998 4
0 0 0 0
3.0910001 0.47299999 -1.847 6
3.2360001 0.47999999 -1.844 7
3.391 0.48899999 -1.842 8
3.5539999 0.498 -1.84 8
1.472 0.23199999 -0.95899999 4
2.9690001 0.45300001 -1.845 7
3.119 0.461 -1.848 7
3.2690001 0.46900001 -1.847 7
3.4170001 0.47499999 -1.841 8
3.5810001 0.484 -1.8380001 8
1.489 0.227 -0.96200001 3
3.006 0.44299999 -1.852 6
3.1440001 0.449 -1.847 6
3.2920001 0.45500001 -1.844 8
3.454 0.463 -1.844 8
3.6210001 0.47099999 -1.8430001 8
1.525 0.22400001 -0.97600001 2
3.029 0.43099999 -1.85 6
3.1700001 0.43599999 -1.846 7
3.325 0.44299999 -1.846 7
3.4890001 0.44999999 -1.846 8
3.651 0.45699999 -1.841 8
1.561 0.221 -0.991 2
3.059 0.419 -1.85 7
3.2049999 0.42399999 -1.849 7
3.3540001 0.43000001 -1.845 7
3.513 0.43599999 -1.842 8
3.681 0.44299999 -1.8380001 7
1.725 0.236 -1.084 2
3.0869999 0.40700001 -1.85 7
3.2360001 0.412 -1.849 7
3.3840001 0.417 -1.8430001 8
3.5480001 0.42300001 -1.842 7
3.72 0.43000001 -1.84 7
0 0 0 0
3.1140001 0.39500001 -1.848 7
3.2590001 0.39899999 -1.844 7
3.4189999 0.40400001 -1.844 8
3.582 0.41 -1.841 8
3.7590001 0.41600001 -1.84 8
3.01 0.38 -1.855 6
3.151 0.38299999 -1.851 7
3.303 0.38800001 -1.85 7
3.4649999 0.39300001 -1.85 7
3.625 0.39700001 -1.844 8
3.793 0.40200001 -1.837 8
3.04 0.368 -1.854 6
3.181 0.37099999 -1.85 7
3.3340001 0.375 -1.848 7
3.5009999 0.38 -1.85 8
3.6589999 0.38299999 -1.842 8
3.8299999 0.38800001 -1.836 8
3.072 0.35600001 -1.854 6
3.2160001 0.359 -1.85 7
3.3699999 0.36300001 -1.849 7
3.53 0.366 -1.845 8
3.694 0.37 -1.839 8
3.868 0.37400001 -1.834 8
3.1040001 0.34400001 -1.853 7
3.2460001 0.347 -1.848 7
3.411 0.35100001 -1.85 7
3.5669999 0.35299999 -1.844 8
3.73 0.35600001 -1.836 8
3.914 0.36000001 -1.834 9
3.135 0.33199999 -1.851 8
3.283 0.33399999 -1.848 7
3.448 0.338 -1.85 8
3.6070001 0.34 -1.8430001 8
3.7809999 0.34299999 -1.84 8
3.9619999 0.34599999 -1.835 8
3.174 0.32100001 -1.853 7
3.326 0.32300001 -1.851 8
3.4860001 0.32499999 -1.848 8
3.654 0.32699999 -1.845 7
3.822 0.329 -1.837 8
4.006 0.33199999 -1.832 8
3.2090001 0.30899999 -1.851 7
3.3670001 0.31099999 -1.851 8
3.529 0.31200001 -1.849 8
3.6949999 0.31400001 -1.844 9
3.869 0.31600001 -1.837 9
4.0549998 0.31799999 -1.832 9
3.243 0.296 -1.848 7
3.4070001 0.29800001 -1.851 8
3.5710001 0.29899999 -1.848 7
3.7390001 0.301 -1.8430001 8
3.9159999 0.30199999 -1.836 9
4.1059999 0.30399999 -1.831 9
3.2839999 0.285 -1.849 7
3.448 0.28600001 -1.85 8
3.615 0.287 -1.848 8
3.786 0.287 -1.842 8
3.9619999 0.28799999 -1.834 9
4.1739998 0.29100001 -1.836 9
3.3280001 0.273 -1.85 7
3.493 0.27399999 -1.851 8
3.668 0.27399999 -1.851 8
3.832 0.27399999 -1.84 8
4.0180001 0.27500001 -1.836 9
4.2290001 0.27599999 -1.836 9
3.378 0.26199999 -1.854 7
3.5439999 0.26199999 -1.854 9
3.711 0.26100001 -1.848 8
3.8870001 0.26100001 -1.842 8
4.0780001 0.26199999 -1.837 10
4.2849998 0.26199999 -1.834 9
3.4189999 0.249 -1.852 8
3.585 0.249 -1.85 9
3.7590001 0.248 -1.847 9
3.9330001 0.24699999 -1.8380001 8
4.1350002 0.248 -1.837 9
4.348 0.248 -1.834 9
3.4619999 0.237 -1.85 7
3.6340001 0.236 -1.851 8
3.8099999 0.235 -1.846 8
3.9879999 0.234 -1.8380001 9
4.1950002 0.234 -1.837 9
4.4050002 0.233 -1.831 10
3.5120001 0.22499999 -1.852 8
3.6860001 0.22400001 -1.851 8
3.859 0.222 -1.844 8
4.0469999 0.221 -1.839 8
4.2589998 0.22 -1.8380001 9
4.4699998 0.219 -1.831 10
3.563 0.213 -1.853 8
3.7349999 0.211 -1.849 8
3.9130001 0.20900001 -1.8430001 9
4.1030002 0.208 -1.837 9
4.323 0.206 -1.8380001 10
4.5409999 0.205 -1.831 10
3.6129999 0.20100001 -1.853 8
3.789 0.199 -1.849 9
3.9649999 0.19599999 -1.84 9
4.1729999 0.19499999 -1.84 8
4.3800001 0.192 -1.8329999 9
4.612 0.19 -1.83 10
3.665 0.189 -1.852 8
3.8399999 0.186 -1.847 9
4.02 0.183 -1.8380001 9
4.2340002 0.18099999 -1.839 10
4.4549999 0.17900001 -1.836 10
4.6869998 0.176 -1.83 10
3.7160001 0.177 -1.851 8
3.8900001 0.17399999 -1.8430001 9
4.0830002 0.17 -1.839 9
4.3080001 0.168 -1.842 9
4.5279999 0.16500001 -1.836 10
4.7509999 0.161 -1.824 10
3.773 0.16500001 -1.851 8
3.9519999 0.161 -1.8430001 10
4.1570001 0.15800001 -1.842 9
4.368 0.154 -1.8380001 10
4.5929999 0.15000001 -1.832 10
4.8319998 0.146 -1.824 11
3.835 0.153 -1.853 8
4.0120001 0.148 -1.8430001 9
4.2280002 0.145 -1.845 9
4.4359999 0.141 -1.836 10
4.6739998 0.13600001 -1.8329999 10
4.9180002 0.132 -1.825 11
3.888 0.14 -1.849 9
4.0749998 0.13600001 -1.842 9
4.2930002 0.132 -1.8430001 10
4.5079999 0.127 -1.834 10
4.75 0.122 -1.831 10
4.9990001 0.117 -1.821 10
3.9460001 0.12800001 -1.847 8
4.1430001 0.123 -1.8430001 9
4.3639998 0.119 -1.842 9
4.5879998 0.114 -1.835 9
4.8270001 0.108 -1.8279999 11
5.0949998 0.102 -1.823 10
4.0050001 0.116 -1.845 9
4.211 0.111 -1.842 9
4.4310002 0.105 -1.839 9
4.665 0.1 -1.8329999 10
4.9159999 0.093999997 -1.8279999 11
5.191 0.086999997 -1.822 11
4.0689998 0.103 -1.8430001 9
4.2870002 0.097999997 -1.8430001 10
4.5110002 0.092 -1.839 10
4.7420001 0.086000003 -1.831 10
5.0120001 0.079000004 -1.829 11
5.2919998 0.071999997 -1.822 11
4.1399999 0.090999998 -1.844 9
4.368 0.086000003 -1.846 9
4.5879998 0.079000004 -1.8380001 10
4.8280001 0.071999997 -1.83 9
5.1030002 0.064999998 -1.827 10
5.3909998 0.057 -1.8200001 11
4.2069998 0.079000004 -1.841 9
4.4299998 0.071999997 -1.839 10
4.6690001 0.064999998 -1.836 10
4.9229999 0.057999998 -1.83 10
5.2030001 0.050000001 -1.826 11
5.5009999 0.041999999 -1.819 11
4.2859998 0.066 -1.8430001 9
4.5149999 0.059999999 -1.841 10
4.7540002 0.052000001 -1.835 10
5.0159998 0.044 -1.829 10
5.3039999 0.035999998 -1.825 11
5.6090002 0.027000001 -1.816 12
4.3629999 0.054000001 -1.8430001 9
4.592 0.046999998 -1.8380001 10
4.8429999 0.039000001 -1.834 10
5.1100001 0.029999999 -1.827 11
5.408 0.021 -1.823 11
5.7069998 0.011 -1.809 11
4.4499998 0.041999999 -1.845 9
4.6789999 0.034000002 -1.837 10
4.9359999 0.026000001 -1.832 10
5.2249999 0.017000001 -1.831 11
5.52 0.0060000001 -1.821 11
5.8400002 -0.003 -1.8099999 10
4.5250001 0.029999999 -1.842 9
4.7610002 0.021 -1.834 10
5.039 0.012 -1.834 11
5.3260002 0.0020000001 -1.8279999 11
5.6199999 -0.0070000002 -1.814 11
5.9689999 -0.018999999 -1.809 11
4.6090002 0.017999999 -1.84 9
4.8509998 0.0080000004 -1.832 10
5.1389999 0 -1.832 11
5.4400001 -0.011 -1.8279999 11
5.7709999 -0.022 -1.823 11
6.1030002 -0.034000002 -1.808 11
4.7030001 0.0049999999 -1.842 10
4.9489999 -0.003 -1.832 10
5.2410002 -0.014 -1.83 10
5.552 -0.025 -1.825 10
5.8829999 -0.037 -1.817 11
6.2600002 -0.050000001 -1.8099999 10
4.776 -0.0060000001 -1.834 9
5.0500002 -0.016000001 -1.832 10
5.3530002 -0.027000001 -1.83 11
5.671 -0.039000001 -1.824 10
6.0209999 -0.052000001 -1.816 11
6.4089999 -0.066 -1.808 11
4.8730001 -0.017999999 -1.8329999 10
5.1589999 -0.028999999 -1.832 11
5.4569998 -0.039999999 -1.826 11
5.7950001 -0.052999999 -1.821 11
6.1630001 -0.067000002 -1.8150001 10
6.5609999 -0.082000002 -1.806 11
4.9790001 -0.029999999 -1.835 10
5.2670002 -0.041999999 -1.831 11
5.5780001 -0.054000001 -1.825 10
5.9260001 -0.067000002 -1.8200001 11
6.302 -0.082000002 -1.811 11
6.7189999 -0.097999997 -1.802 11
5.0780001 -0.043000001 -1.832 10
5.3839998 -0.054000001 -1.83 11
5.7010002 -0.067000002 -1.822 12
6.0679998 -0.082000002 -1.819 11
6.4450002 -0.097000003 -1.806 11
6.8959999 -0.115 -1.8 11
5.1919999 -0.055 -1.8329999 10
5.4879999 -0.067000002 -1.824 11
5.848 -0.081 -1.825 11
6.2059999 -0.096000001 -1.8150001 11
6.6209998 -0.113 -1.808 11
7.0749998 -0.131 -1.7970001 11
5.3000002 -0.067000002 -1.83 11
5.6149998 -0.079999998 -1.824 11
5.974 -0.093999997 -1.821 11
6.3670001 -0.11 -1.816 11
6.783 -0.12800001 -1.803 11
7.2659998 -0.148 -1.794 12
5.4250002 -0.079000004 -1.832 10
5.75 -0.093000002 -1.825 10
6.1149998 -0.108 -1.819 10
6.5170002 -0.125 -1.811 11
6.9590001 -0.14300001 -1.8 11
7.4759998 -0.164 -1.793 29
5.5380001 -0.090999998 -1.827 11
5.881 -0.105 -1.822 11
6.2639999 -0.121 -1.817 11
6.6859999 -0.139 -1.809 11
7.151 -0.15899999 -1.799 12
7.6599998 -0.18000001 -1.7819999 39
5.6609998 -0.103 -1.824 12
6.0219998 -0.118 -1.8200001 12
6.4130001 -0.134 -1.812 10
6.849 -0.153 -1.803 11
7.3280001 -0.17399999 -1.79 37
7.8660002 -0.197 -1.775 41
5.7909999 -0.115 -1.822 12
6.1550002 -0.13 -1.814 11
6.5830002 -0.148 -1.812 11
7.053 -0.168 -1.8049999 15
7.5349998 -0.189 -1.7869999 44
8.0880003 -0.214 -1.767 44
5.9390001 -0.126 -1.823 11
6.3049998 -0.142 -1.811 10
6.7550001 -0.161 -1.809 11
7.2069998 -0.182 -1.7920001 39
7.7259998 -0.204 -1.776 49
8.3559999 -0.23100001 -1.766 46
6.0809999 -0.138 -1.8200001 11
6.4759998 -0.155 -1.811 10
6.954 -0.175 -1.8099999 21
7.3920002 -0.19599999 -1.784 61
7.961 -0.22 -1.773 48
8.6040001 -0.248 -1.757 48
6.2389998 -0.15000001 -1.819 10
6.6360002 -0.168 -1.806 10
7.0949998 -0.18799999 -1.794 44
7.618 -0.20999999 -1.783 60
8.2049999 -0.236 -1.767 47
8.8900003 -0.266 -1.752 44
6.3920002 -0.161 -1.814 11
6.8540001 -0.18099999 -1.813 24
7.2779999 -0.2 -1.786 74
7.8400002 -0.22499999 -1.777 46
8.474 -0.252 -1.7640001 51
9.1850004 -0.28299999 -1.744 51
6.552 -0.17200001 -1.8099999 11
6.9829998 -0.191 -1.795 41
7.4920001 -0.214 -1.784 57
8.0670004 -0.23899999 -1.77 59
8.7390003 -0.26800001 -1.756 48
9.5209999 -0.301 -1.7410001 47
6.7589998 -0.184 -1.816 24
7.1810002 -0.204 -1.7920001 89
7.711 -0.227 -1.779 69
8.3339996 -0.25299999 -1.768 50
9.0220003 -0.28299999 -1.749 52
9.8739996 -0.31999999 -1.7359999 51
6.8889999 -0.19400001 -1.799 49
7.3779998 -0.215 -1.786 83
7.948 -0.23999999 -1.775 67
8.5889997 -0.26699999 -1.76 51
9.3479996 -0.30000001 -1.744 54
10.269 -0.33899999 -1.732 51
7.092 -0.205 -1.798 48
7.5929999 -0.227 -1.7819999 48
8.1800003 -0.252 -1.767 51
8.882 -0.28200001 -1.755 52
9.7040005 -0.317 -1.7410001 55
10.696 -0.359 -1.727 54
7.2750001 -0.215 -1.79 40
7.8280001 -0.23899999 -1.778 49
8.4589996 -0.26499999 -1.7640001 52
9.1820002 -0.296 -1.747 57
10.087 -0.33399999 -1.737 53
11.114 -0.377 -1.715 65
7.4850001 -0.22499999 -1.784 39
8.0530005 -0.249 -1.7690001 56
8.7250004 -0.27700001 -1.756 52
9.5150003 -0.31 -1.742 55
10.482 -0.35100001 -1.73 60
11.585 -0.39700001 -1.705 61
7.7259998 -0.236 -1.783 39
8.3210001 -0.26100001 -1.766 50
9.0319996 -0.28999999 -1.751 57
9.8950005 -0.32600001 -1.739 57
10.907 -0.36700001 -1.721 65
12.15 -0.41800001 -1.702 14
7.9510002 -0.245 -1.776 39
8.592 -0.27200001 -1.76 52
9.3599997 -0.303 -1.7460001 59
10.288 -0.34 -1.733 57
11.364 -0.384 -1.712 76
12.778 -0.44100001 -1.699 12
8.1969995 -0.25400001 -1.77 39
8.8850002 -0.28200001 -1.755 53
9.7159996 -0.315 -1.742 59
10.716 -0.35499999 -1.729 61
11.81 -0.39899999 -1.6950001 33
13.49 -0.465 -1.699 12
8.4680004 -0.264 -1.765 38
9.1890001 -0.292 -1.747 58
10.107 -0.32800001 -1.739 55
11.137 -0.368 -1.717 77
12.49 -0.421 -1.704 13
14.276 -0.49000001 -1.697 13
8.7539997 -0.27200001 -1.76 39
9.5200005 -0.30199999 -1.7410001 56
10.51 -0.34 -1.732 63
11.603 -0.382 -1.705 64
13.151 -0.44100001 -1.7 13
15.135 -0.51599997 -1.692 11
9.073 -0.28099999 -1.756 43
9.9060001 -0.31299999 -1.738 60
10.93 -0.35100001 -1.722 70
12.211 -0.39899999 -1.707 14
13.898 -0.461 -1.698 13
16.118999 -0.54299998 -1.688 10
9.3850002 -0.289 -1.747 41
10.31 -0.322 -1.734 57
11.401 -0.36199999 -1.7130001 83
12.827 -0.414 -1.701 13
14.707 -0.48199999 -1.692 12
17.188 -0.57099998 -1.677 11
9.7720003 -0.29699999 -1.747 43
10.74 -0.331 -1.727 63
11.84 -0.37099999 -1.694 25
13.563 -0.43099999 -1.701 13
15.665 -0.50400001 -1.6900001 10
18.451 -0.602 -1.67 12
10.157 -0.30399999 -1.7410001 43
11.148 -0.338 -1.712 76
12.54 -0.38600001 -1.704 13
14.35 -0.447 -1.698 13
16.697001 -0.52700001 -1.6849999 10
19.858 -0.63499999 -1.661 14
10.58 -0.31099999 -1.737 45
11.624 -0.34599999 -1.702 62
13.201 -0.39700001 -1.7 13
15.172 -0.46200001 -1.689 11
17.820999 -0.54900002 -1.674 11
21.577 -0.67199999 -1.654 16
10.99 -0.315 -1.725 54
12.22 -0.354 -1.702 13
13.968 -0.41 -1.7 13
16.163 -0.479 -1.686 9
19.167 -0.574 -1.6670001 13
23.712999 -0.71700001 -1.654 11
11.468 -0.31999999 -1.7180001 54
12.874 -0.36199999 -1.7 13
14.794 -0.41999999 -1.696 12
17.298 -0.49599999 -1.682 11
20.795 -0.602 -1.663 16
26.438999 -0.77200001 -1.661 9
11.888 -0.32100001 -1.6950001 20
13.591 -0.37 -1.699 13
15.693 -0.43099999 -1.688 11
18.504 -0.51099998 -1.67 12
22.601999 -0.63 -1.65 18
28.653999 -0.80400002 -1.601 26
12.602 -0.32699999 -1.707 13
14.37 -0.37599999 -1.6950001 13
16.745001 -0.44100001 -1.684 10
19.929001 -0.528 -1.661 15
25.087999 -0.66900003 -1.659 8
28.698999 -0.76999998 -1.409 70
13.267 -0.329 -1.7029999 13
15.218 -0.38 -1.689 12
17.902 -0.44999999 -1.677 12
21.73 -0.54900002 -1.6619999 17
28.070999 -0.71200001 -1.666 18
28.551001 -0.727 -1.206 76
14.029 -0.331 -1.702 12
16.187 -0.384 -1.683 11
