# .PCD v0.7 - Point Cloud Data file format
VERSION 0.7
FIELDS x y z intensity
SIZE 4 4 4 4
TYPE F F F F
COUNT 1 1 1 1
WIDTH 1754
HEIGHT 1
VIEWPOINT 0 0 0 1 0 0 0
POINTS 1754
DATA ascii
3.086 -0.852 -1.901 7
3.2309999 -0.87800002 -1.898 7
3.388 -0.90700001 -1.898 8
0 0 0 0
0 0 0 0
1.571 -0.44800001 -1.016 1
3.085 -0.866 -1.902 6
3.2309999 -0.89300001 -1.9 8
3.3889999 -0.92299998 -1.9 8
0 0 0 0
0 0 0 0
1.572 -0.456 -1.018 1
3.082 -0.87900001 -1.902 6
3.224 -0.90499997 -1.896 8
3.391 -0.93800002 -1.901 8
0 0 0 0
0 0 0 0
1.528 -0.44999999 -0.99000001 1
3.0829999 -0.89300001 -1.903 6
3.227 -0.92000002 -1.898 7
3.3900001 -0.95300001 -1.9 7
0 0 0 0
0 0 0 0
1.5549999 -0.465 -1.007 1
3.0810001 -0.90600002 -1.901 6
3.2290001 -0.935 -1.899 8
3.3970001 -0.96899998 -1.903 8
0 0 0 0
0 0 0 0
0 0 0 0
3.082 -0.92000002 -1.901 6
3.2309999 -0.949 -1.899 8
3.392 -0.98199999 -1.899 8
0 0 0 0
0 0 0 0
0 0 0 0
3.0940001 -0.93599999 -1.9069999 6
3.2409999 -0.96600002 -1.902 7
3.402 -0.99900001 -1.902 8
0 0 0 0
0 0 0 0
0 0 0 0
3.095 -0.949 -1.905 6
3.2490001 -0.98100001 -1.904 8
3.404 -1.013 -1.9 8
0 0 0 0
0 0 0 0
2.924 -0.92400002 -1.887 7
3.0999999 -0.963 -1.904 7
3.2509999 -0.99400002 -1.902 8
3.418 -1.031 -1.904 8
0 0 0 0
0 0 0 0
2.947 -0.94300002 -1.898 6
3.105 -0.977 -1.904 7
3.257 -1.0089999 -1.901 7
3.421 -1.045 -1.901 8
0 0 0 0
0 0 0 0
2.961 -0.958 -1.902 5
3.1140001 -0.991 -1.904 6
3.2690001 -1.025 -1.903 8
3.4319999 -1.061 -1.901 8
0 0 0 0
0 0 0 0
2.9690001 -0.972 -1.903 7
3.1229999 -1.005 -1.904 7
3.2780001 -1.04 -1.902 8
3.448 -1.0779999 -1.904 8
0 0 0 0
0 0 0 0
2.9790001 -0.986 -1.903 7
3.1359999 -1.021 -1.906 7
3.293 -1.056 -1.904 8
3.4690001 -1.097 -1.909 8
0 0 0 0
0 0 0 0
2.993 -1.001 -1.905 7
3.145 -1.034 -1.904 7
3.3110001 -1.073 -1.908 8
3.4760001 -1.1109999 -1.905 8
0 0 0 0
0 0 0 0
3.0050001 -1.0140001 -1.906 7
3.1600001 -1.049 -1.906 7
3.3199999 -1.086 -1.904 8
3.4909999 -1.127 -1.905 8
0 0 0 0
1.433 -0.49700001 -0.95099998 0
3.0239999 -1.03 -1.91 7
3.174 -1.064 -1.906 8
3.332 -1.101 -1.902 8
3.5139999 -1.145 -1.908 8
0 0 0 0
0 0 0 0
3.0350001 -1.043 -1.9069999 7
3.1919999 -1.08 -1.9069999 7
3.3499999 -1.117 -1.903 8
3.53 -1.161 -1.906 8
0 0 0 0
1.478 -0.52100003 -0.972 1
3.049 -1.057 -1.9069999 6
3.2079999 -1.094 -1.9069999 7
3.3729999 -1.1339999 -1.906 8
3.55 -1.178 -1.9069999 8
0 0 0 0
0 0 0 0
3.075 -1.074 -1.9119999 7
3.23 -1.1109999 -1.909 8
3.392 -1.15 -1.906 8
3.5739999 -1.196 -1.908 8
0 0 0 0
0 0 0 0
3.092 -1.0880001 -1.911 7
3.2449999 -1.124 -1.9069999 8
3.4170001 -1.1670001 -1.9069999 8
3.589 -1.21 -1.904 8
0 0 0 0
2.9489999 -1.063 -1.9069999 6
3.109 -1.102 -1.91 7
3.2720001 -1.141 -1.909 8
3.441 -1.183 -1.908 9
3.615 -1.228 -1.904 8
0 0 0 0
2.971 -1.0779999 -1.909 7
3.1270001 -1.115 -1.908 7
3.2950001 -1.1569999 -1.91 8
3.4630001 -1.199 -1.9069999 9
3.6489999 -1.248 -1.908 8
0 0 0 0
2.9879999 -1.09 -1.906 6
3.152 -1.131 -1.91 7
3.3169999 -1.1720001 -1.909 8
3.4879999 -1.216 -1.906 8
3.6760001 -1.265 -1.9069999 9
0 0 0 0
3.013 -1.105 -1.909 7
3.1730001 -1.145 -1.909 8
3.3399999 -1.187 -1.908 8
3.5190001 -1.234 -1.908 9
3.704 -1.2819999 -1.9069999 9
0 0 0 0
3.036 -1.119 -1.908 6
3.201 -1.161 -1.91 8
3.368 -1.204 -1.909 8
3.5450001 -1.25 -1.9069999 9
3.733 -1.3 -1.905 9
0 0 0 0
3.0580001 -1.132 -1.9069999 8
3.2260001 -1.176 -1.91 8
3.4030001 -1.222 -1.9119999 8
3.579 -1.268 -1.908 8
3.7679999 -1.319 -1.906 9
2.934 -1.11 -1.9119999 6
3.0910001 -1.149 -1.9119999 7
3.2520001 -1.1900001 -1.909 9
3.4319999 -1.238 -1.911 9
3.609 -1.284 -1.9069999 8
3.8039999 -1.337 -1.906 9
2.9579999 -1.123 -1.911 7
3.115 -1.1619999 -1.91 7
3.28 -1.205 -1.908 9
3.4649999 -1.255 -1.913 9
3.645 -1.302 -1.908 9
3.8440001 -1.357 -1.908 9
2.984 -1.136 -1.911 7
3.148 -1.179 -1.9119999 8
3.3269999 -1.227 -1.9170001 8
3.4949999 -1.27 -1.91 9
3.6830001 -1.321 -1.909 10
3.8889999 -1.3789999 -1.911 9
3.01 -1.149 -1.909 7
3.1760001 -1.192 -1.911 8
3.348 -1.238 -1.911 9
3.533 -1.288 -1.9119999 8
3.717 -1.3380001 -1.9069999 9
3.9300001 -1.398 -1.911 9
3.0439999 -1.165 -1.9119999 7
3.207 -1.207 -1.91 9
3.3840001 -1.255 -1.9119999 8
3.563 -1.303 -1.909 8
3.7579999 -1.357 -1.908 9
3.9760001 -1.419 -1.9119999 9
3.069 -1.177 -1.908 8
3.2409999 -1.222 -1.911 9
3.424 -1.272 -1.914 8
3.6029999 -1.321 -1.91 9
3.802 -1.376 -1.909 9
4.0240002 -1.4400001 -1.914 9
3.1040001 -1.192 -1.91 7
3.2820001 -1.24 -1.915 9
3.46 -1.288 -1.914 9
3.6440001 -1.3380001 -1.91 9
3.8499999 -1.397 -1.9119999 9
4.0669999 -1.459 -1.9119999 9
3.145 -1.209 -1.915 8
3.3169999 -1.255 -1.914 9
3.49 -1.301 -1.909 9
3.6849999 -1.3559999 -1.91 9
3.901 -1.418 -1.915 9
4.118 -1.48 -1.9119999 9
3.1789999 -1.223 -1.913 8
3.3529999 -1.2690001 -1.913 9
3.54 -1.321 -1.914 9
3.7290001 -1.374 -1.91 8
3.944 -1.436 -1.9119999 9
4.1750002 -1.503 -1.915 9
3.2149999 -1.237 -1.913 8
3.392 -1.285 -1.913 9
3.5810001 -1.3380001 -1.913 9
3.7780001 -1.393 -1.911 10
4.0009999 -1.4579999 -1.916 10
4.2249999 -1.523 -1.913 10
3.253 -1.251 -1.9119999 8
3.434 -1.301 -1.913 9
3.6240001 -1.354 -1.9119999 9
3.8299999 -1.413 -1.914 9
4.0469999 -1.476 -1.913 10
4.2849998 -1.546 -1.915 10
3.2869999 -1.2640001 -1.91 8
3.4779999 -1.318 -1.914 9
3.671 -1.372 -1.913 9
3.881 -1.432 -1.914 9
4.0949998 -1.494 -1.91 10
4.3400002 -1.567 -1.913 10
3.342 -1.284 -1.9170001 8
3.523 -1.334 -1.914 10
3.721 -1.39 -1.914 10
3.9360001 -1.452 -1.916 9
4.164 -1.5190001 -1.916 10
4.4060001 -1.591 -1.915 10
3.392 -1.302 -1.92 8
3.569 -1.35 -1.914 9
3.7690001 -1.4069999 -1.913 9
3.993 -1.472 -1.9170001 9
4.2199998 -1.539 -1.914 10
4.4710002 -1.614 -1.915 10
3.4230001 -1.312 -1.913 9
3.6159999 -1.3660001 -1.913 9
3.829 -1.428 -1.9170001 9
4.0489998 -1.492 -1.916 11
4.2859998 -1.562 -1.916 11
4.5339999 -1.636 -1.9119999 10
3.477 -1.33 -1.916 9
3.6730001 -1.386 -1.916 10
3.882 -1.446 -1.916 10
4.1030002 -1.51 -1.914 10
4.3460002 -1.582 -1.914 10
4.6110001 -1.6619999 -1.915 10
3.5220001 -1.345 -1.914 9
3.721 -1.401 -1.914 10
3.938 -1.464 -1.915 11
4.1700001 -1.5319999 -1.916 10
4.4089999 -1.603 -1.9119999 11
4.6900001 -1.688 -1.9170001 10
3.576 -1.362 -1.916 9
3.776 -1.418 -1.914 10
4 -1.484 -1.9170001 10
4.237 -1.554 -1.9170001 10
4.4840002 -1.627 -1.915 10
4.77 -1.715 -1.919 10
3.631 -1.3789999 -1.9170001 9
3.8380001 -1.438 -1.9170001 10
4.0650001 -1.505 -1.919 10
4.303 -1.575 -1.918 10
4.5609999 -1.652 -1.9170001 10
4.8559999 -1.742 -1.921 10
3.6800001 -1.393 -1.914 9
3.8970001 -1.456 -1.9170001 11
4.131 -1.525 -1.92 10
4.3649998 -1.5930001 -1.914 10
4.6409998 -1.677 -1.918 10
4.9320002 -1.766 -1.919 10
3.7420001 -1.4119999 -1.9170001 9
3.961 -1.475 -1.918 11
4.197 -1.544 -1.919 10
4.4439998 -1.617 -1.9170001 11
4.7259998 -1.7029999 -1.921 10
5.0009999 -1.785 -1.911 9
3.802 -1.429 -1.918 9
4.0240002 -1.493 -1.918 10
4.2670002 -1.5650001 -1.92 11
4.5229998 -1.641 -1.919 10
4.8080001 -1.727 -1.921 11
5.0949998 -1.814 -1.913 10
3.862 -1.4450001 -1.9170001 9
4.098 -1.5140001 -1.9220001 11
4.336 -1.584 -1.919 11
4.6059999 -1.665 -1.921 10
4.8959999 -1.753 -1.9220001 10
5.197 -1.844 -1.916 10
3.9260001 -1.4630001 -1.918 10
4.1599998 -1.531 -1.919 10
4.414 -1.6059999 -1.921 11
4.6869998 -1.688 -1.921 10
4.9899998 -1.78 -1.923 10
5.3010001 -1.874 -1.918 9
3.993 -1.4809999 -1.919 9
4.2309999 -1.55 -1.919 11
4.4920001 -1.627 -1.921 10
4.77 -1.71 -1.921 10
5.0479999 -1.793 -1.91 10
5.4159999 -1.9069999 -1.9220001 10
4.0599999 -1.498 -1.919 10
4.3109999 -1.572 -1.9220001 11
4.566 -1.646 -1.918 10
4.868 -1.737 -1.924 10
5.1869998 -1.834 -1.926 9
5.5310001 -1.939 -1.925 9
4.1399999 -1.5190001 -1.923 9
4.3839998 -1.59 -1.921 10
4.6669998 -1.674 -1.926 10
4.9679999 -1.765 -1.928 9
5.283 -1.859 -1.924 8
5.6399999 -1.9680001 -1.924 9
4.21 -1.536 -1.9220001 9
4.4590001 -1.608 -1.919 11
4.7550001 -1.697 -1.926 11
5.0570002 -1.7869999 -1.925 10
5.3959999 -1.89 -1.927 9
5.7610002 -2.0009999 -1.925 9
4.2880001 -1.5549999 -1.923 9
4.5430002 -1.6289999 -1.92 10
4.8400002 -1.717 -1.924 10
5.1529999 -1.8099999 -1.924 9
5.493 -1.913 -1.9220001 9
5.8860002 -2.033 -1.925 9
4.3699999 -1.575 -1.924 9
4.6279998 -1.649 -1.919 9
4.9359999 -1.7410001 -1.925 11
5.257 -1.836 -1.924 10
5.6160002 -1.9450001 -1.925 9
6.0089998 -2.0639999 -1.924 10
4.441 -1.59 -1.92 9
4.724 -1.6720001 -1.923 11
5.033 -1.7640001 -1.925 10
5.368 -1.863 -1.925 10
5.7490001 -1.979 -1.929 9
6.1459999 -2.099 -1.924 10
4.5250001 -1.608 -1.92 9
4.816 -1.693 -1.923 10
5.1350002 -1.7869999 -1.925 10
5.48 -1.89 -1.926 10
5.8629999 -2.0050001 -1.926 10
6.289 -2.1340001 -1.925 10
4.6079998 -1.626 -1.918 9
4.9130001 -1.715 -1.924 11
5.243 -1.812 -1.926 9
5.5960002 -1.9170001 -1.925 9
5.9959998 -2.0369999 -1.927 10
6.4310002 -2.168 -1.924 9
4.7049999 -1.647 -1.921 9
5.0100002 -1.7359999 -1.923 11
5.3569999 -1.8380001 -1.928 10
5.7220001 -1.946 -1.927 9
6.1409998 -2.0710001 -1.929 10
6.592 -2.207 -1.926 10
4.7989998 -1.6670001 -1.921 10
5.1160002 -1.7589999 -1.923 10
5.4749999 -1.864 -1.929 9
5.848 -1.973 -1.926 10
6.2810001 -2.102 -1.928 10
6.7490001 -2.2420001 -1.925 9
4.902 -1.689 -1.924 10
5.2210002 -1.78 -1.923 10
5.586 -1.886 -1.926 10
5.9949999 -2.007 -1.931 10
6.4260001 -2.1340001 -1.927 9
6.9510002 -2.2920001 -1.934 9
5.0149999 -1.7130001 -1.928 10
5.336 -1.804 -1.924 9
5.7129998 -1.913 -1.927 9
6.1279998 -2.0350001 -1.929 9
6.5819998 -2.168 -1.927 9
7.1279998 -2.3310001 -1.934 9
5.125 -1.734 -1.9299999 10
5.454 -1.8279999 -1.925 10
5.8449998 -1.941 -1.929 10
6.2740002 -2.0650001 -1.9299999 9
6.7529998 -2.2060001 -1.9299999 10
7.3070002 -2.3699999 -1.932 9
5.2199998 -1.75 -1.925 10
5.5619998 -1.847 -1.921 10
5.9780002 -1.967 -1.929 10
6.4130001 -2.092 -1.927 10
6.941 -2.247 -1.9349999 9
7.507 -2.4130001 -1.933 9
5.3309999 -1.77 -1.925 10
5.7010002 -1.875 -1.926 9
6.1259999 -1.997 -1.931 10
6.5739999 -2.125 -1.928 11
7.1199999 -2.2839999 -1.9349999 9
7.7010002 -2.454 -1.931 10
5.4580002 -1.795 -1.929 10
5.8189998 -1.895 -1.9220001 11
6.2620001 -2.0209999 -1.929 10
6.7690001 -2.1670001 -1.937 9
7.2940001 -2.3180001 -1.931 9
7.9070001 -2.4949999 -1.928 10
5.5840001 -1.817 -1.9299999 10
5.9569998 -1.92 -1.923 10
6.4109998 -2.049 -1.928 10
6.9289999 -2.1960001 -1.934 9
7.4920001 -2.3570001 -1.932 9
8.1289997 -2.539 -1.927 10
5.7069998 -1.837 -1.929 10
6.1059999 -1.947 -1.926 10
6.573 -2.0780001 -1.929 11
7.1100001 -2.23 -1.933 9
7.6989999 -2.3970001 -1.932 10
8.375 -2.5899999 -1.929 10
5.8400002 -1.859 -1.9299999 10
6.2550001 -1.973 -1.927 10
6.73 -2.105 -1.927 11
7.2969999 -2.2639999 -1.933 9
7.8920002 -2.431 -1.926 9
8.6230001 -2.638 -1.928 10
5.9780002 -1.881 -1.9299999 10
6.401 -1.9960001 -1.926 11
6.9299998 -2.1429999 -1.9349999 9
7.48 -2.2939999 -1.9299999 9
8.1280003 -2.4749999 -1.928 10
8.8859997 -2.688 -1.927 10
6.1110001 -1.9 -1.928 10
6.5549998 -2.02 -1.924 11
7.1069999 -2.1719999 -1.934 10
7.6849999 -2.3310001 -1.9299999 9
8.375 -2.5220001 -1.931 10
9.1750002 -2.744 -1.9299999 10
6.2659998 -1.925 -1.9299999 11
6.7589998 -2.0580001 -1.936 9
7.2820001 -2.1989999 -1.9299999 10
7.8930001 -2.365 -1.928 10
8.625 -2.566 -1.9299999 10
9.4580002 -2.7950001 -1.927 10
6.415 -1.946 -1.9299999 10
6.9310002 -2.0840001 -1.936 9
7.473 -2.2279999 -1.929 10
8.118 -2.402 -1.928 11
8.875 -2.608 -1.928 9
9.7700005 -2.852 -1.927 10
6.5689998 -1.967 -1.929 10
7.0929999 -2.105 -1.931 9
7.678 -2.2609999 -1.9299999 10
8.3529997 -2.441 -1.928 10
9.1599998 -2.6570001 -1.929 10
10.099 -2.911 -1.927 10
6.7690001 -1.999 -1.938 9
7.276 -2.131 -1.9299999 10
7.8889999 -2.2920001 -1.929 10
8.6040001 -2.48 -1.928 10
9.4490004 -2.7049999 -1.928 10
10.441 -2.97 -1.925 10
6.9460001 -2.0239999 -1.9400001 10
7.4629998 -2.155 -1.927 9
8.1079998 -2.323 -1.927 10
8.8559999 -2.5179999 -1.926 10
9.7589998 -2.756 -1.928 11
10.826 -3.0380001 -1.927 10
7.112 -2.0420001 -1.936 10
7.665 -2.1819999 -1.927 10
8.3369999 -2.355 -1.926 10
9.1350002 -2.5610001 -1.926 10
10.07 -2.8039999 -1.925 11
11.223 -3.105 -1.927 10
7.2839999 -2.0610001 -1.933 10
7.8670001 -2.207 -1.925 10
8.5839996 -2.3889999 -1.926 11
9.4359999 -2.6059999 -1.929 11
10.438 -2.8640001 -1.928 11
11.644 -3.174 -1.926 10
7.4809999 -2.0840001 -1.932 10
8.085 -2.233 -1.923 10
8.8509998 -2.425 -1.927 10
9.7390003 -2.6489999 -1.927 11
10.785 -2.914 -1.925 11
12.081 -3.243 -1.924 10
7.671 -2.1040001 -1.9299999 10
8.3219995 -2.263 -1.924 11
9.1239996 -2.4619999 -1.927 11
10.05 -2.691 -1.925 11
11.182 -2.9749999 -1.926 10
12.564 -3.3199999 -1.924 10
7.8790002 -2.125 -1.929 10
8.5699997 -2.2920001 -1.925 10
9.4130001 -2.4979999 -1.927 11
10.407 -2.7420001 -1.928 11
11.62 -3.04 -1.928 10
13.104 -3.4059999 -1.926 11
8.1020002 -2.1489999 -1.929 10
8.816 -2.319 -1.923 11
9.7130003 -2.5350001 -1.927 11
10.762 -2.7880001 -1.926 11
12.025 -3.0940001 -1.9220001 11
13.665 -3.493 -1.926 11
8.3210001 -2.1689999 -1.927 10
9.0810003 -2.3469999 -1.9220001 10
10.025 -2.5710001 -1.926 11
11.132 -2.8340001 -1.924 10
12.494 -3.1589999 -1.9220001 10
14.291 -3.5910001 -1.931 9
8.5670004 -2.1930001 -1.928 10
9.3629999 -2.3770001 -1.923 11
10.361 -2.6099999 -1.927 11
11.546 -2.8870001 -1.926 11
13.026 -3.2349999 -1.927 10
14.99 -3.6989999 -1.937 8
8.809 -2.214 -1.926 11
9.6669998 -2.4089999 -1.925 11
10.711 -2.648 -1.926 11
11.973 -2.9389999 -1.925 10
13.569 -3.3069999 -1.927 11
15.7 -3.803 -1.939 9
9.0740004 -2.237 -1.927 11
9.9630003 -2.4360001 -1.9220001 11
11.058 -2.6830001 -1.9220001 11
12.421 -2.9909999 -1.924 10
14.162 -3.3859999 -1.929 11
16.497 -3.9189999 -1.942 10
9.3479996 -2.2590001 -1.927 11
10.294 -2.467 -1.924 12
11.467 -2.727 -1.925 11
12.888 -3.043 -1.9220001 11
14.828 -3.4760001 -1.9349999 8
17.325001 -4.0349998 -1.943 11
9.6219997 -2.279 -1.925 11
10.617 -2.493 -1.921 12
11.865 -2.7639999 -1.9220001 10
13.399 -3.099 -1.921 10
15.536 -3.5680001 -1.9400001 9
18.360001 -4.1880002 -1.956 12
9.9320002 -2.302 -1.927 11
10.971 -2.5220001 -1.92 11
12.309 -2.8069999 -1.9220001 11
14.014 -3.1719999 -1.929 10
16.281 -3.6600001 -1.942 10
19.332001 -4.3169999 -1.954 14
10.25 -2.3239999 -1.927 11
11.344 -2.5510001 -1.919 12
12.754 -2.845 -1.919 12
14.627 -3.2390001 -1.931 10
17.125999 -3.7650001 -1.948 11
20.479 -4.473 -1.959 15
10.572 -2.3440001 -1.926 11
11.745 -2.5810001 -1.919 11
13.271 -2.8929999 -1.9220001 11
15.336 -3.3180001 -1.939 9
18.025999 -3.8729999 -1.9529999 12
21.607 -4.6110001 -1.952 14
10.917 -2.3629999 -1.925 11
12.152 -2.608 -1.916 11
13.818 -2.9419999 -1.924 11
16.037001 -3.388 -1.9400001 9
19.01 -3.9879999 -1.957 14
22.899 -4.7709999 -1.947 12
11.266 -2.3800001 -1.923 11
12.579 -2.635 -1.914 13
14.42 -2.9960001 -1.9299999 11
16.799999 -3.464 -1.943 10
20.068001 -4.1079998 -1.961 15
24.309999 -4.941 -1.942 11
11.64 -2.398 -1.9220001 11
13.062 -2.6670001 -1.916 12
15.045 -3.0480001 -1.934 11
17.649 -3.5469999 -1.95 12
21.148001 -4.2189999 -1.9579999 16
25.888 -5.1300001 -1.938 7
12.041 -2.4159999 -1.923 11
13.572 -2.7 -1.919 13
15.731 -3.1040001 -1.939 9
18.542999 -3.6289999 -1.9529999 13
22.259001 -4.3239999 -1.948 16
27.771999 -5.3569999 -1.9400001 7
12.458 -2.4330001 -1.9220001 13
14.122 -2.733 -1.9220001 11
16.437 -3.155 -1.941 10
19.517 -3.7160001 -1.956 14
23.621 -4.4640002 -1.95 14
29.629 -5.5580001 -1.924 6
12.885 -2.4449999 -1.919 13
14.748 -2.7739999 -1.931 11
17.216 -3.211 -1.9450001 11
20.594999 -3.8099999 -1.961 16
24.976 -4.586 -1.938 11
32.195999 -5.868 -1.9349999 6
13.368 -2.4630001 -1.9220001 12
15.359 -2.8050001 -1.932 9
18.035999 -3.2650001 -1.948 12
21.636 -3.8840001 -1.954 17
26.819 -4.777 -1.951 7
34.124001 -6.0339999 -1.8890001 5
13.879 -2.48 -1.925 11
15.988 -2.832 -1.932 9
18.976999 -3.3310001 -1.957 13
22.791 -3.9660001 -1.949 19
28.533001 -4.927 -1.942 8
36.792999 -6.3049998 -1.8660001 3
14.437 -2.4990001 -1.931 11
16.767 -2.875 -1.944 10
19.9 -3.3829999 -1.957 15
24.033001 -4.0500002 -1.943 17
30.568001 -5.1100001 -1.9400001 6
29.26 -4.8530002 -1.351 44
14.999 -2.513 -1.933 11
17.466999 -2.8970001 -1.943 11
20.868999 -3.4300001 -1.955 16
25.084999 -4.0869999 -1.9119999 7
28.247 -4.5630002 -1.664 42
29.445 -4.7199998 -1.229 36
15.602 -2.5239999 -1.937 9
18.253 -2.924 -1.9450001 12
21.926001 -3.4809999 -1.954 18
26.83 -4.2210002 -1.926 5
26.797001 -4.1810002 -1.462 59
31.33 -4.849 -1.173 38
16.271 -2.54 -1.9450001 10
19.115999 -2.9549999 -1.951 13
22.958 -3.513 -1.943 19
26.697001 -4.0479999 -1.799 27
26.261 -3.9460001 -1.318 73
32.459 -4.8369999 -1.075 3
16.948 -2.546 -1.948 10
20.025999 -2.9779999 -1.9529999 15
24.110001 -3.55 -1.9349999 17
26.364 -3.8469999 -1.663 52
26.872 -3.8859999 -1.2359999 30
54.543999 -7.8140001 -1.579 4
17.627001 -2.5450001 -1.948 12
20.91 -2.987 -1.948 16
25.535 -3.6110001 -1.9400001 24
26.049999 -3.648 -1.533 24
28.533001 -3.9579999 -1.193 121
28.507999 -3.9200001 -0.70899999 1
18.379999 -2.546 -1.951 13
21.863001 -2.994 -1.944 18
26.127001 -3.5409999 -1.875 24
26.143 -3.5090001 -1.431 71
27.385 -3.6389999 -1.035 48
27.886 -3.671 -0.583 68
19.215 -2.5469999 -1.959 13
22.787001 -2.987 -1.932 19
26.278 -3.408 -1.78 44
26.264 -3.3710001 -1.3329999 69
28.937 -3.674 -0.97799999 110
33.922001 -4.2659998 -0.57700002 8
20.056 -2.5369999 -1.961 15
23.872999 -2.9860001 -1.927 19
26.316 -3.2539999 -1.677 61
26.645 -3.26 -1.248 67
27.580999 -3.339 -0.82800001 14
35.112 -4.2080002 -0.465 30
20.934999 -2.5220001 -1.9630001 16
25.153999 -2.993 -1.931 16
26.358 -3.0999999 -1.577 76
27.395 -3.1860001 -1.178 39
36.655998 -4.217 -0.96200001 2
70.195 -7.9889998 -0.66900003 6
21.709999 -2.4820001 -1.95 17
26.141001 -2.9519999 -1.906 18
26.371 -2.9419999 -1.478 88
27.973 -3.085 -1.1 4
35.069 -3.822 -0.792 9
36.651001 -3.95 -0.21699999 1
22.558001 -2.4400001 -1.9400001 19
26.474001 -2.8269999 -1.832 25
26.461 -2.7909999 -1.387 72
33.493 -3.4890001 -1.196 44
37.056999 -3.8139999 -0.70599997 81
37.083 -3.7720001 -0.090999998 1
23.658001 -2.414 -1.948 18
26.736 -2.691 -1.753 47
26.575001 -2.638 -1.298 77
34.301998 -3.3610001 -1.104 45
37.544998 -3.632 -0.58499998 37
94.124001 -8.993 0.090000004 6
24.573999 -2.352 -1.934 11
26.893999 -2.539 -1.668 51
27.228001 -2.533 -1.235 100
36.645 -3.362 -1.054 48
38.134998 -3.4530001 -0.46700001 8
85.621002 -7.651 0.36399999 28
25.870001 -2.3139999 -1.947 16
26.74 -2.355 -1.567 78
27.738001 -2.408 -1.166 31
38.264999 -3.2739999 -0.97500002 18
38.513 -3.2460001 -0.34599999 41
38.123001 -3.1670001 0.28400001 3
26.530001 -2.2049999 -1.9069999 24
22.327999 -1.826 -1.235 26
28.323 -2.279 -1.098 6
38.124001 -3.02 -0.84899998 150
73.664001 -5.7490001 -0.43099999 36
84.685997 -6.5089998 0.89300001 27
22.289 -1.71 -1.529 49
22.197001 -1.673 -1.156 38
31.045 -2.302 -1.1059999 36
38.705002 -2.8210001 -0.74299997 2
39.512001 -2.8310001 -0.109 36
82.567001 -5.8210001 1.119 21
22.035999 -1.55 -1.443 63
22.162001 -1.528 -1.085 17
31.447001 -2.1300001 -1.024 7
39.745998 -2.642 -0.64399999 41
39.909 -2.6070001 0.0040000002 15
64.892998 -4.1620002 1.066 33
21.91 -1.399 -1.368 52
27.128 -1.697 -1.248 86
33.547001 -2.0580001 -0.995 2
40.181 -2.4159999 -0.53600001 6
92.903999 -5.4699998 0.27500001 21
64.835999 -3.7409999 1.247 39
21.687 -1.243 -1.29 57
27.416 -1.538 -1.183 80
0 0 0 0
59.674 -3.2030001 -0.63099998 90
59.605 -3.128 0.338 60
59.567001 -3.0569999 1.304 51
21.476 -1.0930001 -1.2180001 71
28.07 -1.393 -1.135 66
40.466999 -1.9579999 -0.977 13
40.951 -1.931 -0.32300001 46
88.228996 -4.059 0.73100001 19
65.389999 -2.9289999 1.602 42
21.528999 -0.95300001 -1.163 65
28.761 -1.239 -1.087 45
41.202 -1.725 -0.889 18
41.346001 -1.678 -0.221 24
69.474998 -2.7379999 0.75199997 3
65.432999 -2.5050001 1.7640001 41
21.955999 -0.82700002 -1.1289999 52
28.724001 -1.0470001 -1.012 9
48.187 -1.699 -0.91900003 77
89.095001 -3.0350001 -0.25999999 14
69.555 -2.2909999 0.91799998 37
65.716003 -2.089 1.926 23
22.382 -0.69400001 -1.096 23
34.439999 -1.028 -1.131 69
41.966999 -1.202 -0.70099998 99
42.109001 -1.155 -0.024 33
80.486 -2.1170001 1.248 15
69.827003 -1.757 2.2049999 26
22.677999 -0.55299997 -1.058 6
29.035999 -0.67299998 -0.88599998 51
42.301998 -0.93300003 -0.611 77
42.405998 -0.884 0.068999998 22
81.144997 -1.597 1.4349999 39
80.170998 -1.49 2.7030001 14
23.162001 -0.40900001 -1.028 1
28.915001 -0.47799999 -0.81999999 51
42.355 -0.64899999 -0.51999998 1
0 0 0 0
82.344002 -1.077 1.626 22
94.112999 -1.127 3.365 22
29.155001 -0.31900001 -1.233 9
28.747999 -0.28099999 -0.755 69
47.377998 -0.40900001 -0.486 47
87 -0.65100002 0.49900001 10
81.621002 -0.51800001 1.774 16
93.443001 -0.48699999 3.5250001 11
28.99 -0.119 -1.1670001 40
28.747999 -0.085000001 -0.69800001 66
43.326 -0.079999998 -0.36000001 46
96.237 -0.068999998 0.736 12
81.780998 0.033 1.931 17
92.731003 0.14300001 3.6689999 6
28.815001 0.075000003 -1.1059999 57
28.908001 0.109 -0.64899999 70
43.638 0.215 -0.28299999 11
96.555 0.58200002 0.91000003 12
78.183998 0.56300002 1.983 11
0 0 0 0
29.135 0.27500001 -1.067 31
29.292999 0.30899999 -0.60699999 31
57.799 0.676 -0.278 12
78.348999 1.007 0.87 25
78.115997 1.092 2.1099999 26
0 0 0 0
29.979 0.49000001 -1.048 33
29.551001 0.51499999 -0.56400001 68
66.545998 1.235 -0.213 66
77.987 1.531 0.98699999 29
78.212997 1.622 2.2309999 37
0 0 0 0
29.403 0.68099999 -0.98299998 55
29.371 0.713 -0.51700002 71
66.764999 1.691 -0.117 47
78.946999 2.089 1.113 13
62.980999 1.7359999 1.886 22
62.598 1.795 2.868 26
29.187 0.87900001 -0.93400002 60
29.351999 0.91500002 -0.47499999 72
62.828999 2.026 -0.024 71
78.674004 2.619 1.214 14
79.358002 2.7320001 2.4809999 7
114.526 4.0700002 5.395 17
29.105 1.079 -0.89399999 80
29.339001 1.117 -0.43799999 74
115.653 4.533 0.1 30
78.744003 3.168 1.312 27
0 0 0 0
122.989 5.211 5.9380002 30
29.15 1.2819999 -0.861 62
29.455999 1.327 -0.405 56
115.176 5.3070002 0.23 34
0 0 0 0
122.256 5.8959999 4.1030002 15
121.988 6.0110002 6.0209999 32
29.218 1.489 -0.83200002 72
29.57 1.536 -0.37599999 25
88.372002 4.6820002 0.266 13
123.712 6.6859999 2.322 20
120.536 6.638 4.1620002 31
120.722 6.7849998 6.0749998 31
29.396999 1.704 -0.80900002 64
69.297997 4.0869999 -0.81800002 3
87.535004 5.2529998 0.34299999 21
64.892998 3.961 1.276 3
64.781998 4.0229998 2.2939999 31
64.583 4.0840001 3.306 11
33.547001 2.1819999 -0.89499998 2
78.747002 5.1960001 -0.86500001 6
64.459999 4.3189998 0.30399999 18
64.242996 4.3699999 1.313 22
64.042 4.4239998 2.3169999 32
63.917 4.4840002 3.319 11
34.705002 2.5 -0.90200001 2
71.116997 5.1929998 -0.73199999 24
127.1 9.4130001 0.68699998 12
127.117 9.5380001 2.684 9
121.063 9.21 4.4590001 36
121.574 9.3789997 6.3899999 43
35.410999 2.8010001 -0.89899999 3
71.105003 5.6929998 -0.69099998 45
75.001999 6.079 0.447 15
122.806 10.077 2.6589999 37
123.193 10.231 4.6030002 27
121.162 10.191 6.4310002 19
36.063999 3.1070001 -0.898 4
73.255997 6.3800001 -0.67799997 65
73.460999 6.4720001 0.47099999 15
122.463 10.911 2.7060001 15
124.228 11.196 4.6950002 34
123.922 11.293 6.6300001 31
36.508999 3.4070001 -0.89600003 4
70.570999 6.6500001 -0.62900001 23
73.223999 6.9720001 0.495 20
122.508 11.786 2.7479999 38
122.535 11.906 4.671 30
123.241 12.098 6.6329999 30
36.993999 3.7149999 -0.89899999 4
70.337997 7.1279998 -0.61000001 61
81.017998 8.2889996 0.56400001 45
122.358 12.631 2.77 35
122.682 12.782 4.7010002 36
0 0 0 0
23.354 2.513 -0.56400001 30
65.874001 7.1440001 -0.56300002 88
65.859001 7.2030001 0.46700001 55
65.820999 7.2610002 1.497 33
66.089996 7.3559999 2.539 17
65.717003 7.382 3.5550001 17
22.903 2.6270001 -0.55299997 68
23.413 2.707 -0.2 15
74.896004 8.7279997 0.52999997 16
123.892 14.553 2.8169999 11
65.228996 7.723 2.5050001 4
66.028 7.8839998 3.5710001 16
22.672001 2.7650001 -0.55000001 57
22.983 2.8210001 -0.199 61
108.42 13.398 0.755 15
123.854 15.419 2.8 9
124.448 15.618 4.7649999 18
64.797997 8.1969995 3.4960001 20
22.518 2.9059999 -0.551 51
22.681 2.9449999 -0.20100001 60
108.598 14.195 0.73199999 15
127.526 16.778999 2.8559999 21
134.554 17.825001 5.1209998 13
0 0 0 0
22.332001 3.0409999 -0.55400002 56
22.487 3.0799999 -0.207 66
23.098 3.1830001 0.147 7
0 0 0 0
128.131 17.886999 4.8299999 22
131.17101 18.445999 7.0019999 18
22.146 3.1760001 -0.56 69
22.341 3.2219999 -0.21600001 65
22.955999 3.329 0.13600001 36
126.355 18.43 2.727 36
127.438 18.711 4.744 30
130.657 19.316 6.914 35
22.007 3.3169999 -0.56999999 68
22.247 3.369 -0.228 56
22.650999 3.448 0.121 58
126.295 19.336 2.652 35
127.108 19.575001 4.6599998 21
131.036 20.312 6.8600001 35
21.933001 3.4649999 -0.583 55
22.077 3.503 -0.242 73
22.525 3.592 0.105 56
125.264 20.075001 2.546 29
127.108 20.483999 4.5749998 17
0 0 0 0
21.846001 3.608 -0.59799999 58
21.988001 3.6470001 -0.25799999 61
22.358999 3.7249999 0.086000003 57
124.822 20.905001 2.438 36
125.52 21.125 4.4200001 16
126.579 21.422001 6.4419999 30
21.775 3.7539999 -0.616 65
21.923 3.7939999 -0.278 61
22.275 3.8710001 0.064999998 59
124.667 21.767 2.3210001 35
126.484 22.198 4.3400002 16
126.342 22.289 6.3169999 12
21.716999 3.902 -0.63800001 53
21.893 3.948 -0.30000001 66
22.243999 4.027 0.041999999 61
124.852 22.695999 2.1989999 21
73.799004 13.477 2.457 17
73.245003 13.442 3.5880001 4
21.671 4.0500002 -0.66100001 67
21.775 4.0830002 -0.324 70
22.184 4.1760001 0.017000001 58
78.339996 14.803 1.2920001 14
73.702003 13.983 2.3729999 9
74.545998 14.209 3.5710001 7
21.628 4.1989999 -0.68800002 57
21.733 4.2309999 -0.34999999 65
22.112 4.3200002 -0.0089999996 64
22.875999 4.4840002 0.34900001 0
83.026001 16.343 2.5710001 52
72.744003 14.382 3.3959999 12
21.593 4.3470001 -0.71600002 67
21.728001 4.3860002 -0.38 62
22.079 4.4699998 -0.039000001 64
22.827999 4.638 0.317 1
82.929001 16.917 2.4590001 144
73.363998 15.029 3.329 9
21.649 4.5170002 -0.75099999 54
21.726 4.5450001 -0.41299999 62
22.077999 4.631 -0.071999997 59
22.924 4.8249998 0.285 2
106.21 22.437 2.993 55
87.568001 18.570999 3.846 8
21.666 4.6799998 -0.787 55
21.761999 4.71 -0.44800001 66
22.143 4.8049998 -0.107 62
22.938999 4.993 0.249 1
0 0 0 0
105.485 23.124001 4.4720001 15
21.724001 4.8499999 -0.82700002 54
21.813 4.8800001 -0.48699999 72
22.157 4.9679999 -0.145 64
32.237999 7.2480001 0.296 1
0 0 0 0
105.575 23.891001 4.302 15
21.837 5.0320001 -0.87099999 54
21.886 5.052 -0.528 69
22.246 5.1479998 -0.185 67
30.982 7.1880002 0.23 35
32.247002 7.5040002 0.74800003 0
109.207 25.496 4.2589998 9
22.021999 5.2360001 -0.92299998 55
22.056 5.2519999 -0.57499999 56
22.43 5.3509998 -0.23 58
30.475 7.2870002 0.168 48
31.141001 7.4679999 0.66500002 36
161.69901 38.909 6.0050001 28
22.282 5.46 -0.98000002 57
22.285 5.4679999 -0.62699997 56
22.671 5.572 -0.278 26
30.025 7.3969998 0.105 51
30.364 7.5 0.588 45
31.513 7.8060002 1.109 37
22.926001 5.7849998 -1.058 40
22.796 5.7579999 -0.69 27
29.719 7.5180001 -0.428 52
29.693001 7.526 0.041999999 50
29.952999 7.6100001 0.51700002 58
30.599001 7.7950001 1.013 36
23.608999 6.1269999 -1.145 36
29.757999 7.73 -0.96899998 47
29.476999 7.6659999 -0.491 54
29.434 7.6690001 -0.023 46
29.658001 7.7459998 0.44800001 45
30.063999 7.8720002 0.93099999 52
20.207001 5.3889999 -1.028 11
29.487 7.8720002 -1.03 28
29.306 7.8319998 -0.55599999 55
29.215 7.8189998 -0.089000002 60
29.334 7.8660002 0.37599999 51
29.67 7.9759998 0.852 54
19.992001 5.4759998 -1.067 22
23.414 6.4190001 -0.87599999 2
29.114 7.9899998 -0.625 50
28.996 7.9689999 -0.16 61
29.114 8.0150003 0.303 55
29.377001 8.1059999 0.77399999 55
19.378 5.448 -1.086 48
21.355 6.007 -0.85500002 33
21.518 6.0580001 -0.51700002 26
28.83 8.1280003 -0.23100001 58
28.905001 8.1630001 0.228 55
29.176001 8.2550001 0.69700003 54
18.632 5.3730001 -1.095 49
21.032 6.0669999 -0.89899999 39
20.926001 6.0409999 -0.55900002 42
21.077 6.0900002 -0.22499999 47
28.716999 8.3109999 0.152 53
28.927 8.3879995 0.61500001 53
17.924999 5.2979999 -1.104 55
20.808001 6.151 -0.94700003 36
20.666 6.1129999 -0.60900003 42
20.733999 6.1389999 -0.278 51
21.07 6.2459998 0.055 47
28.677999 8.5159998 0.53399998 55
17.332001 5.2459998 -1.119 51
20.406 6.177 -0.98900002 46
20.504 6.2080002 -0.662 32
20.535 6.223 -0.333 41
20.799999 6.3119998 -0.003 38
21.076 6.4050002 0.33500001 9
16.969 5.2579999 -1.148 51
19.864 6.1539998 -1.022 38
20.437 6.3319998 -0.72100002 38
20.351999 6.3099999 -0.38999999 40
20.468 6.3520002 -0.061999999 40
20.979 6.52 0.273 37
16.898001 5.3559999 -1.197 54
19.559 6.197 -1.067 50
17.988001 5.6999998 -0.69 0
17.913 5.6799998 -0.39700001 1
17.882999 5.6750002 -0.108 10
17.875999 5.6799998 0.17900001 56
16.851999 5.4619999 -1.249 59
18.607 6.027 -1.075 49
20.106001 6.5120001 -0.83499998 35
20.073 6.5029998 -0.50800002 54
20.155001 6.5349998 -0.184 46
20.440001 6.6339998 0.14300001 47
16.827999 5.5739999 -1.304 56
17.802999 5.8920002 -1.0880001 50
19.931999 6.5949998 -0.89300001 50
19.969 6.6090002 -0.56999999 44
20.084 6.651 -0.24699999 47
20.216 6.7010002 0.078000002 39
16.784 5.677 -1.359 55
16.975 5.7389998 -1.096 43
19.875 6.7160001 -0.958 50
19.922001 6.7309999 -0.63499999 36
19.995001 6.7589998 -0.31200001 35
20.096001 6.7989998 0.012 35
16.775 5.7930002 -1.419 53
16.757 5.7820001 -1.142 56
19.797001 6.8270001 -1.024 35
19.844999 6.842 -0.70099998 43
19.856001 6.8470001 -0.377 44
20 6.9029999 -0.054000001 37
16.764 5.908 -1.48 42
16.695999 5.8769999 -1.198 64
19.135 6.7309999 -1.058 46
19.636 6.9060001 -0.764 49
19.695 6.927 -0.44299999 42
19.858 6.9889998 -0.123 39
16.712999 6.0079999 -1.539 48
16.722 6.0029998 -1.263 51
18.353001 6.5840001 -1.0829999 49
19.649 7.0450001 -0.83499998 51
19.756001 7.0830002 -0.51499999 34
19.747 7.0840001 -0.192 44
16.865 6.1789999 -1.619 36
16.684 6.1040001 -1.324 46
17.405001 6.3629999 -1.092 54
19.655001 7.1810002 -0.90899998 50
19.624001 7.1690001 -0.58399999 46
19.628 7.1729999 -0.26100001 46
16.798 6.2719998 -1.6799999 51
16.721001 6.2329998 -1.392 46
16.781 6.2480001 -1.118 41
19.632999 7.3049998 -0.98299998 39
19.615 7.2979999 -0.65700001 42
19.664 7.3179998 -0.33500001 44
16.702999 6.3530002 -1.739 32
16.721001 6.349 -1.46 39
16.599001 6.2930002 -1.171 41
19.174 7.2639999 -1.034 49
19.497999 7.3839998 -0.72899997 43
19.583 7.415 -0.40799999 39
16.575001 6.4169998 -1.795 15
16.65 6.4349999 -1.523 48
16.534 6.381 -1.234 48
18.628 7.1820002 -1.079 48
19.448 7.493 -0.80199999 47
19.598 7.5510001 -0.484 35
16.408001 6.4650002 -1.847 14
16.752001 6.5879998 -1.602 41
16.488001 6.474 -1.299 53
17.596001 6.9000001 -1.091 49
19.417 7.6110001 -0.88 41
19.577 7.671 -0.56099999 36
15.898 6.3730001 -1.859 11
16.632 6.6529999 -1.6619999 38
16.483999 6.5809999 -1.368 51
16.507999 6.5819998 -1.091 54
19.395 7.7259998 -0.95700002 38
19.554001 7.7859998 -0.63800001 32
15.266 6.2220001 -1.853 10
16.573 6.7389998 -1.729 34
16.525 6.7059999 -1.442 45
16.448999 6.665 -1.1569999 39
19.188999 7.7680001 -1.027 50
19.405001 7.8509998 -0.71399999 39
14.703 6.0910001 -1.852 9
16.459 6.8000002 -1.79 18
16.524 6.8130002 -1.5140001 53
16.441999 6.7690001 -1.227 46
18.784 7.7249999 -1.085 48
19.415001 7.9790001 -0.79500002 41
14.159 5.96 -1.849 8
16.268 6.829 -1.8430001 16
16.486 6.9060001 -1.586 38
16.434999 6.8720002 -1.3 39
16.631001 6.9460001 -1.033 19
19.521 8.1459999 -0.88300002 45
13.648 5.836 -1.847 8
15.645 6.671 -1.846 10
16.606001 7.0640001 -1.673 48
16.34 6.9369998 -1.3660001 43
16.521 7.0040002 -1.1 45
19.506001 8.2609997 -0.96799999 32
13.142 5.7059999 -1.842 7
15.019 6.5 -1.842 9
16.459 7.1059999 -1.733 30
16.355 7.0469999 -1.442 48
16.348 7.0320001 -1.161 49
19.243999 8.2700005 -1.04 44
12.679 5.5879998 -1.839 9
14.426 6.3379998 -1.839 9
16.344999 7.1620002 -1.8 12
16.465 7.198 -1.529 47
16.356001 7.138 -1.237 48
18.112 7.8940001 -1.061 47
12.265 5.4850001 -1.84 9
13.879 6.1849999 -1.837 8
16.098 7.1539998 -1.849 11
16.457001 7.296 -1.604 46
16.344999 7.2329998 -1.311 49
16.625 7.3470001 -1.049 37
11.85 5.375 -1.8380001 9
13.355 6.0370002 -1.834 7
15.394 6.9369998 -1.8430001 10
16.466 7.401 -1.684 46
16.302999 7.3130002 -1.385 44
16.336 7.3169999 -1.107 38
11.436 5.2600002 -1.832 10
12.867 5.8959999 -1.832 8
14.776 6.75 -1.841 9
16.372999 7.4590001 -1.7539999 23
16.604 7.5489998 -1.49 36
16.273001 7.3860002 -1.179 46
11.075 5.164 -1.832 10
12.415 5.7659998 -1.831 9
14.184 6.5669999 -1.839 9
16.222 7.4899998 -1.819 14
16.408001 7.5580001 -1.552 46
16.238001 7.4660001 -1.2539999 48
10.724 5.0679998 -1.831 10
11.994 5.645 -1.831 9
13.608 6.382 -1.834 8
15.724 7.3520002 -1.841 11
16.382999 7.6420002 -1.631 44
16.288 7.5830002 -1.337 36
10.397 4.9780002 -1.831 10
11.558 5.5110002 -1.825 9
13.08 6.2129998 -1.831 7
15.058 7.1300001 -1.84 10
16.372 7.7319999 -1.712 34
16.198999 7.6339998 -1.41 51
10.065 4.8800001 -1.827 11
11.171 5.3930001 -1.824 10
12.622 6.0700002 -1.8329999 9
14.429 6.915 -1.836 9
16.25 7.7670002 -1.78 11
16.169001 7.711 -1.487 44
9.7550001 4.789 -1.825 11
10.811 5.283 -1.823 10
12.161 5.9190001 -1.83 9
13.853 6.7189999 -1.835 8
16.031 7.7519999 -1.837 11
16.301001 7.8629999 -1.58 43
9.4949999 4.717 -1.8279999 12
10.483 5.184 -1.825 10
11.734 5.777 -1.827 9
13.323 6.5359998 -1.834 8
15.312 7.4889998 -1.8329999 10
16.299999 7.9520001 -1.6619999 42
9.2290001 4.6399999 -1.829 11
10.129 5.0669999 -1.818 11
11.332 5.6440001 -1.826 10
12.807 6.3540001 -1.831 7
14.701 7.27 -1.837 10
16.221001 8 -1.738 20
8.9689999 4.5609999 -1.8279999 12
9.8330002 4.9749999 -1.8200001 11
10.938 5.5089998 -1.822 10
12.319 6.1799998 -1.827 9
14.046 7.0219998 -1.829 9
16.129 8.04 -1.812 9
8.7279997 4.4889998 -1.83 11
9.5439997 4.8829999 -1.8200001 12
10.583 5.388 -1.821 11
11.884 6.0250001 -1.826 9
13.514 6.8270001 -1.831 8
15.599 7.8559999 -1.834 11
8.4790001 4.408 -1.826 11
9.2799997 4.7979999 -1.822 12
10.251 5.2740002 -1.821 11
11.459 5.8699999 -1.823 9
12.983 6.625 -1.8279999 7
14.914 7.586 -1.831 10
8.2559996 4.3369999 -1.826 11
9.0299997 4.717 -1.824 12
9.9329996 5.1630001 -1.819 11
11.083 5.7340002 -1.823 10
12.462 6.4219999 -1.821 8
14.275 7.3319998 -1.827 9
8.0500002 4.2729998 -1.8279999 12
8.7770004 4.631 -1.823 11
9.6370001 5.0580001 -1.819 12
10.699 5.5890002 -1.819 10
12.045 6.2670002 -1.826 8
13.714 7.1100001 -1.8279999 8
7.849 4.2080002 -1.8279999 12
8.5209999 4.5409999 -1.819 11
9.3710003 4.9660001 -1.822 12
10.361 5.4640002 -1.819 10
11.588 6.085 -1.819 8
13.162 6.8860002 -1.825 8
7.651 4.1420002 -1.8279999 11
8.3030005 4.4660001 -1.821 11
9.1049995 4.8699999 -1.822 12
10.039 5.342 -1.818 10
11.199 5.9330001 -1.819 9
12.644 6.6729999 -1.821 8
7.473 4.0830002 -1.829 11
8.0790005 4.3860002 -1.819 11
8.8610001 4.7820001 -1.823 11
9.7340002 5.2259998 -1.817 11
10.826 5.7849998 -1.818 10
12.188 6.487 -1.821 9
7.2989998 4.0240002 -1.83 11
7.8870001 4.3189998 -1.821 11
8.6190004 4.6919999 -1.823 12
9.4530001 5.118 -1.818 12
10.474 5.6430001 -1.816 10
11.747 6.303 -1.818 10
7.1430001 3.973 -1.834 11
7.7010002 4.2540002 -1.823 11
8.3809996 4.6009998 -1.8200001 11
9.1890001 5.0159998 -1.819 12
10.125 5.4990001 -1.812 11
11.337 6.131 -1.816 9
6.9850001 3.9189999 -1.836 11
7.5229998 4.1900001 -1.826 11
8.1599998 4.5159998 -1.8200001 12
8.9449997 4.9219999 -1.821 12
9.8500004 5.3920002 -1.817 10
10.939 5.96 -1.812 11
6.8400002 3.868 -1.839 10
7.342 4.1220002 -1.825 11
7.9590001 4.4390001 -1.821 11
8.71 4.829 -1.822 12
9.5570002 5.2709999 -1.816 12
10.597 5.816 -1.813 10
6.6869998 3.812 -1.8380001 10
7.1989999 4.073 -1.832 12
7.7680001 4.3649998 -1.822 12
8.4650002 4.7270002 -1.819 11
9.2849998 5.1570001 -1.816 12
10.277 5.6799998 -1.814 10
6.5300002 3.7509999 -1.835 11
7.0310001 4.007 -1.831 11
7.585 4.2930002 -1.823 11
8.2399998 4.6339998 -1.817 12
9.04 5.0549998 -1.818 13
9.9540005 5.5380001 -1.811 10
6.395 3.6989999 -1.835 11
6.8769999 3.947 -1.831 10
7.4229999 4.2290001 -1.826 11
8.0340004 4.5479999 -1.817 12
8.8039999 4.954 -1.819 12
9.6599998 5.408 -1.811 11
6.2620001 3.648 -1.835 12
6.7449999 3.8970001 -1.836 11
7.2589998 4.1630001 -1.8279999 12
7.855 4.4749999 -1.821 12
8.5769997 4.8569999 -1.8200001 12
9.3940001 5.29 -1.813 12
6.1370001 3.599 -1.836 11
6.5999999 3.839 -1.836 10
7.1129999 4.105 -1.832 11
7.671 4.3969998 -1.821 12
8.3299999 4.744 -1.814 11
9.1630001 5.1900001 -1.818 13
6.0180001 3.552 -1.837 11
6.4829998 3.793 -1.841 10
6.961 4.0409999 -1.8329999 11
7.506 4.3260002 -1.825 12
8.1219997 4.651 -1.813 12
8.9119997 5.0749998 -1.816 11
5.9130001 3.51 -1.84 11
6.3200002 3.72 -1.832 11
6.8179998 3.98 -1.835 10
7.3340001 4.25 -1.824 11
7.9330001 4.5669999 -1.8150001 12
8.6890001 4.973 -1.817 13
5.7969999 3.4619999 -1.839 12
6.1890001 3.6619999 -1.83 11
6.6799998 3.9200001 -1.836 10
7.184 4.184 -1.827 11
7.7659998 4.4920001 -1.819 12
8.4720001 4.8709998 -1.818 12
5.6989999 3.421 -1.841 12
6.0700002 3.6110001 -1.83 12
6.5539999 3.8659999 -1.8380001 10
7.0440001 4.1220002 -1.831 11
7.6020002 4.4180002 -1.822 12
8.243 4.7600002 -1.812 12
5.6030002 3.3800001 -1.844 12
5.9660001 3.5650001 -1.834 12
6.4070001 3.796 -1.8329999 12
6.9120002 4.0630002 -1.834 11
7.4390001 4.3410001 -1.823 11
8.0539999 4.6700001 -1.813 12
5.5 3.3340001 -1.842 10
5.862 3.5190001 -1.835 11
6.296 3.7460001 -1.836 12
6.7810001 4.0019999 -1.836 11
7.2849998 4.2680001 -1.824 12
7.8800001 4.586 -1.816 12
5.402 3.289 -1.841 10
5.7589998 3.471 -1.835 11
6.1729999 3.687 -1.835 12
6.6469998 3.938 -1.836 10
7.1539998 4.2059999 -1.829 12
7.7129998 4.5029998 -1.817 12
5.3210001 3.2520001 -1.844 10
5.6630001 3.4260001 -1.837 12
6.052 3.628 -1.832 12
6.5219998 3.8770001 -1.836 10
7.0149999 4.1370001 -1.83 11
7.5630002 4.4289999 -1.821 12
5.23 3.2079999 -1.842 10
5.572 3.3829999 -1.8380001 11
5.9499998 3.5780001 -1.8329999 12
6.3850002 3.806 -1.831 11
6.8839998 4.0710001 -1.832 11
7.4130001 4.3530002 -1.823 11
5.1550002 3.1730001 -1.845 10
5.4759998 3.335 -1.836 11
5.8600001 3.5339999 -1.837 11
6.2800002 3.7539999 -1.835 12
6.7719998 4.0149999 -1.837 11
7.2639999 4.2750001 -1.823 11
5.0770001 3.1340001 -1.845 10
5.3850002 3.2880001 -1.835 10
5.763 3.484 -1.837 11
6.1739998 3.6989999 -1.836 12
6.645 3.9489999 -1.837 10
7.1459999 4.2140002 -1.829 12
5.0019999 3.096 -1.845 10
5.309 3.25 -1.8380001 10
5.6760001 3.4389999 -1.839 12
6.072 3.645 -1.836 12
6.5050001 3.872 -1.83 11
7.0170002 4.145 -1.83 11
4.9380002 3.062 -1.848 10
5.2340002 3.21 -1.839 10
5.5879998 3.392 -1.839 11
5.9780002 3.5940001 -1.8380001 12
6.3839998 3.8050001 -1.8279999 12
6.8959999 4.0780001 -1.832 11
4.8540001 3.016 -1.842 10
5.1630001 3.1719999 -1.841 11
5.5139999 3.3510001 -1.842 11
5.8850002 3.5420001 -1.8380001 11
6.2880001 3.7520001 -1.831 12
6.7579999 4 -1.8279999 12
4.7940001 2.983 -1.844 10
5.1040001 3.1389999 -1.845 11
5.4260001 3.3010001 -1.839 10
5.7870002 3.487 -1.835 11
6.1880002 3.6949999 -1.831 12
6.6360002 3.9300001 -1.825 11
4.7389998 2.951 -1.847 10
5.027 3.0940001 -1.842 11
5.3509998 3.2579999 -1.84 11
5.71 3.4419999 -1.837 12
6.1090002 3.6489999 -1.835 12
6.5339999 3.8699999 -1.826 12
4.6849999 2.9200001 -1.849 10
4.967 3.059 -1.844 11
5.29 3.2219999 -1.844 11
5.6370001 3.398 -1.84 13
6.007 3.5880001 -1.832 12
6.4289999 3.8069999 -1.826 12
4.6259999 2.8840001 -1.848 10
4.9070001 3.0220001 -1.845 10
5.2189999 3.1789999 -1.8430001 10
5.5630002 3.3529999 -1.841 11
5.9330001 3.5420001 -1.836 12
6.3340001 3.7479999 -1.827 12
4.5760002 2.8529999 -1.85 10
4.8429999 2.9820001 -1.8430001 11
5.1539998 3.138 -1.8430001 10
5.4910002 3.3069999 -1.842 10
5.842 3.4849999 -1.8329999 11
6.25 3.6949999 -1.829 11
4.5219998 2.8180001 -1.849 10
4.7789998 2.941 -1.84 12
5.092 3.0969999 -1.8430001 12
5.4109998 3.256 -1.8380001 10
5.7810001 3.4449999 -1.8380001 11
6.1680002 3.642 -1.831 12
4.4770002 2.7869999 -1.85 9
4.7329998 2.9089999 -1.8430001 12
5.0380001 3.0610001 -1.845 10
5.3499999 3.2149999 -1.84 10
5.71 3.3970001 -1.839 13
6.0809999 3.585 -1.83 12
4.4250002 2.7509999 -1.848 10
4.6989999 2.8840001 -1.849 11
4.9850001 3.023 -1.846 10
5.2859998 3.171 -1.839 10
5.6360002 3.3469999 -1.8380001 11
6.0110002 3.536 -1.832 11
4.3860002 2.7219999 -1.85 10
4.6350002 2.8399999 -1.8430001 11
4.9229999 2.98 -1.8430001 12
5.2329998 3.132 -1.841 11
5.5619998 3.2950001 -1.835 11
5.9400001 3.4860001 -1.8329999 11
4.3340001 2.684 -1.845 10
4.6020002 2.813 -1.848 10
4.8759999 2.9449999 -1.844 11
5.1820002 3.0940001 -1.8430001 12
5.5149999 3.2579999 -1.84 12
5.869 3.434 -1.8329999 11
4.2979999 2.6559999 -1.846 10
4.5580001 2.779 -1.848 11
4.829 2.908 -1.844 11
5.1329999 3.056 -1.844 11
5.4590001 3.2149999 -1.841 11
5.8049998 3.3859999 -1.8329999 11
4.263 2.6270001 -1.847 9
4.52 2.747 -1.849 10
4.79 2.875 -1.847 12
5.0840001 3.016 -1.844 12
5.4029999 3.1719999 -1.841 10
5.7509999 3.3429999 -1.836 11
4.2340002 2.5999999 -1.85 10
4.4790001 2.7130001 -1.847 11
4.7529998 2.8429999 -1.848 10
5.0359998 2.977 -1.844 10
5.3460002 3.1259999 -1.839 11
5.691 3.2939999 -1.836 11
4.2020001 2.5710001 -1.85 9
4.4429998 2.681 -1.847 11
4.7119999 2.8069999 -1.848 12
4.9949999 2.941 -1.845 11
5.3039999 3.089 -1.842 11
5.6430001 3.2520001 -1.8380001 11
4.1669998 2.539 -1.848 9
4.4169998 2.654 -1.85 11
4.678 2.7750001 -1.849 11
4.9460001 2.8989999 -1.842 11
5.257 3.0469999 -1.841 11
5.5900002 3.207 -1.8380001 11
4.1389999 2.5109999 -1.848 9
4.3860002 2.6229999 -1.851 11
4.638 2.7379999 -1.848 11
4.9109998 2.865 -1.844 11
5.2080002 3.003 -1.84 12
5.5430002 3.164 -1.839 11
4.119 2.487 -1.851 9
4.3559999 2.592 -1.851 10
4.6100001 2.707 -1.849 11
4.8800001 2.8310001 -1.846 11
5.1700001 2.9660001 -1.841 13
5.4829998 3.112 -1.834 11
4.0960002 2.4590001 -1.852 9
4.3270001 2.5610001 -1.85 11
4.5830002 2.677 -1.851 13
4.8470001 2.796 -1.846 11
5.1399999 2.931 -1.8430001 12
5.4489999 3.0739999 -1.836 11
4.079 2.4349999 -1.854 10
4.302 2.5309999 -1.85 10
4.5549998 2.645 -1.851 12
4.816 2.7609999 -1.846 11
5.1079998 2.895 -1.845 12
5.4060001 3.0309999 -1.836 11
4.0580001 2.408 -1.855 9
4.277 2.5009999 -1.849 10
4.5349998 2.6159999 -1.853 11
4.7839999 2.7260001 -1.845 11
5.0549998 2.846 -1.837 12
5.3730001 2.993 -1.837 12
4.0380001 2.3800001 -1.854 9
4.2579999 2.473 -1.85 11
4.5110002 2.585 -1.853 12
4.7620001 2.694 -1.847 11
5.0300002 2.812 -1.839 11
5.3439999 2.9549999 -1.8380001 12
4.0240002 2.355 -1.8559999 9
4.2399998 2.4460001 -1.851 11
4.4910002 2.5550001 -1.854 10
4.7379999 2.661 -1.848 12
5.0100002 2.78 -1.842 11
5.316 2.918 -1.84 12
4.0110002 2.3310001 -1.858 9
4.2199998 2.4159999 -1.85 9
4.4720001 2.5250001 -1.855 11
4.717 2.6289999 -1.848 11
4.987 2.747 -1.8430001 11
5.277 2.8740001 -1.837 12
4 2.306 -1.859 10
4.2059999 2.3889999 -1.851 10
4.454 2.4949999 -1.855 11
4.6939998 2.595 -1.847 11
4.9549999 2.707 -1.84 11
5.263 2.8429999 -1.841 11
3.983 2.2780001 -1.857 9
4.191 2.3610001 -1.851 10
4.4359999 2.464 -1.854 11
4.6849999 2.5680001 -1.851 11
4.947 2.6789999 -1.845 12
5.23 2.8 -1.8380001 12
3.971 2.2509999 -1.857 9
4.1799998 2.3340001 -1.852 10
4.4200001 2.434 -1.853 12
4.6680002 2.5369999 -1.851 11
4.9299998 2.6459999 -1.846 13
5.2020001 2.76 -1.835 12
3.9690001 2.2290001 -1.86 9
4.1700001 2.3069999 -1.853 10
4.4039998 2.4030001 -1.852 12
4.6560001 2.506 -1.852 11
4.914 2.6129999 -1.846 11
5.1880002 2.727 -1.837 12
3.9560001 2.201 -1.858 9
4.1620002 2.2809999 -1.853 11
4.3940001 2.3740001 -1.853 11
4.638 2.473 -1.85 11
4.881 2.5710001 -1.839 11
5.178 2.6960001 -1.84 11
3.95 2.177 -1.859 9
4.1609998 2.2579999 -1.8559999 11
4.3930001 2.3499999 -1.8559999 10
4.638 2.4489999 -1.854 11
4.8899999 2.549 -1.847 11
5.1739998 2.6659999 -1.844 12
3.948 2.1530001 -1.86 9
4.1539998 2.2309999 -1.8559999 10
4.3829999 2.3210001 -1.855 11
4.6240001 2.4159999 -1.852 11
4.8800001 2.517 -1.847 12
5.145 2.6229999 -1.8380001 12
3.9449999 2.128 -1.86 9
4.1490002 2.204 -1.8559999 10
4.3759999 2.2920001 -1.855 11
4.618 2.3859999 -1.853 11
4.8730001 2.4860001 -1.848 12
5.1529999 2.599 -1.844 12
3.941 2.1029999 -1.859 9
4.1479998 2.1800001 -1.857 11
4.3769999 2.267 -1.857 10
4.6100001 2.3559999 -1.852 12
4.8649998 2.4549999 -1.848 12
5.1290002 2.5580001 -1.839 11
3.9430001 2.0799999 -1.8609999 9
4.1430001 2.152 -1.8559999 10
4.3639998 2.234 -1.853 12
4.6110001 2.329 -1.853 12
4.8660002 2.427 -1.85 11
5.1430001 2.5339999 -1.846 11
3.9430001 2.056 -1.8609999 9
4.1490002 2.1300001 -1.858 11
4.3660002 2.2090001 -1.854 11
4.6110001 2.302 -1.855 11
4.8569999 2.3929999 -1.848 12
5.1339998 2.5 -1.845 11
3.9530001 2.036 -1.865 10
4.1469998 2.1029999 -1.857 9
4.369 2.184 -1.855 10
4.6139998 2.2750001 -1.8559999 11
4.8610001 2.3659999 -1.85 12
5.125 2.4649999 -1.842 11
3.9530001 2.01 -1.863 10
4.1550002 2.0810001 -1.86 11
4.3740001 2.1589999 -1.857 11
4.6110001 2.2449999 -1.854 11
4.8629999 2.3369999 -1.85 12
5.1430001 2.4419999 -1.848 11
3.961 1.989 -1.8660001 9
4.1599998 2.056 -1.86 11
4.3779998 2.1329999 -1.857 11
4.6100001 2.2149999 -1.852 11
4.869 2.309 -1.852 12
5.138 2.408 -1.846 12
3.9649999 1.964 -1.864 10
4.164 2.0309999 -1.86 10
4.3769999 2.1029999 -1.854 10
4.619 2.1889999 -1.854 11
4.8759999 2.2809999 -1.853 12
5.1430001 2.3770001 -1.847 12
3.973 1.941 -1.865 10
4.1760001 2.0090001 -1.862 11
4.388 2.0799999 -1.857 11
4.6259999 2.1630001 -1.855 11
4.882 2.2520001 -1.852 12
5.1560001 2.3499999 -1.849 13
3.9779999 1.916 -1.864 9
4.1830001 1.984 -1.862 12
4.3940001 2.053 -1.8559999 11
4.6440001 2.1400001 -1.859 12
4.8850002 2.2219999 -1.851 11
5.164 2.3199999 -1.849 12
3.9879999 1.893 -1.864 9
4.1989999 1.962 -1.864 11
4.4060001 2.0280001 -1.8559999 11
4.6479998 2.1110001 -1.857 11
4.8959999 2.1949999 -1.851 12
5.1739998 2.29 -1.85 13
4.0079999 1.874 -1.869 9
4.2059999 1.936 -1.863 11
4.4190001 2.0050001 -1.857 11
4.658 2.0829999 -1.8559999 11
4.9130001 2.1689999 -1.853 10
5.1869998 2.2620001 -1.85 11
4.0159998 1.849 -1.867 10
4.2210002 1.913 -1.864 10
4.4359999 1.982 -1.859 11
4.6750002 2.059 -1.858 12
4.928 2.142 -1.854 12
5.197 2.2309999 -1.849 11
4.027 1.825 -1.8660001 10
4.2379999 1.891 -1.865 11
4.4450002 1.954 -1.857 10
4.6880002 2.0320001 -1.857 11
4.9400001 2.1140001 -1.853 11
5.2140002 2.2030001 -1.849 11
4.0469999 1.8049999 -1.868 10
4.2459998 1.864 -1.863 10
4.4660001 1.932 -1.86 12
4.7080002 2.0079999 -1.859 11
4.9640002 2.0899999 -1.8559999 12
5.2329998 2.1760001 -1.85 11
4.0630002 1.783 -1.868 9
4.2670002 1.8430001 -1.865 11
4.487 1.91 -1.8609999 10
4.7280002 1.984 -1.86 11
4.98 2.062 -1.855 12
5.2509999 2.1470001 -1.85 11
4.0819998 1.761 -1.869 10
4.283 1.819 -1.864 11
4.5040002 1.885 -1.8609999 11
4.7470002 1.959 -1.86 11
5.0050001 2.0380001 -1.857 12
5.2789998 2.122 -1.852 12
4.099 1.738 -1.868 10
4.2969999 1.794 -1.862 11
4.526 1.862 -1.862 11
4.7659998 1.933 -1.859 12
5.0279999 2.0120001 -1.857 11
5.3039999 2.096 -1.853 12
4.1149998 1.715 -1.867 10
4.3210001 1.773 -1.863 12
4.5469999 1.837 -1.8609999 12
4.7880001 1.908 -1.859 10
5.0479999 1.985 -1.8559999 11
5.3299999 2.069 -1.853 12
4.1399999 1.694 -1.869 10
4.3439999 1.75 -1.864 11
4.5749998 1.816 -1.864 11
4.8150001 1.8839999 -1.86 11
5.073 1.959 -1.8559999 12
5.3600001 2.043 -1.854 12
4.1609998 1.6720001 -1.869 10
4.368 1.728 -1.864 11
4.6059999 1.795 -1.867 11
4.8509998 1.863 -1.864 11
5.1040001 1.934 -1.857 12
5.388 2.0150001 -1.853 13
4.1880002 1.651 -1.87 10
4.3940001 1.705 -1.865 11
4.6230001 1.767 -1.863 11
4.8709998 1.836 -1.8609999 11
5.1409998 1.911 -1.86 11
5.4190001 1.989 -1.853 12
4.21 1.628 -1.869 10
4.4250002 1.6849999 -1.867 11
4.6589999 1.748 -1.8660001 12
4.902 1.813 -1.862 11
5.165 1.8839999 -1.857 11
5.467 1.9680001 -1.858 12
4.2399998 1.608 -1.87 9
4.4450002 1.659 -1.864 11
4.684 1.722 -1.864 11
4.9349999 1.789 -1.862 12
5.1830001 1.853 -1.851 11
5.5029998 1.942 -1.858 12
4.2659998 1.586 -1.87 11
4.4770002 1.638 -1.865 11
4.7210002 1.702 -1.867 12
4.9689999 1.765 -1.863 11
5.2410002 1.837 -1.86 11
5.5190001 1.909 -1.851 11
4.3010001 1.567 -1.872 10
4.507 1.6160001 -1.865 12
4.7540002 1.679 -1.867 11
5.0149999 1.7460001 -1.867 11
5.2810001 1.813 -1.86 12
5.5770001 1.89 -1.8559999 12
4.329 1.545 -1.872 11
4.54 1.594 -1.865 11
4.7919998 1.658 -1.869 12
5.0450001 1.72 -1.865 11
5.3150001 1.788 -1.859 12
5.6290002 1.869 -1.86 12
4.362 1.524 -1.872 11
4.5780001 1.574 -1.867 12
4.8330002 1.637 -1.87 11
5.0890002 1.699 -1.8660001 13
5.3610001 1.765 -1.86 12
5.6459999 1.835 -1.85 12
4.3940001 1.502 -1.8710001 10
4.6090002 1.551 -1.865 12
4.875 1.6160001 -1.872 13
5.1269999 1.675 -1.8660001 12
5.4060001 1.7410001 -1.86 12
5.7249999 1.8200001 -1.86 12
4.4320002 1.482 -1.873 11
4.645 1.529 -1.865 13
4.9120002 1.592 -1.8710001 12
5.1680002 1.651 -1.865 12
5.461 1.72 -1.863 12
5.7779999 1.796 -1.8609999 13
4.4699998 1.462 -1.873 10
4.6939998 1.51 -1.869 13
4.948 1.568 -1.868 12
5.2129998 1.628 -1.864 11
5.5089998 1.696 -1.863 12
