# .PCD v0.7 - Point Cloud Data file format
VERSION 0.7
FIELDS x y z intensity
SIZE 4 4 4 4
TYPE F F F F
COUNT 1 1 1 1
WIDTH 1771
HEIGHT 1
VIEWPOINT 0 0 0 1 0 0 0
POINTS 1771
DATA ascii
3.74 -0.44 -1.895 9
3.9070001 -0.45100001 -1.893 9
4.085 -0.463 -1.891 10
4.2750001 -0.477 -1.89 10
3.3929999 -0.43399999 -1.9 7
3.5480001 -0.44400001 -1.902 9
3.704 -0.45500001 -1.899 9
3.8599999 -0.465 -1.893 9
4.0320001 -0.477 -1.8890001 10
4.2249999 -0.49200001 -1.89 10
3.3510001 -0.44600001 -1.898 8
3.5039999 -0.45699999 -1.9 8
3.6619999 -0.46799999 -1.9 10
3.8180001 -0.479 -1.8940001 9
3.9879999 -0.49200001 -1.89 10
4.184 -0.50700003 -1.895 10
3.3099999 -0.458 -1.896 8
3.4630001 -0.46900001 -1.899 10
3.619 -0.48100001 -1.898 9
3.7739999 -0.493 -1.893 9
3.941 -0.505 -1.8890001 10
4.125 -0.52100003 -1.8890001 10
3.2809999 -0.472 -1.901 8
3.4260001 -0.48199999 -1.899 9
3.5799999 -0.49399999 -1.899 9
3.74 -0.50700003 -1.897 9
3.895 -0.51899999 -1.888 10
4.0799999 -0.53500003 -1.89 10
3.2449999 -0.484 -1.9 7
3.388 -0.495 -1.898 8
3.546 -0.50800002 -1.901 9
3.7060001 -0.52200001 -1.9 9
3.8599999 -0.53399998 -1.891 9
4.0349998 -0.55000001 -1.8890001 10
3.2049999 -0.49599999 -1.896 7
3.3559999 -0.50800002 -1.9 8
3.5139999 -0.52200001 -1.903 8
3.6619999 -0.53399998 -1.897 9
3.8199999 -0.54799998 -1.891 9
3.9909999 -0.56400001 -1.888 9
3.1760001 -0.50800002 -1.898 7
3.323 -0.52100003 -1.9 9
3.4779999 -0.53500003 -1.902 8
3.632 -0.54900002 -1.901 8
3.779 -0.56199998 -1.89 9
3.954 -0.579 -1.89 9
3.1500001 -0.52200001 -1.901 7
3.2909999 -0.53399998 -1.901 8
3.438 -0.54799998 -1.899 9
3.598 -0.56300002 -1.901 9
3.7479999 -0.57700002 -1.893 9
3.908 -0.59200001 -1.886 9
3.1140001 -0.53299999 -1.898 7
3.2579999 -0.54699999 -1.9 8
3.4159999 -0.56300002 -1.905 8
3.5699999 -0.57800001 -1.904 9
3.72 -0.59200001 -1.897 9
3.8800001 -0.60799998 -1.89 9
3.0840001 -0.54500002 -1.897 7
3.2279999 -0.55900002 -1.899 8
3.3800001 -0.57499999 -1.902 9
3.53 -0.58999997 -1.9 9
3.6819999 -0.60500002 -1.8940001 9
3.8469999 -0.62300003 -1.892 9
3.059 -0.55800003 -1.899 7
3.2019999 -0.57300001 -1.901 8
3.349 -0.588 -1.902 8
3.5009999 -0.60399997 -1.901 8
3.655 -0.62 -1.897 9
3.8150001 -0.63800001 -1.892 9
3.0350001 -0.57099998 -1.9 7
3.177 -0.58600003 -1.902 7
3.322 -0.60100001 -1.902 8
3.471 -0.61799997 -1.901 8
3.6259999 -0.63499999 -1.898 9
3.78 -0.65200001 -1.891 9
0 0 0 0
3.148 -0.59799999 -1.901 7
3.293 -0.61400002 -1.902 8
3.4449999 -0.63200003 -1.902 8
3.592 -0.648 -1.896 9
3.7550001 -0.667 -1.8940001 8
0 0 0 0
3.1229999 -0.611 -1.901 8
3.27 -0.62800002 -1.903 8
3.4200001 -0.64499998 -1.903 8
3.569 -0.66299999 -1.898 8
3.7320001 -0.68300003 -1.897 8
1.569 -0.322 -1.007 3
3.1010001 -0.62400001 -1.902 8
3.2460001 -0.64099997 -1.904 8
3.395 -0.65899998 -1.903 8
3.5450001 -0.67699999 -1.9 8
3.704 -0.69700003 -1.897 8
1.5420001 -0.32499999 -0.99699998 4
3.0799999 -0.63700002 -1.904 7
3.214 -0.653 -1.899 8
3.369 -0.67299998 -1.903 8
3.5220001 -0.69199997 -1.901 9
3.6800001 -0.71200001 -1.898 9
1.516 -0.329 -0.98799998 5
3.0599999 -0.64999998 -1.905 7
3.197 -0.667 -1.902 7
3.3469999 -0.68599999 -1.903 8
3.494 -0.70499998 -1.899 8
3.6559999 -0.727 -1.898 8
1.494 -0.33199999 -0.98000002 5
3.0380001 -0.66299999 -1.904 7
3.175 -0.68000001 -1.902 8
3.3210001 -0.699 -1.901 7
3.4779999 -0.72100002 -1.903 8
3.6340001 -0.74199998 -1.899 8
1.476 -0.33700001 -0.97399998 6
1.615 -0.361 -1.0190001 0
3.151 -0.69300002 -1.9 7
3.3010001 -0.713 -1.902 8
3.454 -0.73400003 -1.901 8
3.6129999 -0.75700003 -1.9 8
1.454 -0.34 -0.96700001 6
0 0 0 0
3.1359999 -0.70700002 -1.902 7
3.2809999 -0.72600001 -1.902 7
3.4330001 -0.74800003 -1.901 8
3.5929999 -0.77100003 -1.9 8
0 0 0 0
1.739 -0.40900001 -1.11 3
3.1199999 -0.72000003 -1.904 7
3.2639999 -0.741 -1.903 7
3.4130001 -0.76200002 -1.9 8
3.576 -0.787 -1.902 8
0 0 0 0
1.605 -0.38600001 -1.031 2
3.0999999 -0.73199999 -1.902 6
3.247 -0.75400001 -1.903 8
3.3970001 -0.77600002 -1.901 8
3.556 -0.80000001 -1.9 8
0 0 0 0
1.544 -0.38 -0.99699998 2
3.092 -0.74699998 -1.906 7
3.2320001 -0.76800001 -1.903 7
3.3859999 -0.792 -1.904 8
3.5420001 -0.81599998 -1.902 8
0 0 0 0
1.526 -0.384 -0.99000001 3
3.0669999 -0.75800002 -1.901 7
3.2219999 -0.78200001 -1.906 8
3.3710001 -0.80599999 -1.905 8
3.526 -0.83099997 -1.902 8
0 0 0 0
1.508 -0.38800001 -0.98299998 3
3.056 -0.77200001 -1.902 7
3.201 -0.79400003 -1.902 7
3.359 -0.82099998 -1.906 8
3.5109999 -0.84500003 -1.901 7
0 0 0 0
1.487 -0.38999999 -0.97299999 3
3.046 -0.78600001 -1.904 6
3.1889999 -0.80800003 -1.902 7
3.3440001 -0.83499998 -1.905 7
3.5009999 -0.861 -1.903 8
0 0 0 0
1.479 -0.396 -0.972 4
3.0369999 -0.79900002 -1.905 7
3.1830001 -0.82300001 -1.906 7
3.329 -0.84799999 -1.903 8
3.4879999 -0.875 -1.902 8
0 0 0 0
0 0 0 0
3.0309999 -0.81400001 -1.908 7
3.1700001 -0.83700001 -1.904 8
3.3199999 -0.86299998 -1.903 8
3.4779999 -0.88999999 -1.903 8
0 0 0 0
0 0 0 0
3.016 -0.82499999 -1.904 7
3.165 -0.85100001 -1.9069999 7
3.313 -0.87699997 -1.904 8
3.4690001 -0.90499997 -1.902 8
0 0 0 0
0 0 0 0
3.01 -0.83899999 -1.906 7
3.1559999 -0.86500001 -1.906 7
3.3050001 -0.89200002 -1.905 8
3.4619999 -0.921 -1.903 8
0 0 0 0
0 0 0 0
3.0009999 -0.852 -1.905 7
3.145 -0.87800002 -1.904 7
3.3 -0.90700001 -1.906 8
3.454 -0.935 -1.902 8
0 0 0 0
0 0 0 0
2.9949999 -0.86500001 -1.905 6
3.142 -0.89200002 -1.905 8
3.2920001 -0.92000002 -1.904 8
3.4530001 -0.95099998 -1.905 8
0 0 0 0
0 0 0 0
2.9890001 -0.87800002 -1.904 6
3.1329999 -0.90499997 -1.903 7
3.29 -0.93599999 -1.905 8
3.4430001 -0.96499997 -1.902 8
0 0 0 0
0 0 0 0
2.984 -0.89099997 -1.904 6
3.1329999 -0.92000002 -1.905 7
3.2869999 -0.94999999 -1.906 8
3.4449999 -0.98100001 -1.904 8
0 0 0 0
0 0 0 0
2.9779999 -0.90399998 -1.901 6
3.1329999 -0.935 -1.906 7
3.2850001 -0.96499997 -1.906 8
3.4430001 -0.99699998 -1.904 8
0 0 0 0
0 0 0 0
2.9809999 -0.91900003 -1.905 6
3.1300001 -0.94800001 -1.906 7
3.283 -0.97899997 -1.905 8
3.4449999 -1.013 -1.905 8
0 0 0 0
0 0 0 0
2.9860001 -0.93300003 -1.908 6
3.1329999 -0.963 -1.9069999 7
3.2809999 -0.99299997 -1.903 8
3.4460001 -1.028 -1.905 8
0 0 0 0
0 0 0 0
2.987 -0.94700003 -1.908 6
3.1359999 -0.97799999 -1.909 7
3.2920001 -1.01 -1.909 8
3.447 -1.043 -1.904 8
0 0 0 0
0 0 0 0
2.987 -0.95999998 -1.9069999 7
3.1340001 -0.99000001 -1.906 7
3.2950001 -1.025 -1.908 8
3.454 -1.0599999 -1.906 8
0 0 0 0
0 0 0 0
2.9909999 -0.97399998 -1.908 7
3.1389999 -1.005 -1.9069999 7
3.3 -1.041 -1.909 8
3.4579999 -1.075 -1.905 8
0 0 0 0
0 0 0 0
3.0009999 -0.99000001 -1.9119999 7
3.148 -1.021 -1.909 7
3.3050001 -1.0549999 -1.908 8
3.4690001 -1.092 -1.9069999 8
0 0 0 0
0 0 0 0
3.0020001 -1.002 -1.909 7
3.1530001 -1.035 -1.909 7
3.3180001 -1.073 -1.9119999 8
3.4760001 -1.108 -1.9069999 8
0 0 0 0
0 0 0 0
3.0090001 -1.016 -1.909 7
3.161 -1.05 -1.909 7
3.3169999 -1.085 -1.9069999 8
3.4909999 -1.126 -1.91 8
0 0 0 0
0 0 0 0
3.0190001 -1.031 -1.911 7
3.168 -1.063 -1.908 7
3.3280001 -1.101 -1.908 8
3.5020001 -1.142 -1.91 8
0 0 0 0
0 0 0 0
3.0309999 -1.045 -1.913 6
3.1830001 -1.08 -1.9119999 7
3.342 -1.117 -1.909 8
3.5090001 -1.1569999 -1.9069999 8
0 0 0 0
0 0 0 0
3.039 -1.059 -1.9119999 6
3.1889999 -1.0930001 -1.908 8
3.352 -1.132 -1.908 8
3.526 -1.175 -1.909 8
0 0 0 0
1.4809999 -0.52999997 -0.97600001 1
3.052 -1.073 -1.913 7
3.2060001 -1.11 -1.911 7
3.365 -1.147 -1.908 8
3.5420001 -1.192 -1.91 8
0 0 0 0
0 0 0 0
3.0599999 -1.086 -1.91 7
3.2219999 -1.125 -1.913 8
3.375 -1.1619999 -1.905 8
3.562 -1.209 -1.911 8
0 0 0 0
0 0 0 0
3.076 -1.101 -1.9119999 7
3.237 -1.14 -1.913 7
3.398 -1.1799999 -1.909 8
3.5780001 -1.226 -1.91 8
0 0 0 0
1.493 -0.54799998 -0.97100002 0
3.0929999 -1.117 -1.913 7
3.253 -1.156 -1.9119999 8
3.4200001 -1.197 -1.911 8
3.5929999 -1.2410001 -1.908 8
0 0 0 0
2.95 -1.092 -1.91 6
3.1140001 -1.133 -1.916 7
3.276 -1.173 -1.915 8
3.4460001 -1.216 -1.915 8
3.618 -1.26 -1.91 8
0 0 0 0
2.9690001 -1.107 -1.9119999 7
3.128 -1.146 -1.914 8
3.286 -1.1849999 -1.91 7
3.4630001 -1.2309999 -1.9119999 8
3.6400001 -1.277 -1.909 8
0 0 0 0
2.9879999 -1.1210001 -1.913 6
3.145 -1.16 -1.9119999 8
3.3180001 -1.205 -1.916 8
3.4860001 -1.248 -1.9119999 8
3.658 -1.293 -1.906 8
0 0 0 0
3.0009999 -1.133 -1.909 6
3.168 -1.176 -1.914 8
3.332 -1.2180001 -1.9119999 8
3.5109999 -1.266 -1.913 8
3.688 -1.312 -1.908 8
0 0 0 0
3.027 -1.149 -1.913 7
3.188 -1.1900001 -1.913 8
3.355 -1.234 -1.911 8
3.53 -1.28 -1.909 8
3.7149999 -1.33 -1.908 8
2.846 -1.1059999 -1.881 4
3.046 -1.163 -1.911 7
3.211 -1.206 -1.913 8
3.3859999 -1.252 -1.915 8
3.5550001 -1.2970001 -1.909 8
3.7479999 -1.35 -1.909 9
1.477 -0.57700002 -0.96899998 0
3.076 -1.1799999 -1.916 7
3.2379999 -1.222 -1.914 8
3.411 -1.268 -1.914 8
3.5829999 -1.314 -1.909 8
3.7750001 -1.367 -1.9069999 9
2.9419999 -1.154 -1.916 7
3.095 -1.192 -1.9119999 7
3.267 -1.238 -1.916 9
3.437 -1.284 -1.913 7
3.6159999 -1.332 -1.91 8
3.8150001 -1.388 -1.911 9
2.961 -1.165 -1.9119999 7
3.125 -1.209 -1.915 7
3.2980001 -1.255 -1.918 8
3.4660001 -1.3 -1.9119999 8
3.648 -1.35 -1.909 9
3.8499999 -1.408 -1.911 8
2.9849999 -1.179 -1.9119999 6
3.155 -1.224 -1.9170001 8
3.319 -1.268 -1.913 8
3.5020001 -1.319 -1.915 8
3.687 -1.37 -1.9119999 9
3.8929999 -1.429 -1.914 9
3.0139999 -1.194 -1.913 6
3.1860001 -1.2410001 -1.919 8
3.3529999 -1.285 -1.916 8
3.5350001 -1.336 -1.916 8
3.72 -1.387 -1.911 9
3.931 -1.449 -1.913 9
3.0420001 -1.2079999 -1.914 7
3.2119999 -1.2539999 -1.9170001 8
3.3870001 -1.302 -1.916 9
3.566 -1.352 -1.914 8
3.7520001 -1.404 -1.908 8
3.9779999 -1.471 -1.9170001 9
3.072 -1.223 -1.914 7
3.2460001 -1.27 -1.918 8
3.4189999 -1.318 -1.915 8
3.602 -1.369 -1.913 8
3.8099999 -1.429 -1.9170001 9
4.0209999 -1.4910001 -1.916 9
3.1040001 -1.238 -1.915 7
3.2839999 -1.288 -1.921 8
3.4590001 -1.336 -1.918 8
3.6429999 -1.388 -1.914 8
3.8429999 -1.446 -1.913 9
4.0640001 -1.511 -1.915 9
3.1440001 -1.255 -1.919 7
3.3139999 -1.302 -1.918 8
3.4920001 -1.351 -1.916 9
3.684 -1.406 -1.915 8
3.8929999 -1.467 -1.916 9
4.1069999 -1.531 -1.913 9
3.175 -1.2690001 -1.918 8
3.3499999 -1.318 -1.918 8
3.536 -1.37 -1.919 8
3.721 -1.423 -1.913 9
3.941 -1.488 -1.9170001 10
4.1599998 -1.553 -1.915 9
3.2079999 -1.283 -1.9170001 7
3.381 -1.331 -1.914 9
3.5780001 -1.388 -1.919 9
3.7709999 -1.443 -1.915 9
3.987 -1.507 -1.916 9
4.2140002 -1.576 -1.916 9
3.243 -1.2970001 -1.915 7
3.431 -1.351 -1.92 8
3.612 -1.402 -1.915 9
3.8199999 -1.464 -1.9170001 10
4.0359998 -1.528 -1.916 9
4.2740002 -1.6 -1.918 10
3.2909999 -1.316 -1.921 8
3.474 -1.368 -1.921 9
3.6589999 -1.42 -1.916 9
3.869 -1.483 -1.9170001 9
4.092 -1.55 -1.918 10
4.323 -1.62 -1.914 10
3.332 -1.332 -1.921 9
3.513 -1.383 -1.919 9
3.7030001 -1.437 -1.915 8
3.921 -1.503 -1.918 9
4.1430001 -1.5700001 -1.916 9
4.3870001 -1.6440001 -1.9170001 10
3.3729999 -1.347 -1.921 8
3.5599999 -1.401 -1.92 9
3.756 -1.457 -1.9170001 9
3.9760001 -1.524 -1.919 9
4.2030001 -1.592 -1.918 9
4.4450002 -1.6670001 -1.915 10
3.4119999 -1.3609999 -1.919 8
3.6040001 -1.416 -1.918 9
3.806 -1.476 -1.9170001 9
4.033 -1.544 -1.921 9
4.257 -1.612 -1.915 9
4.506 -1.689 -1.913 10
3.467 -1.381 -1.924 8
3.6530001 -1.434 -1.919 9
3.8629999 -1.4960001 -1.92 9
4.085 -1.563 -1.919 10
4.3239999 -1.636 -1.918 9
4.5780001 -1.714 -1.915 9
3.5109999 -1.396 -1.9220001 8
3.7 -1.45 -1.9170001 9
3.9170001 -1.515 -1.919 9
4.151 -1.586 -1.9220001 9
4.381 -1.655 -1.914 10
4.651 -1.74 -1.916 10
3.559 -1.4119999 -1.9220001 8
3.753 -1.4680001 -1.918 9
3.9790001 -1.536 -1.9220001 10
4.2049999 -1.604 -1.918 9
4.4510002 -1.679 -1.916 10
4.7280002 -1.766 -1.918 9
3.6099999 -1.428 -1.9220001 8
3.813 -1.488 -1.921 10
4.0370002 -1.5549999 -1.9220001 10
4.2680001 -1.625 -1.918 9
4.5250001 -1.704 -1.9170001 9
4.7950001 -1.789 -1.914 9
3.661 -1.444 -1.921 8
3.8699999 -1.506 -1.92 9
4.099 -1.575 -1.9220001 10
4.336 -1.647 -1.919 10
4.6009998 -1.729 -1.919 10
4.888 -1.819 -1.919 10
3.711 -1.459 -1.919 8
3.9349999 -1.526 -1.923 10
4.165 -1.596 -1.923 10
4.4029999 -1.668 -1.9170001 10
4.6830001 -1.755 -1.921 10
4.9689999 -1.845 -1.9170001 10
3.773 -1.478 -1.921 9
3.994 -1.544 -1.9220001 11
4.2350001 -1.617 -1.924 10
4.4780002 -1.691 -1.918 9
4.7480001 -1.775 -1.915 9
5.0489998 -1.87 -1.914 9
3.8280001 -1.494 -1.919 9
4.0609999 -1.564 -1.924 10
4.3000002 -1.636 -1.9220001 9
4.559 -1.716 -1.921 9
4.8330002 -1.801 -1.916 9
5.1339998 -1.896 -1.9119999 10
3.8889999 -1.511 -1.919 8
4.1240001 -1.582 -1.9220001 10
4.3720002 -1.658 -1.9220001 10
4.6389999 -1.74 -1.9220001 10
4.9299998 -1.83 -1.921 10
5.2340002 -1.926 -1.914 10
3.9590001 -1.531 -1.923 9
4.1900001 -1.6 -1.921 10
4.4419999 -1.677 -1.92 10
4.7270002 -1.766 -1.924 9
5.0190001 -1.857 -1.92 9
5.3400002 -1.9579999 -1.9170001 10
4.0250001 -1.549 -1.923 9
4.2600002 -1.62 -1.921 9
4.5209999 -1.7 -1.921 9
4.8169999 -1.7920001 -1.926 10
5.1160002 -1.885 -1.9220001 9
5.4460001 -1.989 -1.918 10
4.0960002 -1.569 -1.925 9
4.3369999 -1.641 -1.923 10
4.6020002 -1.722 -1.9220001 9
4.9050002 -1.816 -1.926 9
5.224 -1.916 -1.926 10
5.5570002 -2.02 -1.919 10
4.164 -1.586 -1.923 9
4.4130001 -1.661 -1.9220001 11
4.6939998 -1.747 -1.925 10
4.9819999 -1.835 -1.921 9
5.3239999 -1.943 -1.925 9
5.6669998 -2.0510001 -1.918 9
4.2350001 -1.604 -1.923 9
4.4879999 -1.6799999 -1.92 10
4.7740002 -1.767 -1.9220001 10
5.0879998 -1.865 -1.924 8
5.4229999 -1.969 -1.923 9
5.7969999 -2.0869999 -1.9220001 9
4.3200002 -1.626 -1.927 9
4.566 -1.699 -1.919 10
4.8759999 -1.794 -1.927 10
5.1739998 -1.886 -1.92 10
5.5289998 -1.997 -1.921 9
5.927 -2.1229999 -1.924 9
4.3909998 -1.642 -1.924 9
4.6620002 -1.724 -1.923 11
4.961 -1.8150001 -1.924 10
5.2950001 -1.918 -1.926 9
5.6539998 -2.03 -1.925 9
6.0560002 -2.1570001 -1.924 10
4.4699998 -1.66 -1.923 9
4.756 -1.747 -1.925 10
5.0630002 -1.841 -1.925 9
5.3979998 -1.943 -1.924 10
5.7639999 -2.0569999 -1.921 10
6.1869998 -2.1900001 -1.923 10
4.5580001 -1.681 -1.924 10
4.8330002 -1.763 -1.919 11
5.164 -1.864 -1.925 10
5.5139999 -1.972 -1.926 9
5.9060001 -2.0940001 -1.927 9
6.335 -2.2279999 -1.925 9
4.6350002 -1.697 -1.92 9
4.9369998 -1.788 -1.9220001 10
5.2709999 -1.89 -1.926 10
5.631 -2 -1.925 10
6.04 -2.1270001 -1.928 10
6.4720001 -2.2609999 -1.9220001 10
4.7379999 -1.721 -1.925 9
5.0339999 -1.809 -1.9220001 10
5.381 -1.915 -1.925 10
5.7519999 -2.0280001 -1.925 10
6.1750002 -2.1589999 -1.927 9
6.6430001 -2.3039999 -1.927 10
4.8379998 -1.744 -1.927 9
5.1440001 -1.834 -1.924 10
5.494 -1.9400001 -1.925 9
5.8740001 -2.0550001 -1.923 10
6.3179998 -2.1919999 -1.927 10
6.8010001 -2.342 -1.925 10
4.9359999 -1.7640001 -1.927 9
5.2399998 -1.853 -1.92 10
5.6110001 -1.966 -1.925 9
6.0209999 -2.0910001 -1.928 9
6.4629998 -2.2260001 -1.926 10
6.987 -2.388 -1.9299999 9
5.0320001 -1.783 -1.926 9
5.3579998 -1.8789999 -1.9220001 10
5.743 -1.995 -1.927 11
6.1680002 -2.1240001 -1.9299999 10
6.671 -2.2780001 -1.9400001 9
7.1609998 -2.428 -1.929 9
5.1279998 -1.801 -1.9220001 9
5.4790001 -1.904 -1.924 10
5.869 -2.0209999 -1.926 9
6.302 -2.151 -1.927 9
6.8010001 -2.303 -1.9299999 10
7.349 -2.47 -1.929 9
5.2410002 -1.823 -1.924 9
5.5900002 -1.925 -1.921 10
6.0040002 -2.049 -1.926 10
6.4520001 -2.1830001 -1.926 10
6.9660001 -2.3380001 -1.929 9
7.5479999 -2.5150001 -1.929 9
5.3540001 -1.845 -1.924 10
5.7189999 -1.951 -1.9220001 10
6.151 -2.079 -1.928 10
6.6220002 -2.2190001 -1.929 11
7.1690001 -2.3840001 -1.934 10
7.7459998 -2.5569999 -1.927 10
5.4809999 -1.869 -1.927 10
5.8439999 -1.974 -1.92 10
6.2979999 -2.108 -1.929 10
6.803 -2.2579999 -1.934 9
7.336 -2.4159999 -1.929 9
7.9660001 -2.605 -1.927 10
5.6009998 -1.89 -1.926 10
5.9920001 -2.003 -1.924 10
6.4569998 -2.1389999 -1.9299999 9
6.9689999 -2.29 -1.932 9
7.5359998 -2.457 -1.9299999 10
8.1879997 -2.651 -1.926 10
5.7309999 -1.914 -1.928 10
6.1300001 -2.0280001 -1.924 10
6.6069999 -2.1659999 -1.928 11
7.1350002 -2.3199999 -1.928 9
7.7340002 -2.4960001 -1.927 10
8.4289999 -2.701 -1.926 10
5.8530002 -1.933 -1.925 9
6.2789998 -2.0539999 -1.925 10
6.789 -2.2019999 -1.933 9
7.316 -2.3540001 -1.927 9
7.9450002 -2.5369999 -1.926 10
8.6780005 -2.7520001 -1.925 9
5.9889998 -1.956 -1.925 10
6.4260001 -2.079 -1.923 10
6.9489999 -2.2279999 -1.929 9
7.5159998 -2.391 -1.927 10
8.177 -2.582 -1.927 10
8.9370003 -2.803 -1.924 9
6.1329999 -1.979 -1.926 10
6.6129999 -2.1140001 -1.931 8
7.1259999 -2.2590001 -1.929 9
7.717 -2.427 -1.926 10
8.4130001 -2.6259999 -1.926 9
9.2150002 -2.8570001 -1.924 10
6.283 -2.003 -1.927 10
6.7719998 -2.1389999 -1.9299999 9
7.309 -2.289 -1.927 9
7.928 -2.464 -1.925 10
8.6610003 -2.6719999 -1.925 10
9.5059996 -2.9130001 -1.9220001 10
6.4369998 -2.026 -1.928 10
6.9460001 -2.1659999 -1.9299999 9
7.5009999 -2.3199999 -1.926 10
8.1549997 -2.503 -1.925 10
8.9230003 -2.7190001 -1.924 10
9.8240004 -2.973 -1.9220001 10
6.5840001 -2.046 -1.924 10
7.132 -2.1960001 -1.932 10
7.7030001 -2.352 -1.925 9
8.3979998 -2.5450001 -1.926 10
9.2030001 -2.7690001 -1.925 10
10.167 -3.039 -1.924 10
6.7880001 -2.0810001 -1.9349999 9
7.3000002 -2.2190001 -1.927 10
7.9120002 -2.385 -1.924 9
8.6359997 -2.5829999 -1.924 10
9.4849997 -2.816 -1.923 11
10.506 -3.099 -1.9220001 11
6.9569998 -2.1040001 -1.9349999 9
7.4860001 -2.244 -1.924 10
8.1450005 -2.4219999 -1.926 10
8.9020004 -2.6259999 -1.924 10
9.7919998 -2.869 -1.9220001 10
10.857 -3.1600001 -1.918 10
7.125 -2.125 -1.932 9
7.6859999 -2.2720001 -1.924 10
8.3699999 -2.454 -1.924 9
9.1719999 -2.6689999 -1.923 10
10.129 -2.9260001 -1.923 11
11.256 -3.23 -1.918 10
7.3000002 -2.145 -1.928 10
7.8959999 -2.299 -1.9220001 10
8.6160002 -2.4890001 -1.9220001 10
9.4630003 -2.7130001 -1.923 10
10.464 -2.9790001 -1.92 10
11.666 -3.299 -1.915 9
7.4910002 -2.1670001 -1.927 10
8.1190004 -2.329 -1.9220001 10
8.8739996 -2.5250001 -1.9220001 11
9.7589998 -2.756 -1.919 11
10.807 -3.03 -1.914 11
12.134 -3.3800001 -1.9170001 11
7.6929998 -2.191 -1.927 10
8.349 -2.3570001 -1.921 10
9.1409998 -2.5599999 -1.921 10
10.087 -2.8039999 -1.92 11
11.208 -3.0940001 -1.916 10
12.609 -3.4590001 -1.915 11
7.9039998 -2.2149999 -1.927 10
8.5869999 -2.3859999 -1.92 11
9.4320002 -2.599 -1.921 11
10.414 -2.849 -1.918 11
11.619 -3.1559999 -1.915 10
13.172 -3.5550001 -1.92 10
8.1129999 -2.2360001 -1.924 11
8.8400002 -2.4159999 -1.919 11
9.7299995 -2.6370001 -1.92 11
10.761 -2.895 -1.915 11
12.058 -3.2219999 -1.914 12
13.74 -3.6470001 -1.9220001 10
8.3400002 -2.2590001 -1.923 11
9.1000004 -2.444 -1.9170001 11
10.037 -2.675 -1.919 11
11.13 -2.944 -1.913 11
12.529 -3.2909999 -1.915 12
14.353 -3.7460001 -1.924 9
8.5780001 -2.2820001 -1.923 10
9.3769999 -2.474 -1.9170001 10
10.373 -2.7160001 -1.919 10
11.547 -3 -1.915 10
13.046 -3.3670001 -1.9170001 11
15.009 -3.848 -1.925 8
8.8319998 -2.3080001 -1.924 10
9.6660004 -2.5039999 -1.916 11
10.714 -2.7539999 -1.9170001 11
11.959 -3.0510001 -1.911 11
13.629 -3.4530001 -1.9220001 9
15.711 -3.9549999 -1.924 9
9.0819998 -2.3280001 -1.921 11
9.9720001 -2.5350001 -1.915 11
11.065 -2.7909999 -1.913 11
12.436 -3.112 -1.914 11
14.201 -3.529 -1.92 11
16.525999 -4.0809999 -1.9299999 10
9.3649998 -2.3540001 -1.923 11
10.291 -2.5650001 -1.914 11
11.453 -2.8329999 -1.9119999 10
12.924 -3.1719999 -1.915 11
14.831 -3.6159999 -1.9220001 8
17.396 -4.2129998 -1.934 11
9.6289997 -2.3729999 -1.919 11
10.624 -2.596 -1.913 11
11.864 -2.875 -1.9119999 11
13.475 -3.2420001 -1.92 10
15.507 -3.7049999 -1.923 9
18.351 -4.355 -1.9400001 12
9.9139996 -2.3929999 -1.9170001 11
10.961 -2.6229999 -1.91 11
12.295 -2.9189999 -1.911 11
14.06 -3.313 -1.924 10
16.254 -3.803 -1.925 10
19.339001 -4.4949999 -1.939 14
10.234 -2.4170001 -1.918 12
11.326 -2.652 -1.908 11
12.753 -2.9630001 -1.91 11
14.664 -3.382 -1.926 10
17.136999 -3.924 -1.937 11
20.341 -4.6259999 -1.931 15
10.546 -2.437 -1.915 12
11.724 -2.6860001 -1.909 11
13.296 -3.02 -1.9170001 11
15.267 -3.4419999 -1.921 9
17.997 -4.0279999 -1.937 12
21.468 -4.7729998 -1.924 13
10.881 -2.4560001 -1.913 11
12.142 -2.7179999 -1.908 11
13.833 -3.0710001 -1.919 11
16.017 -3.527 -1.928 9
18.9 -4.1339998 -1.934 13
22.704 -4.9330001 -1.9170001 11
11.219 -2.473 -1.91 11
12.572 -2.7479999 -1.9069999 12
14.402 -3.122 -1.921 10
16.743 -3.6010001 -1.928 10
19.910999 -4.2509999 -1.9349999 15
24.171 -5.125 -1.9170001 9
11.586 -2.4920001 -1.908 12
13.075 -2.7869999 -1.9119999 11
15.023 -3.1760001 -1.923 8
17.59 -3.6900001 -1.9349999 12
20.927 -4.3579998 -1.927 16
25.780001 -5.3309999 -1.916 8
11.99 -2.513 -1.91 12
13.584 -2.823 -1.915 11
15.659 -3.2260001 -1.923 9
18.450001 -3.7709999 -1.934 13
22.072001 -4.4780002 -1.92 13
27.356001 -5.5100002 -1.896 6
12.411 -2.533 -1.91 11
14.115 -2.855 -1.915 11
16.389999 -3.2880001 -1.928 10
19.355 -3.852 -1.932 14
23.452999 -4.631 -1.925 11
29.229 -5.7309999 -1.886 6
12.859 -2.553 -1.9119999 12
14.679 -2.8889999 -1.9170001 10
17.118999 -3.3410001 -1.929 11
20.278 -3.925 -1.924 15
24.788 -4.7620001 -1.916 10
31.076 -5.9260001 -1.857 5
13.325 -2.572 -1.914 12
15.274 -2.921 -1.918 9
17.903999 -3.395 -1.929 12
21.377001 -4.0190001 -1.925 17
26.280001 -4.9029999 -1.906 8
33.472 -6.1989999 -1.8430001 4
13.842 -2.5940001 -1.918 12
15.909 -2.9530001 -1.92 9
18.784 -3.457 -1.934 13
22.478001 -4.1020002 -1.918 17
27.816 -5.0359998 -1.888 7
35.667 -6.4089999 -1.801 9
14.342 -2.6059999 -1.9170001 12
16.57 -2.983 -1.921 10
19.632999 -3.503 -1.929 14
23.617001 -4.177 -1.9069999 12
29.570999 -5.1890001 -1.874 6
38.467999 -6.698 -1.772 4
14.881 -2.619 -1.919 11
17.294001 -3.0150001 -1.924 11
20.558001 -3.5510001 -1.925 15
25.033001 -4.2870002 -1.908 11
31.454 -5.3429999 -1.853 5
40.728001 -6.8629999 -1.698 1
15.475 -2.635 -1.923 9
18.030001 -3.039 -1.9220001 12
21.549 -3.599 -1.921 17
26.43 -4.375 -1.898 8
33.539001 -5.5050001 -1.829 3
0 0 0 0
16.099001 -2.6459999 -1.925 10
18.868 -3.0710001 -1.926 13
22.552999 -3.6359999 -1.911 18
28.049999 -4.48 -1.891 7
35.613998 -5.6389999 -1.789 5
52.382999 -8.2250004 -1.737 2
16.726 -2.6500001 -1.925 10
19.677 -3.086 -1.921 14
23.686001 -3.6789999 -1.903 16
29.743999 -4.5749998 -1.877 6
0 0 0 0
52.543999 -7.9429998 -1.525 3
17.415001 -2.655 -1.928 11
20.551001 -3.1010001 -1.918 15
24.868 -3.7160001 -1.893 9
31.632999 -4.6810002 -1.8660001 6
41.922001 -6.1479998 -1.7589999 2
54.464001 -7.9159999 -1.362 5
18.159 -2.6589999 -1.932 12
21.431999 -3.1059999 -1.91 17
26.938999 -3.8640001 -1.939 12
28.107 -3.9920001 -1.544 0
29.481001 -4.1479998 -1.119 3
58.679001 -8.1820002 -1.238 21
18.900999 -2.655 -1.932 13
22.337 -3.1040001 -1.9 18
27.507999 -3.7820001 -1.87 6
26.483999 -3.605 -1.351 72
30.993 -4.178 -1.057 4
61.084999 -8.1529999 -1.0549999 45
19.674999 -2.6440001 -1.932 14
23.271 -3.092 -1.886 19
26.363001 -3.4649999 -1.689 37
25.98 -3.378 -1.224 38
53.152 -6.8429999 -1.6109999 3
61.23 -7.8049998 -0.829 57
20.433001 -2.6210001 -1.924 15
24.489 -3.1040001 -1.89 22
25.240999 -3.1630001 -1.521 71
0 0 0 0
53.354 -6.5440001 -1.42 2
61.470001 -7.461 -0.60799998 35
21.223 -2.5899999 -1.916 17
24.940001 -3.006 -1.829 32
25.014999 -2.9809999 -1.414 72
28.937 -3.4089999 -1.149 62
55.792999 -6.5 -1.283 51
27.929001 -3.2179999 -0.177 118
22.01 -2.549 -1.905 18
25.006001 -2.8599999 -1.743 11
25.093 -2.835 -1.327 65
30.687 -3.427 -1.1109999 39
26.985001 -2.977 -0.52700001 46
26.507 -2.892 -0.078000002 3
22.952 -2.5150001 -1.904 19
25.302999 -2.7360001 -1.674 62
25.257 -2.6960001 -1.248 73
27.938 -2.9460001 -0.91500002 0
26.459 -2.756 -0.42699999 17
32.985001 -3.395 0.012 3
23.983 -2.477 -1.904 20
25.193001 -2.566 -1.579 70
25.697001 -2.582 -1.183 72
26.812 -2.6589999 -0.78899997 61
33.665001 -3.2969999 -0.43399999 21
68.041 -6.5799999 0.245 13
24.792999 -2.404 -1.885 22
25.212 -2.4100001 -1.497 76
0 0 0 0
0 0 0 0
34.282001 -3.145 -0.33399999 22
0 0 0 0
25.222 -2.286 -1.835 17
25.261999 -2.256 -1.419 89
26.563 -2.335 -1.052 10
56.095001 -4.8600001 -1.2970001 5
72.556 -6.197 -0.486 6
68.209 -5.743 0.662 51
25.400999 -2.1389999 -1.767 41
25.33 -2.0999999 -1.344 83
29.896 -2.4389999 -1.0930001 11
33.790001 -2.7149999 -0.68000001 2
35.757 -2.8280001 -0.133 40
68.294998 -5.3189998 0.861 59
25.552999 -1.989 -1.7 57
25.438 -1.947 -1.274 82
32.606998 -2.451 -1.096 43
36.085999 -2.668 -0.62199998 39
36.241001 -2.6359999 -0.032000002 5
68.454002 -4.8959999 1.054 3
25.629999 -1.829 -1.6289999 57
25.624001 -1.795 -1.209 84
0 0 0 0
36.551998 -2.4679999 -0.528 7
93.158997 -6.1799998 0.17 6
96.400002 -6.283 1.743 26
25.628 -1.663 -1.557 70
26.146999 -1.6619999 -1.16 96
35.386002 -2.204 -0.99299997 45
37.120998 -2.266 -0.43599999 11
84.815002 -5.0770001 0.37900001 33
96.487999 -5.6609998 1.998 19
25.629 -1.494 -1.4859999 75
26.558001 -1.5140001 -1.107 28
36.056999 -2.01 -0.91600001 12
37.537998 -2.046 -0.34400001 11
37.056999 -1.975 0.25999999 90
37.453999 -1.952 0.87 4
21.181 -1.095 -1.173 53
26.851999 -1.354 -1.05 26
37.048 -1.822 -0.84799999 11
71.887001 -3.448 -0.48100001 28
83.564003 -3.904 0.792 30
63.687 -2.902 1.632 4
20.997 -0.94499999 -1.11 38
29.642 -1.2970001 -1.086 55
38.262001 -1.627 -0.78299999 38
38.464001 -1.589 -0.16599999 32
0 0 0 0
64.278999 -2.507 1.794 20
21.033001 -0.80800003 -1.062 15
29.731001 -1.103 -1.02 33
38.702999 -1.3890001 -0.70300001 13
38.924999 -1.352 -0.079999998 48
81.388 -2.7309999 1.141 9
63.676998 -2.062 1.9170001 42
21.351999 -0.67699999 -1.029 5
30.169001 -0.92000002 -0.96799999 33
58.686001 -1.721 -0.94 6
0 0 0 0
63.830002 -1.72 1.029 9
58.702999 -1.516 1.887 3
26.035 -0.65100002 -1.199 76
31.392 -0.74900001 -0.94199997 35
58.630001 -1.326 -0.81699997 90
39.686001 -0.85399997 0.082000002 12
58.533001 -1.189 1.0599999 21
58.487 -1.118 1.997 42
26.318001 -0.48100001 -1.158 80
33.138 -0.56599998 -0.92699999 38
39.902 -0.634 -0.47799999 55
39.977001 -0.588 0.161 11
64.545998 -0.87300003 1.293 17
64.568001 -0.79900002 2.325 57
26.497 -0.30199999 -1.115 82
33.438999 -0.34099999 -0.87199998 6
40.276001 -0.366 -0.40700001 28
87.838997 -0.69300002 0.51499999 5
68.139999 -0.45899999 1.487 36
64.538002 -0.36399999 2.437 46
26.393999 -0.121 -1.063 41
34.698002 -0.118 -0.84299999 3
67.913002 -0.154 -0.56800002 39
68.524002 -0.079000004 0.51800001 20
65.297997 0.001 1.534 10
64.324997 0.071000002 2.5350001 27
26.568001 0.057999998 -1.025 25
28.098 0.094999999 -0.63599998 12
41.021 0.186 -0.27599999 50
120.066 0.68099999 1.1 19
0 0 0 0
68.792999 0.54299998 2.8169999 31
0 0 0 0
27.858999 0.285 -0.588 54
41.342999 0.46799999 -0.21600001 49
80.776001 1.006 0.85900003 11
79.130997 1.075 2.098 13
81.044998 1.192 3.4349999 17
27.719 0.442 -0.98500001 47
27.802 0.47499999 -0.54699999 56
90.253998 1.642 -0.34599999 6
85.468002 1.651 1.026 26
80.144997 1.637 2.233 28
92.121002 1.989 4.0279999 29
27.746 0.63599998 -0.949 35
27.752001 0.667 -0.509 56
42.015999 1.056 -0.107 43
85.668999 2.247 1.137 9
80.545998 2.1989999 2.3429999 16
91.650002 2.6040001 4.1170001 20
27.617001 0.824 -0.91100001 44
27.813999 0.86000001 -0.47799999 39
42.351002 1.355 -0.057999998 22
95.386002 3.152 1.374 24
93.918999 3.211 2.8380001 20
0 0 0 0
27.659 1.0190001 -0.88099998 64
27.959999 1.0599999 -0.44999999 21
47.272999 1.84 -0.015 2
77.153999 3.0869999 1.192 14
77.037003 3.1630001 2.4059999 11
0 0 0 0
27.974001 1.226 -0.86299998 55
28.59 1.284 -0.43200001 29
65.431 3.006 0.039999999 52
76.648003 3.6029999 1.255 27
77.278999 3.7160001 2.484 34
0 0 0 0
28.243999 1.436 -0.847 73
28.334999 1.471 -0.40400001 72
56.889999 3.01 0.082000002 3
76.816002 4.1459999 1.3200001 28
77.082001 4.2389998 2.5380001 36
61.810001 3.4660001 3.0090001 3
27.999001 1.62 -0.81900001 72
28.212999 1.661 -0.382 77
61.721001 3.6949999 0.133 28
61.641998 3.7509999 1.102 54
61.478001 3.8069999 2.066 35
61.134998 3.8510001 3.016 31
28.041 1.8200001 -0.80199999 51
28.15 1.855 -0.36399999 79
0 0 0 0
77.337997 5.2550001 1.428 16
0 0 0 0
121.736 8.5249996 6.0749998 15
27.896 2.0090001 -0.78399998 76
28.174 2.0569999 -0.34999999 67
113.873 8.427 0.37 30
77.406998 5.803 1.466 8
121.233 9.2150002 4.1999998 28
120.567 9.2869997 6.0710001 35
27.950001 2.21 -0.77399999 71
28.316999 2.2650001 -0.34099999 53
108.757 8.8050003 0.39300001 12
0 0 0 0
120.431 9.9890003 4.2129998 31
119.674 10.057 6.0669999 30
28.047001 2.4170001 -0.76899999 70
28.361 2.4690001 -0.33399999 29
86.462997 7.6110001 0.33500001 25
130.196 11.583 2.5450001 22
119.211 10.726 4.1989999 32
119.094 10.835 6.0640001 32
28.334 2.641 -0.77200001 53
66.681 6.276 -0.77499998 11
85.894997 8.165 0.34400001 39
0 0 0 0
63.160999 6.125 2.2320001 37
63.136002 6.191 3.2219999 59
32.682999 3.2809999 -0.889 5
62.917999 6.369 -0.72899997 40
62.875999 6.4229999 0.25400001 104
0 0 0 0
62.426998 6.4949999 2.207 31
62.32 6.5479999 3.1800001 37
33.651001 3.615 -0.91799998 9
66.887001 7.244 -0.78100002 6
65.579002 7.1620002 0.259 20
131.328 14.465 2.576 13
120.586 13.399 4.2529998 27
119.812 13.435 6.1030002 26
34.334999 3.934 -0.94300002 10
65.531998 7.5650001 -0.77700001 92
69.810997 8.1169996 0.26300001 10
108.984 12.773 2.115 15
121.644 14.379 4.2639999 32
120.066 14.307 6.0900002 11
34.895 4.25 -0.96899998 15
67.480003 8.2749996 -0.82099998 16
71.501999 8.8260002 0.24699999 54
108.674 13.514 2.075 20
121.731 15.247 4.23 36
121.925 15.398 6.145 39
35.356998 4.559 -0.99699998 10
67.758003 8.7869997 -0.85299999 12
69.031998 9.0109997 0.208 16
120.562 15.844 2.2490001 8
121.323 16.052 4.1620002 27
121.07 16.142 6.0510001 30
35.777 4.8699999 -1.028 11
64.473 8.823 -0.84600002 7
68.964996 9.4949999 0.171 30
120.812 16.738001 2.1889999 11
120.768 16.841999 4.0780001 33
120.501 16.916 5.9569998 39
22.024 3.155 -0.648 51
45.915001 6.6100001 -0.63300002 1
64.473 9.3369999 0.118 65
64.485001 9.3929996 1.127 20
64.254997 9.415 2.1289999 10
64.694 9.5410004 3.1559999 17
21.649 3.257 -0.653 60
21.884001 3.3069999 -0.31799999 55
73.043999 11.098 0.078000002 62
0 0 0 0
120.382 18.49 3.8970001 28
63.674999 9.8400002 3.0580001 12
21.464001 3.382 -0.667 60
21.556999 3.411 -0.33199999 61
22.091999 3.5120001 0.0040000002 7
130.94901 20.92 2.075 13
121.501 19.521999 3.8299999 20
0 0 0 0
21.360001 3.5190001 -0.685 54
21.322001 3.527 -0.34999999 70
21.816999 3.625 -0.017000001 54
144.888 24.188999 2.1530001 16
130.418 21.877001 3.9820001 17
0 0 0 0
21.271 3.658 -0.70599997 40
21.209999 3.6600001 -0.37200001 52
21.419001 3.7119999 -0.039999999 60
0 0 0 0
0 0 0 0
126.826 22.297001 5.7220001 39
20.965 3.7579999 -0.722 50
20.983999 3.7750001 -0.39399999 68
21.212 3.8299999 -0.066 60
22.129999 4.0120001 0.27700001 4
124.256 22.631001 3.507 29
126.09 23.07 5.5380001 16
20.801001 3.8789999 -0.745 60
20.854 3.901 -0.41999999 66
21.048 3.95 -0.093000002 59
21.632999 4.0770001 0.243 26
123.467 23.367001 3.3239999 28
125.866 23.923 5.3660002 45
20.698 4.0100002 -0.77200001 52
20.737 4.0279999 -0.447 59
20.908001 4.0739999 -0.123 64
21.414 4.1859999 0.20999999 50
123.172 24.176001 3.1429999 32
123.971 24.437 5.1110001 28
20.605 4.138 -0.801 64
20.631001 4.1550002 -0.47799999 59
20.830999 4.2059999 -0.155 62
21.184 4.2919998 0.175 53
122.949 24.996 2.951 16
0 0 0 0
20.549999 4.276 -0.833 56
20.558001 4.2880001 -0.50999999 61
20.695 4.3270001 -0.18799999 55
21.056 4.4159999 0.139 56
123.059 25.899 2.7520001 29
124.091 26.209999 4.73 21
20.493999 4.4099998 -0.86799997 62
20.483 4.4180002 -0.54500002 67
20.610001 4.4559999 -0.22400001 63
20.948 4.5430002 0.102 55
0 0 0 0
72.266998 15.779 2.6289999 4
20.402 4.54 -0.90399998 64
20.424999 4.552 -0.583 60
20.577999 4.5970001 -0.26199999 62
20.882 4.6760001 0.063000001 56
21.889 4.915 0.41100001 0
72.098999 16.245001 2.4920001 12
20.361 4.6750002 -0.94300002 61
20.386 4.6890001 -0.62199998 72
20.474001 4.7189999 -0.301 65
20.806 4.8060002 0.022 59
21.565001 4.994 0.36399999 9
81.341003 18.899 2.6570001 116
20.367001 4.823 -0.98699999 53
20.440001 4.8470001 -0.667 50
20.409 4.849 -0.34299999 62
20.712 4.9310002 -0.02 65
21.429001 5.1160002 0.317 25
81.207001 19.448 2.4849999 91
20.055 4.8940001 -1.018 54
20.299 4.96 -0.70899999 64
20.393 4.9899998 -0.38800001 59
20.629999 5.0580001 -0.066 62
21.299999 5.2350001 0.26800001 36
104.331 25.711 2.971 58
19.610001 4.9260001 -1.0420001 45
20.309 5.1059999 -0.75599998 61
20.372 5.1290002 -0.435 63
20.608999 5.1989999 -0.113 57
21.228001 5.3660002 0.22 51
146.94299 37.243999 3.8559999 13
19.111 4.9369998 -1.063 57
20.320999 5.2540002 -0.80699998 58
20.417999 5.2849998 -0.48500001 53
20.628 5.348 -0.162 64
21.223 5.513 0.17 51
40.575001 10.565 0.97000003 15
18.688 4.961 -1.0880001 51
20.483 5.441 -0.866 50
20.472 5.4450002 -0.53799999 55
20.632999 5.4949999 -0.213 55
21.191 5.6539998 0.117 51
40.229 10.758 0.86299998 52
17.629999 4.8060002 -1.074 50
20.503 5.592 -0.921 55
20.500999 5.5960002 -0.59299999 59
20.653999 5.645 -0.26800001 57
21.246 5.8169999 0.063000001 52
30.105 8.2580004 0.56900001 37
17.013 4.7589998 -1.085 53
20.653 5.7800002 -0.98500001 50
20.743999 5.8099999 -0.65700001 46
20.716 5.8080001 -0.32499999 61
21.336 5.9910002 0.0049999999 33
29.226 8.2209997 0.47499999 47
16.52 4.7389998 -1.102 48
0 0 0 0
20.768999 5.9640002 -0.71799999 51
20.862 5.9959998 -0.38600001 51
21.459999 6.177 -0.054000001 2
28.799 8.302 0.38800001 49
16.337999 4.8039999 -1.14 50
18.756001 5.5149999 -1.007 25
20.975 6.1690001 -0.787 50
21.097 6.211 -0.45199999 52
28.393 8.3690004 -0.153 50
28.41 8.3870001 0.301 54
16.122999 4.8559999 -1.176 48
18.507999 5.5739999 -1.051 47
22.287001 6.7129998 -0.90600002 19
28.32 8.5349998 -0.69400001 47
28.165001 8.4960003 -0.236 50
28.132999 8.5 0.21600001 49
16.082001 4.9580002 -1.226 43
17.65 5.4390001 -1.059 45
22.237 6.8540001 -0.97399998 34
28.177 8.6890001 -0.77899998 40
27.913 8.6129999 -0.31999999 53
27.893 8.618 0.12800001 49
15.989 5.0409999 -1.273 61
16.743 5.276 -1.0599999 50
22.148001 6.9780002 -1.0420001 29
28.25 8.9049997 -0.87099999 32
28.01 8.8360004 -0.41 31
27.709 8.75 0.041000001 50
15.931 5.1350002 -1.323 61
16.146 5.2010002 -1.077 47
18.781 6.0489998 -0.94700003 3
27.931999 8.9960003 -0.954 30
27.657 8.9130001 -0.49599999 39
27.532 8.8830004 -0.048 54
15.938 5.25 -1.381 59
15.904 5.2350001 -1.118 58
18.530001 6.0970001 -0.99900001 28
20.143 6.6269999 -0.75700003 9
20.360001 6.7010002 -0.43399999 1
27.385 9.0190001 -0.139 53
15.889 5.3449998 -1.436 50
15.824 5.3169999 -1.169 57
18.039 6.059 -1.036 51
19.75 6.631 -0.81099999 42
19.816 6.6539998 -0.491 34
20.030001 6.7319999 -0.17 32
15.922 5.4660001 -1.498 43
15.904 5.454 -1.234 43
17.042999 5.8400002 -1.0420001 44
19.584 6.7080002 -0.875 29
19.403 6.6459999 -0.54900002 33
19.636 6.7290001 -0.235 32
16.033001 5.6149998 -1.571 45
15.759 5.5120001 -1.283 45
16.259001 5.6810002 -1.054 49
19.312 6.744 -0.93400002 36
19.290001 6.7360001 -0.616 33
19.447001 6.7930002 -0.303 31
15.873 5.6680002 -1.618 44
15.723 5.6059999 -1.34 47
15.759 5.612 -1.082 49
18.856001 6.7119999 -0.98299998 39
19.26 6.8540001 -0.68699998 33
19.101 6.7989998 -0.368 33
15.825 5.7579999 -1.677 46
15.695 5.7020001 -1.401 47
15.668 5.6849999 -1.137 62
18.136999 6.5760002 -1.016 49
19.01 6.8889999 -0.75 41
18.969 6.875 -0.43700001 38
15.68 5.8119998 -1.727 23
15.681 5.803 -1.464 48
15.63 5.776 -1.197 54
17.450001 6.4429998 -1.0470001 44
18.827999 6.948 -0.81699997 42
18.955 6.994 -0.509 35
15.582 5.882 -1.783 17
15.669 5.9039998 -1.529 48
15.579 5.8610001 -1.2589999 48
16.122 6.0580001 -1.033 52
16.603001 6.2360001 -0.787 77
16.545 6.2129998 -0.50999999 100
15.302 5.881 -1.818 14
15.635 5.9959998 -1.5930001 43
15.566 5.96 -1.323 50
15.638 5.98 -1.067 43
18.481001 7.0609999 -0.95200002 42
18.795 7.1789999 -0.65600002 22
14.728 5.7589998 -1.816 9
15.651 6.1059999 -1.663 39
15.529 6.0479999 -1.387 48
15.502 6.0289998 -1.124 45
17.837999 6.9320002 -0.99400002 44
18.608 7.2280002 -0.727 41
14.194 5.6459999 -1.8150001 8
15.529 6.1620002 -1.72 23
15.526 6.1500001 -1.456 49
15.459 6.1139998 -1.188 47
17.139 6.77 -1.028 41
18.561001 7.3280001 -0.80299997 42
13.678 5.5320001 -1.813 8
15.439 6.2290001 -1.781 18
15.523 6.2480001 -1.525 49
15.453 6.21 -1.256 56
15.965 6.408 -1.028 45
18.433001 7.3940001 -0.87699997 38
13.211 5.4310002 -1.814 9
15.028 6.1609998 -1.804 10
15.465 6.3249998 -1.59 44
15.441 6.3039999 -1.324 48
15.444 6.296 -1.062 45
18.256001 7.4359999 -0.94800001 41
12.734 5.3179998 -1.8099999 9
14.425 6.007 -1.8 8
15.481 6.4320002 -1.664 39
15.392 6.382 -1.391 41
15.372 6.3639998 -1.128 55
17.799 7.3610001 -1.0039999 40
12.3 5.217 -1.809 9
13.914 5.8839998 -1.804 8
15.388 6.4899998 -1.728 17
15.391 6.4780002 -1.4630001 49
15.346 6.4489999 -1.196 54
16.629 6.9790001 -1.013 44
11.878 5.1160002 -1.807 10
13.384 5.7459998 -1.8 9
15.274 6.5380001 -1.788 15
15.502 6.6199999 -1.546 41
15.351 6.5440001 -1.268 42
15.939 6.7859998 -1.045 44
11.505 5.0279999 -1.808 10
12.896 5.6170001 -1.799 9
14.769 6.414 -1.801 9
15.468 6.7010002 -1.617 45
15.36 6.6399999 -1.341 42
15.298 6.605 -1.073 43
11.133 4.9369998 -1.807 9
12.433 5.493 -1.7970001 9
14.17 6.2420001 -1.799 8
15.387 6.7589998 -1.684 31
15.362 6.7340002 -1.415 33
15.285 6.6900001 -1.146 40
10.778 4.848 -1.806 10
12.02 5.3860002 -1.799 10
13.646 6.0939999 -1.801 8
15.25 6.7919998 -1.744 13
15.277 6.7880001 -1.482 40
15.313 6.7919998 -1.22 42
10.439 4.7600002 -1.804 10
11.611 5.2729998 -1.798 10
13.13 5.9429998 -1.799 9
15.016 6.776 -1.793 12
15.319 6.8959999 -1.561 42
15.218 6.8369999 -1.2869999 44
10.132 4.6820002 -1.8049999 10
11.229 5.1669998 -1.798 9
12.647 5.8000002 -1.799 8
14.42 6.592 -1.795 9
15.279 6.967 -1.6339999 40
15.205 6.9190001 -1.3609999 46
9.8240004 4.5999999 -1.8049999 11
10.863 5.0650001 -1.798 10
12.199 5.6659999 -1.799 9
13.865 6.4190001 -1.798 8
15.221 7.027 -1.705 23
15.195 7 -1.436 36
9.5290003 4.52 -1.803 11
10.504 4.96 -1.795 10
11.775 5.5380001 -1.799 10
13.317 6.2420001 -1.7970001 8
15.104 7.059 -1.7690001 16
15.175 7.0749998 -1.511 43
9.2489996 4.4429998 -1.802 12
10.181 4.868 -1.796 11
11.356 5.4070001 -1.796 10
12.794 6.0689998 -1.793 9
14.684 6.9450002 -1.796 9
15.282 7.2090001 -1.599 43
8.9940004 4.3730001 -1.804 11
9.8739996 4.7779999 -1.7970001 11
10.988 5.2930002 -1.798 10
12.335 5.9200001 -1.795 9
14.054 6.724 -1.793 8
15.222 7.263 -1.671 29
8.7370005 4.2989998 -1.802 10
9.5799999 4.6900001 -1.796 12
10.63 5.1810002 -1.798 10
11.884 5.7690001 -1.793 9
13.486 6.5240002 -1.791 8
15.082 7.2750001 -1.735 16
8.5200005 4.2410002 -1.807 12
9.3050003 4.6079998 -1.798 12
10.265 5.0599999 -1.793 11
11.486 5.638 -1.795 10
12.967 6.342 -1.791 9
14.886 7.2589998 -1.79 13
8.29 4.1739998 -1.806 12
9.033 4.5229998 -1.7970001 11
9.967 4.9660001 -1.796 11
11.083 5.4990001 -1.793 11
12.468 6.1620002 -1.79 8
14.258 7.0250001 -1.79 9
8.0780001 4.1110001 -1.807 11
8.7919998 4.4489999 -1.799 12
9.6809998 4.875 -1.799 11
10.72 5.375 -1.793 9
12.012 5.9990001 -1.789 9
13.661 6.7989998 -1.7869999 8
7.8800001 4.0539999 -1.809 11
8.5559998 4.3759999 -1.8 11
9.3809996 4.7729998 -1.7970001 11
10.368 5.2509999 -1.7920001 9
11.607 5.8540001 -1.793 9
13.113 6.5910001 -1.7869999 8
7.6869998 3.9949999 -1.811 11
8.3140001 4.296 -1.798 12
9.1169996 4.6859999 -1.798 11
10.049 5.1399999 -1.794 11
11.205 5.7069998 -1.793 9
12.605 6.3959999 -1.786 8
7.4829998 3.9289999 -1.808 10
8.1129999 4.2340002 -1.803 11
8.8590002 4.5970001 -1.798 11
9.7519999 5.0359998 -1.795 11
10.818 5.5619998 -1.79 10
12.173 6.2340002 -1.791 8
7.3080001 3.8759999 -1.8099999 11
7.9120002 4.1690001 -1.8049999 12
8.6090002 4.5100002 -1.7970001 11
9.4540005 4.927 -1.794 11
10.469 5.4310002 -1.791 9
11.702 6.046 -1.786 9
7.138 3.822 -1.812 10
7.7129998 4.1030002 -1.8049999 11
8.3909998 4.4359999 -1.801 12
9.1899996 4.8330002 -1.7970001 11
10.134 5.3039999 -1.79 11
11.312 5.895 -1.788 10
6.9899998 3.777 -1.817 11
7.5180001 4.0349998 -1.8049999 11
8.1759996 4.3610001 -1.802 12
8.9250002 4.7340002 -1.796 12
9.8240004 5.184 -1.79 11
10.949 5.7529998 -1.791 10
6.8060002 3.711 -1.811 13
7.3299999 3.9679999 -1.803 11
7.967 4.2849998 -1.803 11
8.684 4.6440001 -1.7970001 12
9.5240002 5.0669999 -1.789 10
10.58 5.6040001 -1.789 9
6.691 3.6789999 -1.821 10
7.1719999 3.915 -1.807 11
7.77 4.2140002 -1.804 12
8.4399996 4.5500002 -1.795 12
9.2690001 4.9699998 -1.793 11
10.241 5.4650002 -1.789 10
6.5190001 3.6140001 -1.814 12
7.006 3.8559999 -1.807 11
7.5749998 4.1409998 -1.803 11
8.2399998 4.4759998 -1.799 12
8.9899998 4.8569999 -1.79 11
9.9250002 5.336 -1.788 10
6.3629999 3.556 -1.8099999 12
6.862 3.806 -1.812 11
7.401 4.0760002 -1.8049999 11
8.0389996 4.4000001 -1.802 11
8.7609997 4.7670002 -1.794 12
9.6450005 5.2220001 -1.791 11
6.2379999 3.513 -1.813 11
6.724 3.757 -1.816 11
7.2270002 4.0089998 -1.8049999 11
7.836 4.3189998 -1.801 12
8.5310001 4.6750002 -1.795 12
9.3629999 5.1040001 -1.79 12
6.105 3.464 -1.812 11
6.5419998 3.6819999 -1.806 12
7.073 3.9519999 -1.808 11
7.651 4.2459998 -1.803 12
8.3100004 4.5840001 -1.796 12
9.0939999 4.9889998 -1.79 11
5.9980001 3.428 -1.818 11
6.414 3.635 -1.809 12
6.9349999 3.901 -1.814 11
7.4559999 4.164 -1.8 11
8.1099997 4.5009999 -1.798 11
8.8479996 4.8829999 -1.79 11
5.8829999 3.385 -1.819 11
6.2839999 3.585 -1.811 13
6.7779999 3.836 -1.813 11
7.2950001 4.0999999 -1.803 11
7.9169998 4.4200001 -1.8 12
8.6140003 4.7820001 -1.791 11
5.7740002 3.3440001 -1.821 11
6.1529999 3.5320001 -1.8099999 11
6.6139998 3.766 -1.807 12
7.1539998 4.0440001 -1.809 12
7.7210002 4.336 -1.799 11
8.4099998 4.6939998 -1.795 11
5.6719999 3.3050001 -1.824 11
6.0370002 3.4860001 -1.812 12
6.4790001 3.71 -1.809 13
7.0079999 3.983 -1.813 12
7.5549998 4.2649999 -1.802 11
8.2080002 4.605 -1.796 12
5.559 3.2579999 -1.821 10
5.9180002 3.437 -1.812 11
6.3530002 3.658 -1.8099999 11
6.8390002 3.9070001 -1.807 11
7.3829999 4.1890001 -1.802 11
8.0129995 4.5180001 -1.798 11
5.4569998 3.2160001 -1.821 11
5.8070002 3.3900001 -1.812 12
6.2290001 3.605 -1.811 11
6.71 3.852 -1.811 11
7.2150002 4.1129999 -1.801 11
7.8319998 4.4359999 -1.8 12
5.3699999 3.181 -1.825 10
5.7160001 3.3529999 -1.817 12
6.1040001 3.549 -1.8099999 12
6.5479999 3.777 -1.8049999 13
7.0739999 4.0500002 -1.8049999 11
7.6500001 4.3499999 -1.799 11
5.2750001 3.1400001 -1.824 10
5.6139998 3.309 -1.817 11
5.9959998 3.5020001 -1.812 12
6.4369998 3.7290001 -1.8099999 12
6.948 3.994 -1.811 11
7.4920001 4.277 -1.802 11
5.1880002 3.102 -1.825 10
5.5139999 3.2639999 -1.817 11
5.902 3.461 -1.817 12
6.3119998 3.6700001 -1.809 12
6.783 3.914 -1.804 12
7.3249998 4.197 -1.8 11
5.1069999 3.066 -1.826 10
5.4239998 3.223 -1.818 11
5.7919998 3.4100001 -1.8150001 11
6.2080002 3.622 -1.813 11
6.6430001 3.845 -1.803 12
7.1810002 4.1269999 -1.803 11
5.02 3.026 -1.825 11
5.335 3.1819999 -1.819 11
5.704 3.369 -1.8200001 12
6.0780001 3.5580001 -1.809 12
6.5209999 3.786 -1.804 12
7.0349998 4.0539999 -1.803 11
4.948 2.993 -1.827 11
5.2600002 3.1470001 -1.823 11
5.6149998 3.326 -1.822 11
5.9850001 3.5139999 -1.813 12
6.415 3.7349999 -1.809 12
6.8909998 3.9809999 -1.802 12
4.8720002 2.9560001 -1.827 10
5.1719999 3.1029999 -1.821 10
5.5180001 3.2780001 -1.8200001 11
5.888 3.4649999 -1.8150001 12
6.3039999 3.6789999 -1.8099999 12
6.7529998 3.9100001 -1.8 12
4.8010001 2.921 -1.827 10
5.0900002 3.063 -1.8200001 10
5.4320002 3.234 -1.821 11
5.7909999 3.415 -1.8150001 11
6.1950002 3.622 -1.8099999 11
6.632 3.846 -1.801 12
4.7389998 2.8900001 -1.83 10
5.0120001 3.0220001 -1.819 13
5.349 3.191 -1.821 12
5.7080002 3.372 -1.818 12
6.0879998 3.5650001 -1.809 12
6.5219998 3.7880001 -1.803 12
4.6739998 2.8570001 -1.83 10
4.9520001 2.9909999 -1.823 13
5.2750001 3.152 -1.822 11
5.6300001 3.3310001 -1.821 11
5.9980001 3.517 -1.812 12
6.4130001 3.7290001 -1.804 12
4.6090002 2.822 -1.829 10
4.8860002 2.9560001 -1.824 11
5.2049999 3.1140001 -1.825 10
5.5409999 3.2820001 -1.8200001 11
5.901 3.4630001 -1.812 12
6.3119998 3.6730001 -1.806 12
4.5549998 2.7920001 -1.831 10
4.8280001 2.924 -1.827 11
5.1339998 3.075 -1.825 12
5.4619999 3.2379999 -1.821 11
5.8200002 3.418 -1.814 12
6.2189999 3.6199999 -1.808 12
4.493 2.757 -1.829 10
4.757 2.8829999 -1.824 11
5.0599999 3.0320001 -1.824 12
5.3800001 3.1900001 -1.819 11
5.7379999 3.369 -1.816 12
6.1170001 3.5610001 -1.806 12
4.447 2.73 -1.832 10
4.704 2.852 -1.826 10
5 2.9960001 -1.826 13
5.3099999 3.148 -1.8200001 11
5.6680002 3.3269999 -1.819 11
6.0349998 3.5120001 -1.809 12
4.3979998 2.7 -1.834 10
4.6550002 2.822 -1.829 13
4.9349999 2.957 -1.825 12
5.2449999 3.109 -1.821 11
5.592 3.2809999 -1.8200001 11
5.9549999 3.4619999 -1.811 11
4.342 2.665 -1.832 10
4.598 2.786 -1.829 11
4.8800001 2.9219999 -1.827 11
5.1849999 3.0710001 -1.824 11
5.5170002 3.234 -1.819 12
5.8730001 3.411 -1.811 11
4.2969999 2.6359999 -1.832 10
4.5500002 2.7550001 -1.83 11
4.8200002 2.8829999 -1.825 11
5.1259999 3.0320001 -1.825 12
5.4450002 3.188 -1.819 12
5.7969999 3.362 -1.812 11
4.2550001 2.6070001 -1.8329999 10
4.4990001 2.721 -1.829 11
4.763 2.845 -1.824 11
5.0689998 2.993 -1.826 13
5.3850002 3.1470001 -1.821 11
5.73 3.316 -1.814 12
4.21 2.576 -1.832 10
4.4629998 2.6949999 -1.8329999 11
4.7199998 2.8139999 -1.827 11
5.013 2.9549999 -1.826 12
5.323 3.1040001 -1.821 11
5.6729999 3.276 -1.818 12
4.1729999 2.549 -1.8329999 9
4.4200001 2.6630001 -1.8329999 12
4.677 2.783 -1.829 11
4.9569998 2.915 -1.825 12
5.2709999 3.066 -1.823 10
5.599 3.2249999 -1.816 11
4.1440001 2.526 -1.837 10
4.382 2.6340001 -1.835 12
4.6399999 2.7539999 -1.832 11
4.9050002 2.8770001 -1.825 12
5.1890001 3.01 -1.814 12
5.5359998 3.1789999 -1.816 11
4.112 2.4990001 -1.839 10
4.3429999 2.6040001 -1.835 11
4.5999999 2.7219999 -1.834 11
4.8569999 2.8399999 -1.824 12
5.1469998 2.9760001 -1.818 12
5.4780002 3.135 -1.816 11
4.079 2.4719999 -1.839 10
4.3060002 2.573 -1.835 12
4.5640001 2.691 -1.835 11
4.8179998 2.8069999 -1.826 12
5.0999999 2.938 -1.819 11
5.4169998 3.089 -1.814 12
4.0469999 2.444 -1.839 10
4.2719998 2.543 -1.835 11
4.5219998 2.6570001 -1.834 11
4.79 2.78 -1.832 11
5.066 2.9070001 -1.823 11
5.3730001 3.0510001 -1.817 11
4.027 2.4230001 -1.8430001 9
4.2340002 2.5109999 -1.832 11
4.4920001 2.628 -1.836 11
4.7459998 2.7420001 -1.83 11
5.0190001 2.8670001 -1.822 13
5.3309999 3.013 -1.819 12
3.9960001 2.3940001 -1.842 9
4.2090001 2.4849999 -1.835 11
4.46 2.598 -1.837 11
4.7119999 2.71 -1.831 12
4.9889998 2.836 -1.826 12
5.2870002 2.974 -1.8200001 12
3.9749999 2.3699999 -1.844 10
4.1820002 2.457 -1.835 11
4.427 2.566 -1.836 11
4.6760001 2.6760001 -1.831 11
4.948 2.7980001 -1.825 12
5.2360001 2.9289999 -1.818 11
3.9460001 2.3399999 -1.841 10
4.1589999 2.4300001 -1.837 11
4.401 2.5369999 -1.8380001 12
4.6479998 2.645 -1.832 11
4.915 2.7639999 -1.827 12
5.2220001 2.905 -1.827 13
3.9330001 2.3199999 -1.846 10
4.1350002 2.4030001 -1.837 11
4.369 2.5039999 -1.836 11
4.6170001 2.612 -1.832 11
4.882 2.7290001 -1.827 12
5.165 2.855 -1.8200001 12
3.8989999 2.286 -1.84 9
4.112 2.375 -1.837 10
4.3499999 2.4779999 -1.8380001 12
4.5900002 2.5799999 -1.8329999 11
4.849 2.694 -1.826 12
5.1139998 2.809 -1.814 12
3.888 2.2650001 -1.8430001 9
4.0999999 2.3529999 -1.841 10
4.3280001 2.4489999 -1.839 12
4.5700002 2.552 -1.835 10
4.8249998 2.6619999 -1.8279999 12
5.098 2.7809999 -1.8200001 11
3.8740001 2.2420001 -1.845 10
4.0739999 2.322 -1.8380001 10
4.302 2.4170001 -1.837 12
4.5469999 2.5209999 -1.835 12
4.7969999 2.628 -1.8279999 12
5.0840001 2.753 -1.826 12
3.858 2.217 -1.844 9
4.0619998 2.299 -1.84 10
4.2870002 2.391 -1.839 11
4.5219998 2.4890001 -1.834 11
4.7779999 2.5969999 -1.83 12
5.0430002 2.71 -1.821 11
3.8510001 2.1960001 -1.848 10
4.0500002 2.2739999 -1.842 10
4.2680001 2.362 -1.8380001 11
4.5040002 2.46 -1.834 12
4.7519999 2.563 -1.8279999 12
5.0139999 2.6730001 -1.819 11
3.836 2.1700001 -1.847 9
4.04 2.25 -1.844 10
4.2519999 2.3340001 -1.8380001 10
4.4860001 2.4289999 -1.834 12
4.7350001 2.5320001 -1.829 12
5.0100002 2.648 -1.826 12
3.826 2.1459999 -1.847 9
4.0289998 2.2249999 -1.845 11
4.2399998 2.3069999 -1.839 11
4.487 2.4089999 -1.841 11
4.724 2.5039999 -1.832 12
4.9899998 2.6140001 -1.826 12
3.8169999 2.122 -1.848 9
4.0159998 2.198 -1.8430001 10
4.2270002 2.28 -1.8380001 11
4.4660001 2.3759999 -1.8380001 10
4.7080002 2.473 -1.832 12
4.9749999 2.582 -1.827 12
3.8139999 2.1010001 -1.85 9
4.0100002 2.174 -1.845 10
4.224 2.257 -1.842 11
4.4499998 2.345 -1.837 10
4.7030001 2.447 -1.836 12
4.9640002 2.552 -1.829 12
3.8 2.073 -1.846 9
4.007 2.152 -1.847 10
4.211 2.2279999 -1.84 11
4.4429998 2.319 -1.8380001 11
4.691 2.4170001 -1.836 12
4.9499998 2.52 -1.83 12
3.8010001 2.053 -1.85 9
4.0029998 2.128 -1.848 11
4.2069998 2.2030001 -1.841 11
4.4369998 2.2920001 -1.839 11
4.6789999 2.3859999 -1.835 12
4.9359999 2.4860001 -1.8279999 12
3.8 2.0309999 -1.851 9
4.0009999 2.105 -1.849 10
4.204 2.1789999 -1.8430001 11
