# .PCD v0.7 - Point Cloud Data file format
VERSION 0.7
FIELDS x y z intensity
SIZE 4 4 4 4
TYPE F F F F
COUNT 1 1 1 1
WIDTH 1772
HEIGHT 1
VIEWPOINT 0 0 0 1 0 0 0
POINTS 1772
DATA ascii
13.992 -1.515 -1.882 11
15.781 -1.7130001 -1.8890001 9
18.082001 -1.9680001 -1.9 12
10.201 -1.1569999 -1.882 11
11.087 -1.2589999 -1.878 11
12.199 -1.387 -1.882 10
13.51 -1.538 -1.882 11
15.17 -1.7309999 -1.888 11
17.266001 -1.974 -1.895 11
9.9540005 -1.1849999 -1.8839999 12
10.787 -1.285 -1.878 12
11.845 -1.413 -1.883 12
13.101 -1.5650001 -1.886 11
14.592 -1.7460001 -1.8839999 12
16.532 -1.9809999 -1.891 10
9.7119999 -1.211 -1.8839999 11
10.522 -1.313 -1.88 11
11.496 -1.436 -1.88 13
12.693 -1.587 -1.885 11
14.09 -1.765 -1.8839999 11
15.867 -1.992 -1.887 12
9.4969997 -1.24 -1.887 11
10.26 -1.341 -1.881 11
11.199 -1.464 -1.883 12
12.313 -1.6109999 -1.885 12
13.638 -1.7869999 -1.8839999 12
15.261 -2.003 -1.882 12
9.2819996 -1.267 -1.887 11
10.008 -1.3660001 -1.88 11
10.906 -1.489 -1.882 13
11.968 -1.635 -1.885 12
13.217 -1.808 -1.8839999 12
14.748 -2.02 -1.883 12
9.1009998 -1.296 -1.891 12
9.7840004 -1.393 -1.882 11
10.635 -1.515 -1.883 12
11.634 -1.658 -1.883 11
12.856 -1.834 -1.888 12
14.268 -2.0380001 -1.882 13
8.9130001 -1.324 -1.892 12
9.5790005 -1.4220001 -1.8839999 11
10.397 -1.543 -1.886 12
11.344 -1.684 -1.885 12
12.493 -1.857 -1.887 13
13.835 -2.0580001 -1.8839999 11
8.7460003 -1.352 -1.8940001 11
9.3859997 -1.45 -1.886 11
10.165 -1.5700001 -1.886 12
11.067 -1.71 -1.885 12
12.174 -1.882 -1.8890001 12
9.5559998 -1.479 -1.34 0
8.5830002 -1.38 -1.895 11
9.198 -1.478 -1.888 11
9.9420004 -1.597 -1.887 11
10.816 -1.738 -1.887 13
11.851 -1.905 -1.888 11
13.072 -2.1040001 -1.887 12
8.4139996 -1.406 -1.8940001 11
9.0240002 -1.507 -1.89 10
9.7349997 -1.625 -1.888 11
10.57 -1.7640001 -1.887 13
11.56 -1.931 -1.8890001 12
12.717 -2.125 -1.886 12
8.2709999 -1.4349999 -1.896 11
8.8579998 -1.536 -1.891 11
9.5509996 -1.655 -1.891 12
10.344 -1.7920001 -1.8890001 12
11.284 -1.956 -1.888 12
12.401 -2.151 -1.888 12
8.1230001 -1.462 -1.895 10
8.6999998 -1.5650001 -1.893 11
9.3649998 -1.683 -1.891 11
10.135 -1.821 -1.89 12
11.024 -1.9809999 -1.888 13
12.096 -2.174 -1.888 12
7.9980001 -1.492 -1.899 10
8.5459995 -1.5930001 -1.893 11
9.1870003 -1.711 -1.891 11
9.9289999 -1.848 -1.89 12
10.795 -2.01 -1.8890001 12
11.821 -2.2019999 -1.89 11
7.862 -1.5190001 -1.898 10
8.4029999 -1.6210001 -1.8940001 11
9.026 -1.74 -1.892 12
9.7410002 -1.877 -1.891 11
10.575 -2.0369999 -1.8890001 12
11.553 -2.2260001 -1.888 11
7.7550001 -1.549 -1.901 10
8.2650003 -1.649 -1.8940001 10
8.8800001 -1.77 -1.895 12
9.5780001 -1.908 -1.8940001 11
10.375 -2.0669999 -1.891 12
11.316 -2.2550001 -1.89 11
7.6409998 -1.579 -1.902 10
8.1300001 -1.677 -1.893 10
8.7410002 -1.801 -1.897 11
9.4060001 -1.936 -1.8940001 11
10.185 -2.096 -1.893 12
11.095 -2.2839999 -1.892 11
7.5310001 -1.608 -1.903 10
8.0159998 -1.7079999 -1.896 10
8.5959997 -1.829 -1.896 11
9.2530003 -1.9680001 -1.896 11
10.001 -2.1259999 -1.893 11
10.878 -2.312 -1.892 12
7.4310002 -1.638 -1.905 10
7.9120002 -1.74 -1.9 10
8.4549999 -1.857 -1.895 10
9.099 -1.9960001 -1.895 11
9.8330002 -2.1559999 -1.8940001 11
10.693 -2.3440001 -1.8940001 11
7.335 -1.6670001 -1.906 10
7.8049998 -1.771 -1.901 10
8.342 -1.8890001 -1.898 10
8.9569998 -2.027 -1.896 10
9.6820002 -2.1889999 -1.897 12
10.493 -2.372 -1.893 12
7.2379999 -1.696 -1.906 9
7.6890001 -1.798 -1.899 10
8.2220001 -1.919 -1.898 10
8.8280001 -2.059 -1.897 10
9.5270004 -2.22 -1.897 11
10.314 -2.4030001 -1.893 12
7.1529999 -1.727 -1.908 9
7.6030002 -1.832 -1.903 10
8.1110001 -1.95 -1.899 10
8.6929998 -2.0880001 -1.896 10
9.3870001 -2.253 -1.898 11
10.153 -2.4360001 -1.8940001 11
7.0450001 -1.751 -1.902 11
7.5079999 -1.862 -1.904 9
8.0200005 -1.9859999 -1.903 10
8.585 -2.1229999 -1.899 11
9.2519999 -2.2850001 -1.899 10
9.9949999 -2.4679999 -1.895 11
7.0019999 -1.791 -1.913 10
7.4239998 -1.895 -1.906 10
7.914 -2.016 -1.902 10
8.4809999 -2.1570001 -1.901 11
9.125 -2.3180001 -1.9 11
9.8570004 -2.503 -1.897 11
6.9200001 -1.8200001 -1.913 9
7.335 -1.925 -1.905 9
7.822 -2.049 -1.903 10
8.3610001 -2.187 -1.899 11
9.007 -2.352 -1.901 10
9.7200003 -2.5369999 -1.897 11
6.8070002 -1.841 -1.903 10
7.257 -1.957 -1.9069999 9
7.7360001 -2.0829999 -1.905 10
8.2700005 -2.2219999 -1.902 11
8.8859997 -2.3840001 -1.9 11
9.5950003 -2.573 -1.899 11
6.7309999 -1.87 -1.901 10
7.1690001 -1.9859999 -1.904 9
7.6570001 -2.1170001 -1.9069999 10
8.1820002 -2.2579999 -1.904 10
8.7799997 -2.4200001 -1.901 10
9.4759998 -2.609 -1.9 10
6.6690001 -1.902 -1.903 10
7.131 -2.0280001 -1.915 10
7.5770001 -2.1500001 -1.908 10
8.0979996 -2.293 -1.905 10
8.6940002 -2.4579999 -1.904 11
9.3629999 -2.645 -1.901 10
6.6020002 -1.932 -1.902 9
7.0310001 -2.052 -1.9069999 9
7.493 -2.181 -1.906 10
8 -2.3239999 -1.903 11
8.5810003 -2.4890001 -1.901 10
9.2539997 -2.681 -1.901 10
6.5960002 -1.98 -1.919 9
6.9850001 -2.0910001 -1.913 9
7.4180002 -2.214 -1.906 9
7.928 -2.3610001 -1.905 10
8.5129995 -2.5320001 -1.906 10
9.1549997 -2.72 -1.902 10
6.4879999 -1.9960001 -1.904 10
6.9180002 -2.122 -1.9119999 9
7.3530002 -2.2490001 -1.908 9
7.8520002 -2.3970001 -1.906 10
8.4259996 -2.5680001 -1.906 10
9.0690002 -2.7609999 -1.904 11
6.4429998 -2.0309999 -1.908 9
6.8509998 -2.1530001 -1.91 9
7.296 -2.286 -1.91 10
7.7820001 -2.4330001 -1.9069999 10
8.3400002 -2.6029999 -1.905 10
8.9890003 -2.802 -1.9069999 11
6.395 -2.0650001 -1.909 10
6.8189998 -2.194 -1.9170001 9
7.2360001 -2.322 -1.911 10
7.7210002 -2.4719999 -1.909 10
8.2620001 -2.6400001 -1.905 10
8.8920002 -2.8380001 -1.905 10
6.3410001 -2.096 -1.908 10
6.7529998 -2.2249999 -1.914 9
7.1810002 -2.359 -1.9119999 10
7.6550002 -2.5079999 -1.908 10
8.2019997 -2.6830001 -1.908 10
8.8109999 -2.878 -1.904 10
6.2950001 -2.1289999 -1.909 10
6.711 -2.2620001 -1.9170001 9
7.132 -2.3970001 -1.914 10
7.5900002 -2.5450001 -1.908 10
8.1280003 -2.72 -1.906 10
8.7360001 -2.9189999 -1.904 10
6.2449999 -2.161 -1.9069999 10
6.6609998 -2.2969999 -1.9170001 9
7.0830002 -2.4349999 -1.916 10
7.5359998 -2.5840001 -1.909 10
8.0550003 -2.757 -1.905 10
8.6800003 -2.9660001 -1.908 10
6.2140002 -2.1989999 -1.911 9
6.6240001 -2.335 -1.92 9
7.0320001 -2.4719999 -1.915 9
7.487 -2.625 -1.91 10
8.007 -2.8010001 -1.9069999 9
8.6090002 -3.007 -1.9069999 10
6.1820002 -2.2360001 -1.914 10
6.5749998 -2.369 -1.918 9
6.9819999 -2.507 -1.914 9
7.4400001 -2.665 -1.911 10
7.9580002 -2.8440001 -1.908 10
8.5579996 -3.053 -1.909 10
6.131 -2.2650001 -1.91 10
6.5440001 -2.4089999 -1.9220001 9
6.9419999 -2.5469999 -1.916 9
7.3969998 -2.7060001 -1.913 9
7.9060001 -2.8859999 -1.909 9
8.507 -3.0999999 -1.91 10
6.0960002 -2.3 -1.91 10
6.5019999 -2.4430001 -1.92 9
6.9070001 -2.5869999 -1.9170001 9
7.3530002 -2.747 -1.9119999 9
7.862 -2.9289999 -1.909 10
8.4499998 -3.142 -1.909 9
6.0679998 -2.3369999 -1.9119999 9
6.4660001 -2.4809999 -1.921 8
6.8769999 -2.6289999 -1.92 9
7.3210001 -2.7909999 -1.915 10
7.8249998 -2.9760001 -1.911 10
8.4069996 -3.191 -1.91 8
6.033 -2.3710001 -1.911 10
6.4429998 -2.5220001 -1.923 9
6.8390002 -2.668 -1.919 9
7.2849998 -2.8329999 -1.916 10
7.789 -3.0220001 -1.9119999 10
8.3690004 -3.24 -1.911 10
6.0050001 -2.408 -1.911 10
6.4060001 -2.5580001 -1.9220001 9
6.803 -2.7060001 -1.918 9
7.2449999 -2.8740001 -1.914 9
7.7509999 -3.0669999 -1.9119999 9
8.3299999 -3.29 -1.9119999 9
5.98 -2.4449999 -1.913 9
6.375 -2.596 -1.921 8
6.783 -2.7520001 -1.921 9
7.2160001 -2.918 -1.915 9
7.717 -3.1129999 -1.9119999 9
8.29 -3.3369999 -1.911 9
5.9510002 -2.48 -1.911 9
6.3499999 -2.6359999 -1.9220001 8
6.756 -2.793 -1.9220001 9
7.1869998 -2.9619999 -1.915 9
7.697 -3.1630001 -1.915 10
8.2629995 -3.3889999 -1.9119999 9
5.9330001 -2.52 -1.913 9
6.3330002 -2.678 -1.924 9
6.724 -2.832 -1.919 9
7.1659999 -3.0079999 -1.916 9
7.6620002 -3.2079999 -1.913 9
8.2329998 -3.4389999 -1.9119999 9
5.9130001 -2.5569999 -1.913 9
6.3140001 -2.7190001 -1.925 9
6.7080002 -2.8770001 -1.921 9
7.1409998 -3.053 -1.916 8
7.651 -3.2620001 -1.916 9
8.2139997 -3.493 -1.913 9
5.895 -2.5969999 -1.914 9
6.2950001 -2.76 -1.925 8
6.6950002 -2.9230001 -1.923 9
7.1220002 -3.099 -1.916 9
7.6230001 -3.3080001 -1.914 9
8.198 -3.549 -1.914 9
5.8839998 -2.6370001 -1.916 8
6.2810001 -2.803 -1.926 9
6.665 -2.9619999 -1.92 9
7.1100001 -3.1489999 -1.918 9
7.6110001 -3.3599999 -1.915 9
8.1820002 -3.6029999 -1.914 8
5.8670001 -2.6760001 -1.916 9
6.263 -2.8429999 -1.926 9
6.658 -3.01 -1.9220001 9
7.0910001 -3.1930001 -1.9170001 8
7.5949998 -3.4100001 -1.915 9
8.177 -3.6619999 -1.916 9
5.8559999 -2.717 -1.916 9
6.2540002 -2.8870001 -1.927 9
6.645 -3.0550001 -1.9220001 9
7.0900002 -3.247 -1.92 8
7.5910001 -3.4660001 -1.9170001 8
8.1689997 -3.72 -1.9170001 9
5.8429999 -2.756 -1.916 10
6.2389998 -2.928 -1.926 8
6.638 -3.102 -1.923 9
7.079 -3.296 -1.919 9
7.5970001 -3.5250001 -1.921 9
8.1689997 -3.78 -1.918 9
5.8429999 -2.8010001 -1.919 9
6.2309999 -2.9719999 -1.926 9
6.6259999 -3.1470001 -1.9220001 8
7.0819998 -3.3499999 -1.9220001 9
7.586 -3.5769999 -1.919 9
8.1689997 -3.8410001 -1.919 8
5.8340001 -2.842 -1.919 9
6.2129998 -3.0109999 -1.923 8
6.619 -3.1930001 -1.9220001 8
7.0780001 -3.401 -1.9220001 9
7.579 -3.6289999 -1.918 8
8.1750002 -3.904 -1.92 9
5.869 -2.9030001 -1.932 8
6.211 -3.056 -1.923 8
6.6170001 -3.2420001 -1.9220001 8
7.0700002 -3.45 -1.92 9
7.5840001 -3.688 -1.919 9
8.1680002 -3.961 -1.9170001 8
5.8709998 -2.9489999 -1.9349999 8
6.2140002 -3.105 -1.925 8
6.6220002 -3.293 -1.924 8
7.0819998 -3.5079999 -1.923 9
7.5929999 -3.7479999 -1.92 9
8.1870003 -4.0300002 -1.92 8
5.8309999 -2.973 -1.9220001 8
6.223 -3.1559999 -1.928 9
6.625 -3.3440001 -1.924 9
7.0799999 -3.559 -1.921 9
7.5960002 -3.8050001 -1.918 8
8.1990004 -4.0949998 -1.92 8
5.8299999 -3.017 -1.9220001 8
6.2150002 -3.198 -1.925 8
6.6269999 -3.3940001 -1.924 9
7.086 -3.6140001 -1.921 9
7.6199999 -3.872 -1.921 8
8.2209997 -4.165 -1.921 9
5.869 -3.0810001 -1.934 8
6.2160001 -3.2449999 -1.924 8
6.6329999 -3.4449999 -1.924 8
7.0999999 -3.6719999 -1.9220001 8
7.6259999 -3.9289999 -1.92 8
8.2410002 -4.2329998 -1.921 8
5.8579998 -3.118 -1.929 8
6.2249999 -3.2939999 -1.925 8
6.6469998 -3.5 -1.924 8
7.1110001 -3.7279999 -1.921 8
7.652 -3.9960001 -1.9220001 8
8.2709999 -4.3060002 -1.923 8
5.881 -3.1730001 -1.9349999 8
6.2329998 -3.3429999 -1.925 8
6.6539998 -3.5510001 -1.923 8
7.1389999 -3.793 -1.925 8
7.6810002 -4.0650001 -1.924 8
8.3009996 -4.3790002 -1.923 8
5.8920002 -3.221 -1.936 8
6.2410002 -3.392 -1.924 8
6.6690001 -3.6059999 -1.923 8
7.151 -3.849 -1.923 8
7.7080002 -4.132 -1.925 8
8.3319998 -4.4520001 -1.923 8
5.8909998 -3.2609999 -1.933 8
6.2529998 -3.4419999 -1.924 8
6.6869998 -3.661 -1.924 8
7.178 -3.9119999 -1.924 8
7.7340002 -4.1989999 -1.924 8
8.3669996 -4.527 -1.9220001 8
5.9050002 -3.3099999 -1.933 8
6.2800002 -3.5 -1.928 8
6.7069998 -3.7179999 -1.924 8
7.2030001 -3.974 -1.924 8
7.7719998 -4.2709999 -1.925 8
8.4110003 -4.6069999 -1.923 8
5.914 -3.3559999 -1.931 8
6.2940001 -3.55 -1.926 8
6.7420001 -3.7820001 -1.928 9
7.2290001 -4.0370002 -1.924 8
7.8060002 -4.3410001 -1.925 8
8.4589996 -4.6880002 -1.924 7
5.9330001 -3.4070001 -1.932 8
6.309 -3.6010001 -1.925 8
6.7639999 -3.839 -1.926 8
7.2639999 -4.1030002 -1.925 8
7.8509998 -4.4169998 -1.927 8
8.5120001 -4.7719998 -1.925 7
5.9510002 -3.4560001 -1.932 8
6.3369999 -3.658 -1.926 8
6.7880001 -3.8970001 -1.925 8
7.3000002 -4.171 -1.924 8
7.8909998 -4.4889998 -1.925 8
8.5609999 -4.8530002 -1.923 7
5.9699998 -3.506 -1.932 8
6.3559999 -3.7090001 -1.924 8
6.8200002 -3.9579999 -1.926 8
7.3439999 -4.2410002 -1.926 8
7.9419999 -4.5669999 -1.927 8
8.6280003 -4.9439998 -1.926 8
6.0029998 -3.563 -1.9349999 8
6.388 -3.7679999 -1.925 9
6.8499999 -4.0180001 -1.924 8
7.3899999 -4.3130002 -1.927 8
7.9920001 -4.6440001 -1.926 8
8.691 -5.0320001 -1.925 7
6.0149999 -3.608 -1.9299999 8
6.4200001 -3.825 -1.926 8
6.8959999 -4.086 -1.927 8
7.441 -4.3870001 -1.928 8
8.0439997 -4.7220001 -1.925 7
8.7700005 -5.1279998 -1.927 7
6.0380001 -3.658 -1.929 8
6.4499998 -3.882 -1.925 8
6.9369998 -4.151 -1.926 8
7.4920001 -4.46 -1.929 8
8.1000004 -4.8010001 -1.924 7
8.8470001 -5.224 -1.928 7
6.072 -3.714 -1.9299999 8
6.4899998 -3.9430001 -1.926 8
6.9879999 -4.2210002 -1.929 8
7.5510001 -4.5380001 -1.9299999 8
8.184 -4.8969998 -1.928 7
8.9379997 -5.3270001 -1.9299999 7
6.0999999 -3.7650001 -1.928 8
6.5409999 -4.0110002 -1.929 8
7.0419998 -4.2930002 -1.9299999 8
7.612 -4.6160002 -1.931 8
8.2600002 -4.987 -1.929 7
9.0270004 -5.4289999 -1.931 7
6.1500001 -3.8310001 -1.933 8
6.5749998 -4.0679998 -1.926 8
7.0910001 -4.3610001 -1.929 8
7.6659999 -4.6900001 -1.929 7
8.3339996 -5.0760002 -1.929 7
9.1160002 -5.5300002 -1.9299999 7
6.184 -3.885 -1.931 8
6.6230001 -4.1329999 -1.927 8
7.1339998 -4.4250002 -1.927 8
7.743 -4.776 -1.931 7
8.408 -5.1630001 -1.928 7
9.2279997 -5.6440001 -1.932 7
6.2280002 -3.944 -1.932 8
6.6739998 -4.198 -1.928 8
7.2069998 -4.506 -1.9299999 8
7.8049998 -4.8530002 -1.9299999 7
8.507 -5.2649999 -1.931 7
9.3520002 -5.7649999 -1.936 7
6.27 -4.0019999 -1.931 8
6.7270002 -4.2639999 -1.927 8
7.2709999 -4.5809999 -1.9299999 8
7.882 -4.9390001 -1.9299999 7
8.6009998 -5.3639998 -1.931 7
9.4860001 -5.8920002 -1.9400001 7
6.3150001 -4.0609999 -1.931 8
6.7839999 -4.3319998 -1.928 8
7.3509998 -4.665 -1.934 8
7.9569998 -5.0219998 -1.928 7
8.7150002 -5.474 -1.934 7
9.599 -6.0050001 -1.938 7
6.3709998 -4.125 -1.932 8
6.8520002 -4.4060001 -1.9299999 7
7.4159999 -4.7389998 -1.932 8
8.052 -5.1170001 -1.931 7
8.8100004 -5.572 -1.932 7
9.7460003 -6.1389999 -1.942 7
6.427 -4.1890001 -1.932 8
6.9130001 -4.474 -1.929 7
7.4899998 -4.8169999 -1.931 8
8.1350002 -5.2030001 -1.928 7
8.9289999 -5.6830001 -1.933 7
9.9049997 -6.2789998 -1.9450001 7
6.4860001 -4.2540002 -1.933 7
6.9829998 -4.5479999 -1.929 7
7.5679998 -4.8979998 -1.931 8
8.2480001 -5.3080001 -1.932 7
9.066 -5.8060002 -1.938 7
10.049 -6.4089999 -1.9450001 7
6.546 -4.3179998 -1.932 7
7.0619998 -4.6259999 -1.931 8
7.6589999 -4.9850001 -1.931 7
8.3520002 -5.4060001 -1.932 7
9.198 -5.9239998 -1.939 6
10.212 -6.5500002 -1.947 7
6.6079998 -4.3829999 -1.932 7
7.1339998 -4.698 -1.9299999 8
7.7480001 -5.0710001 -1.931 7
8.4580002 -5.5040002 -1.931 7
9.3570004 -6.059 -1.944 6
10.379 -6.6919999 -1.9450001 7
6.684 -4.4569998 -1.933 7
7.21 -4.7729998 -1.929 8
7.8509998 -5.1630001 -1.933 7
8.5880003 -5.6160002 -1.934 7
9.5050001 -6.1849999 -1.944 6
10.569 -6.848 -1.947 7
6.7620001 -4.5300002 -1.9349999 7
7.3039999 -4.8579998 -1.931 7
7.9380002 -5.2449999 -1.929 8
8.7150002 -5.7259998 -1.934 7
9.6560001 -6.3119998 -1.944 6
10.747 -6.9959998 -1.9450001 5
6.8400002 -4.6020002 -1.9349999 7
7.3979998 -4.941 -1.931 8
8.0600004 -5.348 -1.932 7
8.8559999 -5.8429999 -1.937 7
9.8360004 -6.4569998 -1.947 7
10.953 -7.1589999 -1.946 6
6.9250002 -4.677 -1.936 7
7.4949999 -5.0250001 -1.931 7
8.1789999 -5.4489999 -1.932 6
9.0019999 -5.9619999 -1.937 7
10.013 -6.598 -1.948 6
11.161 -7.3239999 -1.944 6
7.0139999 -4.7540002 -1.936 7
7.5949998 -5.1100001 -1.931 7
8.3009996 -5.5489998 -1.933 7
9.158 -6.086 -1.939 7
10.215 -6.7540002 -1.951 7
11.385 -7.4949999 -1.943 6
7.0970001 -4.8249998 -1.9349999 7
7.7030001 -5.198 -1.932 7
8.4469995 -5.6630001 -1.936 7
9.349 -6.2319999 -1.947 6
10.382 -6.8860002 -1.946 7
11.64 -7.6869998 -1.9450001 6
7.1999998 -4.908 -1.936 7
7.8150001 -5.2880001 -1.9299999 7
8.5790005 -5.7680001 -1.936 7
9.5179996 -6.362 -1.947 6
10.586 -7.04 -1.946 5
11.906 -7.8829999 -1.946 7
7.302 -4.9889998 -1.936 7
7.9320002 -5.3800001 -1.9299999 7
8.7320004 -5.8839998 -1.938 6
9.7209997 -6.5120001 -1.952 7
10.817 -7.21 -1.947 6
12.181 -8.0839996 -1.944 7
7.4070001 -5.0710001 -1.936 7
8.059 -5.4770002 -1.9299999 7
8.8889999 -6.0009999 -1.938 7
9.8920002 -6.6399999 -1.948 7
11.062 -7.3870001 -1.949 6
12.494 -8.3070002 -1.946 8
7.5190001 -5.1560001 -1.9349999 7
8.1969995 -5.579 -1.931 6
9.0649996 -6.1290002 -1.941 6
10.093 -6.7849998 -1.948 6
11.291 -7.5510001 -1.946 6
12.82 -8.5360003 -1.947 7
7.6259999 -5.2350001 -1.932 7
8.342 -5.684 -1.932 6
9.2539997 -6.2649999 -1.9450001 6
10.317 -6.9429998 -1.95 4
11.556 -7.737 -1.9450001 6
13.167 -8.7770004 -1.947 8
7.7529998 -5.3260002 -1.933 7
8.493 -5.7919998 -1.932 7
9.4499998 -6.402 -1.947 6
10.538 -7.098 -1.949 6
11.853 -7.9419999 -1.947 7
13.574 -9.0550003 -1.952 9
7.8979998 -5.428 -1.9349999 7
8.6680002 -5.9130001 -1.936 7
9.658 -6.5450001 -1.95 7
10.775 -7.2589998 -1.949 6
12.173 -8.1599998 -1.949 7
14.002 -9.3450003 -1.957 10
8.033 -5.52 -1.9349999 7
8.8380003 -6.0289998 -1.936 6
9.8590002 -6.6810002 -1.949 7
11.004 -7.414 -1.9450001 6
12.504 -8.382 -1.951 8
14.436 -9.6339998 -1.957 8
8.177 -5.6170001 -1.934 7
9.0229998 -6.1529999 -1.938 6
10.075 -6.8249998 -1.949 6
11.277 -7.5949998 -1.9450001 6
12.853 -8.6120005 -1.951 8
14.89 -9.934 -1.956 9
8.3520002 -5.7329998 -1.938 7
9.2519999 -6.3039999 -1.946 7
10.308 -6.9780002 -1.949 6
11.585 -7.7969999 -1.948 7
13.255 -8.875 -1.955 9
15.396 -10.264 -1.9579999 9
8.5109997 -5.835 -1.938 7
9.448 -6.4299998 -1.947 7
10.556 -7.138 -1.951 6
11.9 -7.9990001 -1.949 7
13.659 -9.1350002 -1.956 9
15.962 -10.629 -1.961 7
8.684 -5.9439998 -1.937 7
9.6700001 -6.5710001 -1.949 7
10.806 -7.296 -1.948 6
12.203 -8.191 -1.946 7
14.058 -9.3879995 -1.952 7
16.555 -11.007 -1.962 7
8.8909998 -6.0739999 -1.943 7
9.8889999 -6.7069998 -1.949 7
11.081 -7.467 -1.949 6
12.583 -8.4300003 -1.95 8
14.566 -9.7089996 -1.9579999 9
17.247 -11.446 -1.9680001 6
9.1029997 -6.2049999 -1.947 6
10.108 -6.8400002 -1.9450001 6
11.381 -7.652 -1.95 6
12.972 -8.6709995 -1.952 8
15.101 -10.043 -1.9630001 8
17.922001 -11.867 -1.965 6
9.3210001 -6.336 -1.95 7
10.384 -7.0079999 -1.95 4
11.697 -7.8429999 -1.95 7
13.35 -8.901 -1.948 9
15.628 -10.367 -1.96 6
18.719 -12.363 -1.969 5
9.5430002 -6.4679999 -1.951 7
10.624 -7.1490002 -1.946 6
12.021 -8.0360003 -1.949 7
13.804 -9.1750002 -1.952 9
16.208 -10.719 -1.961 6
19.658001 -12.945 -1.9809999 4
9.7779999 -6.6040001 -1.9529999 6
10.898 -7.3080001 -1.9450001 6
12.379 -8.2480001 -1.95 8
14.312 -9.4820004 -1.959 8
16.885 -11.131 -1.967 5
20.493 -13.451 -1.973 4
10.018 -6.7410002 -1.9529999 6
11.194 -7.4780002 -1.9450001 6
12.746 -8.4610004 -1.949 8
14.801 -9.7690001 -1.957 8
17.534 -11.516 -1.962 6
21.549999 -14.093 -1.977 4
10.276 -6.8860002 -1.954 7
11.504 -7.6539998 -1.9450001 7
13.157 -8.698 -1.95 9
15.363 -10.099 -1.961 8
18.392 -12.03 -1.974 5
22.503 -14.657 -1.9630001 4
10.536 -7.0279999 -1.952 5
11.834 -7.8379998 -1.943 7
13.615 -8.9610004 -1.9529999 9
15.923 -10.421 -1.9579999 6
19.212999 -12.513 -1.973 4
23.711 -15.377 -1.96 4
10.823 -7.184 -1.9529999 6
12.186 -8.033 -1.943 7
14.091 -9.2299995 -1.956 10
16.618 -10.824 -1.966 6
20.236 -13.117 -1.985 4
24.832001 -16.028999 -1.9400001 2
11.125 -7.3470001 -1.9529999 6
12.594 -8.2580004 -1.948 8
14.6 -9.5139999 -1.9579999 10
17.305 -11.215 -1.9680001 7
21.114 -13.616 -1.975 4
26.459999 -16.993 -1.948 2
11.425 -7.5019999 -1.949 6
12.993 -8.4729996 -1.947 8
15.169 -9.8310003 -1.961 9
18.028 -11.62 -1.966 5
22.125999 -14.193 -1.969 3
0 0 0 0
11.755 -7.6750002 -1.949 7
13.429 -8.7060003 -1.948 8
15.705 -10.12 -1.9579999 8
18.872 -12.094 -1.97 5
23.104 -14.735 -1.949 4
29.627001 -18.816999 -1.913 1
12.104 -7.8530002 -1.947 7
13.912 -8.9650002 -1.952 9
16.348 -10.47 -1.961 7
19.844 -12.64 -1.979 4
24.333 -15.425 -1.941 2
0 0 0 0
12.505 -8.0600004 -1.952 7
14.411 -9.2259998 -1.9529999 10
17.049999 -10.849 -1.965 7
20.778 -13.149 -1.977 4
25.961 -16.351999 -1.9529999 4
0 0 0 0
12.902 -8.2589998 -1.951 8
14.944 -9.5030003 -1.954 8
17.778999 -11.237 -1.965 5
21.671 -13.623 -1.961 4
27.756001 -17.365 -1.962 1
38.132 -23.759001 -1.948 10
13.345 -8.4809999 -1.954 9
15.489 -9.7779999 -1.951 7
18.594999 -11.669 -1.969 4
22.695999 -14.166 -1.95 4
0 0 0 0
39.953999 -24.721001 -1.8609999 10
13.823 -8.7189999 -1.956 9
16.134001 -10.11 -1.957 7
19.492001 -12.139 -1.972 5
23.915001 -14.815 -1.944 3
0 0 0 0
42.68 -26.212 -1.7970001 2
14.328 -8.9659996 -1.959 9
16.763 -10.421 -1.9529999 6
20.452999 -12.641 -1.975 4
25.426001 -15.631 -1.952 3
33.212002 -20.323 -1.898 1
50.589001 -30.830999 -1.908 2
14.854 -9.2189999 -1.959 7
17.516001 -10.801 -1.959 6
21.452999 -13.151 -1.973 4
27.045 -16.492001 -1.955 3
36.122002 -21.927 -1.904 1
52.540001 -31.766001 -1.752 2
15.413 -9.4860001 -1.96 9
18.289 -11.184 -1.961 5
22.427999 -13.634 -1.96 4
28.605 -17.299 -1.938 1
39.022999 -23.49 -1.885 11
56.634998 -33.957001 -1.643 12
16.038 -9.7840004 -1.964 8
19.110001 -11.582 -1.96 5
23.77 -14.323 -1.969 4
30.608 -18.349001 -1.936 1
40.285 -24.041 -1.768 2
0 0 0 0
16.725 -10.109 -1.969 7
20.047001 -12.039 -1.9630001 4
24.732 -14.767 -1.936 4
32.959 -19.58 -1.9400001 1
50.287998 -29.739 -1.987 2
78.847 -46.445999 -1.601 8
17.431 -10.436 -1.971 6
21.040001 -12.517 -1.965 4
26.493 -15.671 -1.956 8
35.821999 -21.080999 -1.95 1
52.310001 -30.646 -1.84 6
50.417 -29.424 -0.81099999 51
18.242001 -10.816 -1.978 7
22.002001 -12.963 -1.955 4
27.774 -16.271999 -1.927 3
39.769001 -23.179001 -1.994 6
50.508999 -29.306999 -1.563 23
50.507 -29.191999 -0.60000002 49
18.978001 -11.139 -1.972 5
22.987 -13.408 -1.939 4
0 0 0 0
40.006001 -23.084 -1.8329999 15
51.487 -29.576 -1.375 26
84.766998 -48.506001 -0.653 15
19.948 -11.586 -1.9809999 5
24.358999 -14.059 -1.9450001 4
0 0 0 0
0 0 0 0
61.706001 -35.087002 -1.3890001 13
0 0 0 0
20.908001 -12.014 -1.984 5
25.58 -14.608 -1.933 3
0 0 0 0
51.715 -29.223 -1.9299999 6
69.140999 -38.901001 -1.274 4
62.571999 -35.070999 0.026000001 3
21.834999 -12.409 -1.973 5
27.236 -15.384 -1.939 3
36.202999 -20.334999 -1.888 1
51.145 -28.584999 -1.696 9
62.452999 -34.755001 -0.89600003 84
62.52 -34.66 0.27599999 21
22.822001 -12.824 -1.964 5
28.614 -15.98 -1.915 3
40.794998 -22.658001 -1.954 5
57.436001 -31.740999 -1.669 12
0 0 0 0
63.099998 -34.59 0.528 14
23.833 -13.236 -1.948 4
0 0 0 0
40.728001 -22.360001 -1.785 4
0 0 0 0
125.676 -68.369003 -0.80000001 15
52.358002 -28.375999 0.64099997 5
25.191999 -13.827 -1.9529999 4
32.188 -17.559 -1.887 1
44.073002 -23.912001 -1.755 2
52.284 -28.228001 -1.103 75
52.358002 -28.149 -0.131 48
52.437 -28.084999 0.83999997 34
26.618999 -14.431 -1.952 4
0 0 0 0
51.881001 -27.809 -1.859 17
52.465 -27.988001 -0.90399998 22
0 0 0 0
64.182999 -33.962002 1.267 28
28.322001 -15.164 -1.9630001 3
0 0 0 0
52.416 -27.75 -1.677 23
82.613998 -43.526001 -1.11 21
101.309 -53.146999 0.509 23
64.568001 -33.745998 1.513 15
0 0 0 0
42.599998 -22.386999 -1.987 3
56.257 -29.405001 -1.58 3
83.171997 -43.259998 -0.80400002 57
83.088997 -43.035999 0.72100002 25
89.959999 -46.422001 2.4300001 26
31.379999 -16.372 -1.925 2
42.631001 -22.111 -1.825 6
55.75 -28.761 -1.357 4
55.761002 -28.628 -0.33199999 6
90.586998 -46.311001 1.118 22
83.153 -42.352001 2.5369999 14
0 0 0 0
45.015999 -23.034 -1.756 2
55.738998 -28.368999 -1.15 9
55.814999 -28.275 -0.133 17
90.008003 -45.403 1.427 28
90.499001 -45.480999 3.0799999 29
34.924999 -17.728001 -1.873 1
51 -25.739 -1.802 4
68.670998 -34.473999 -1.17 6
0 0 0 0
90.569 -45.060001 1.75 24
91.065002 -45.141998 3.405 24
37.002998 -18.521 -1.846 1
54.776001 -27.259001 -1.733 11
73.806 -36.532001 -0.995 13
51.451 -25.348 0.236 36
90.954002 -44.619999 2.062 35
91.778 -44.862 3.733 19
43.548 -21.486 -2.016 2
51.422001 -25.224001 -1.446 6
74.372002 -36.290001 -0.74400002 59
51.331001 -24.931 0.41 32
74.384003 -35.971001 1.937 30
74.259003 -35.780998 3.2639999 27
0 0 0 0
58.653 -28.353001 -1.4450001 5
98.344002 -47.291 -0.65899998 8
91.794998 -43.929001 1.038 10
74.935997 -35.713001 2.187 11
74.323997 -35.290001 3.4990001 10
44.34 -21.233999 -1.739 3
0 0 0 0
113.109 -53.580002 -0.37799999 20
0 0 0 0
75.505997 -35.448002 2.4389999 14
126.351 -59.092999 6.3379998 25
50.648998 -23.885 -1.816 5
69.337997 -32.511002 -1.245 6
82.584 -38.52 -0.0089999996 18
118.131 -54.834999 2.0840001 17
96.301003 -44.518002 3.4070001 30
75.936996 -34.973 4.0339999 20
54.601002 -25.344999 -1.777 19
0 0 0 0
82.977997 -38.097 0.25 8
117.299 -53.601002 2.4330001 29
95.192001 -43.311001 3.655 20
95.422997 -43.257999 5.3470001 34
54.932999 -25.09 -1.6109999 11
0 0 0 0
83.410004 -37.686001 0.50300002 6
97.741997 -43.952999 2.3139999 8
95.07 -42.575001 3.9230001 30
95.487 -42.602001 5.6209998 26
56.400002 -25.346001 -1.479 3
90.911003 -40.623001 -0.78100002 7
0 0 0 0
61.004002 -26.992001 1.618 8
95.455002 -42.056999 4.2069998 27
50.674 -22.24 3.1199999 24
61.210999 -27.049 -1.419 15
0 0 0 0
61.937 -27.075001 0.73299998 8
62.292 -27.105 1.824 3
50.974998 -22.086 2.3840001 7
51.452 -22.211 3.302 5
61.438999 -26.695 -1.2460001 10
0 0 0 0
61.837002 -26.573 0.90100002 38
61.591 -26.341999 1.97 33
51.574001 -21.966 2.5450001 19
51.606998 -21.896999 3.4449999 43
62.084999 -26.509001 -1.084 6
62.264999 -26.434 -0.0049999999 36
51.535999 -21.764999 0.88999999 3
51.59 -21.687 1.784 5
61.389999 -25.698999 3.184 27
51.793999 -21.6 3.5840001 7
51.490002 -21.599001 -0.75700003 61
51.551998 -21.504 0.132 64
51.555 -21.391001 1.02 4
62.543999 -25.83 2.316 36
61.566002 -25.316999 3.342 9
97.755997 -40.044998 6.994 26
0 0 0 0
102.332 -41.910999 0.52499998 25
62.022999 -25.271999 1.383 9
62.817001 -25.474001 2.4809999 15
62.509998 -25.237 3.5409999 15
0 0 0 0
45.084 -18.226 -0.42899999 4
103.081 -41.439999 0.78200001 12
74.683998 -29.865999 1.845 23
99.209999 -39.488998 4.1469998 27
98.894997 -39.193001 5.8260002 29
0 0 0 0
0 0 0 0
73.513 -29.004999 0.73100001 39
73.739998 -28.941 1.99 36
101.198 -39.526001 4.4569998 15
0 0 0 0
0 0 0 0
90.999001 -35.417999 -0.435 23
73.359001 -28.388 0.89399999 27
74.209 -28.568001 2.1630001 25
120.041 -45.988998 5.5370002 35
120.79 -46.078999 7.619 45
50.338001 -19.127001 4.0300002 9
58.376999 -22.278 -0.146 10
73.477997 -27.879 1.057 34
74.148003 -27.983999 2.3199999 29
121.364 -45.576 5.8449998 17
121.957 -45.602001 7.9330001 22
50.676998 -18.872999 4.1539998 3
58.566002 -21.9 -0.02 2
73.813004 -27.445 1.214 36
74.375999 -27.511 2.473 36
0 0 0 0
122.16 -44.764 8.177 44
53.266998 -19.434999 4.4629998 11
61.007 -22.347 0.102 61
74.528999 -27.141001 1.373 26
53.194 -19.27 1.87 12
52.507999 -18.927 2.727 74
52.537998 -18.853001 3.6099999 31
85.669998 -30.622 7.3239999 44
52.486 -18.826 0.19 91
52.52 -18.728001 1.067 18
52.150002 -18.493 1.928 14
0 0 0 0
86.628998 -30.429001 6.098 6
84.912003 -29.702999 7.3990002 38
61.624001 -21.629 0.338 75
0 0 0 0
0 0 0 0
0 0 0 0
0 0 0 0
85.282997 -29.186001 7.5599999 31
63.334 -21.738001 0.45899999 26
105.896 -36.137001 2.517 16
0 0 0 0
0 0 0 0
86.208 -28.969999 6.3319998 11
86.473999 -28.937 7.789 30
63.632999 -21.353001 0.56400001 32
0 0 0 0
0 0 0 0
87.169998 -28.764999 5.0819998 11
89.120003 -29.27 6.6690001 15
85.100998 -27.830999 7.777 8
106.336 -34.859001 1.108 24
0 0 0 0
87.318001 -28.298 3.7750001 11
0 0 0 0
83.968002 -26.947001 6.3920002 20
83.828003 -26.785 7.7639999 46
106.475 -34.09 1.258 9
0 0 0 0
0 0 0 0
0 0 0 0
84.476997 -26.472 6.5279999 8
84.151001 -26.253 7.8860002 47
0 0 0 0
87.713997 -27.254 2.579 41
87.317001 -26.976 3.9909999 32
86.137001 -26.474001 5.342 39
74.264999 -22.711 5.8169999 10
86.190002 -26.239 8.1630001 6
63.091999 -19.239 0.90399998 4
87.771004 -26.604 2.6800001 8
88.080002 -26.542999 4.1199999 14
0 0 0 0
73.589996 -21.945 5.836 36
74.532997 -22.132 7.1279998 36
88.474998 -26.305 1.364 39
88.056999 -26.017 2.78 26
87.762001 -25.783001 4.1890001 22
100.998 -29.51 6.4580002 8
73.558998 -21.388 5.8969998 26
74.774002 -21.639999 7.211 30
112.563 -32.613998 1.849 24
99.946999 -28.781 3.2479999 18
89.875999 -25.728001 4.3699999 6
75.356003 -21.448999 4.8790002 18
54.633999 -15.471 4.4219999 3
54.540001 -15.371 5.2979999 39
113.2 -31.938 1.957 24
99.055 -27.768 3.3010001 49
100.607 -28.034 4.9699998 14
54.713001 -15.163 3.582 48
54.5 -15.025 4.448 57
54.387001 -14.924 5.3169999 33
54.880001 -15.067 0.99000001 32
88.585999 -24.164 3.0150001 21
88.900002 -24.106001 4.447 6
75.274002 -20.295 4.974 4
54.990002 -14.744 4.5180001 4
54.806 -14.626 5.3850002 6
79.524002 -21.23 1.4910001 13
80.508003 -21.356001 2.79 9
100.968 -26.617001 5.1110001 29
75.339996 -19.75 5.0170002 4
72.994003 -19.035 6.0300002 10
72.668999 -18.851999 7.1680002 30
79.833 -20.714001 1.538 19
80.155998 -20.659 2.8169999 12
0 0 0 0
79.352997 -20.202999 5.316 15
72.926003 -18.468 6.0500002 26
72.803001 -18.341999 7.2059999 39
79.527 -20.031 1.568 22
80.492996 -20.136999 2.8599999 27
75.995003 -18.886 3.9070001 15
72.996002 -18.035 4.9120002 7
72.684998 -17.857 6.0479999 14
72.176003 -17.636 7.1560001 37
80.057999 -19.555 1.6059999 28
76.146004 -18.475 2.7279999 37
77.098 -18.584 3.98 14
74.555 -17.864 5.0289998 6
72.428001 -17.254 6.0359998 30
72.290001 -17.129 7.1750002 32
80.027 -18.955 1.624 39
0 0 0 0
0 0 0 0
76.781998 -17.822001 5.1859999 11
73.110001 -16.877001 6.0970001 12
72.931999 -16.743 7.237 39
76.443001 -17.534 1.559 17
76.114998 -17.337999 2.7449999 50
75.790001 -17.146999 3.924 25
75.234001 -16.912001 5.0799999 11
73.370003 -16.396999 6.112 14
73.042999 -16.231001 7.2410002 40
76.456001 -16.971001 1.561 18
76.842003 -16.936001 2.7690001 10
113.382 -24.816 5.8629999 35
76.108002 -16.552 5.1300001 12
74.779999 -16.166 6.217 4
73.606003 -15.816 7.2820001 31
111.662 -23.962 2.266 40
115.246 -24.547001 4.1350002 23
77.551003 -16.400999 3.994 26
79.971001 -16.802999 5.3709998 14
75.305 -15.722 6.2399998 7
74.349998 -15.433 7.3309999 35
110.039 -22.802999 2.2119999 27
111.721 -22.976 3.9820001 31
111.803 -22.830999 5.7259998 17
80.236 -16.268999 5.3600001 8
75.835999 -15.276 6.2540002 14
55.967999 -11.204 5.494 6
113.051 -22.587999 2.2349999 29
111.009 -22.007999 3.915 29
112.272 -22.098 5.704 40
79.978996 -15.627 5.3070002 21
76.338997 -14.815 6.2579999 26
75.890999 -14.635 7.4099998 35
112.266 -21.607 2.1689999 25
111.035 -21.205 3.862 9
116.237 -22.028999 5.8449998 14
76.304001 -14.352 5.0229998 10
58.948002 -11.01 4.7989998 6
58.605999 -10.872 5.6849999 27
112.054 -20.740999 2.1029999 30
57.845001 -10.619 1.978 41
116.84 -21.281 5.802 33
57.852001 -10.458 3.7690001 23
57.851002 -10.386 4.6680002 9
56.041 -9.9919996 5.3959999 54
58.264999 -10.362 1.056 37
58.596001 -10.336 1.964 41
58.772999 -10.284 2.8759999 33
59.176998 -10.277 3.8110001 27
59.449001 -10.248 4.7509999 2
56.411999 -9.6590004 5.3850002 18
99.417 -16.965 1.725 53
100.116 -16.937 3.2739999 28
113.962 -19.124001 5.4809999 49
115.681 -19.257999 7.349 36
59.493 -9.8280001 4.6999998 6
56.751999 -9.309 5.3639998 5
99.685997 -16.295 1.6440001 41
113.555 -18.403 3.612 17
114.317 -18.367001 5.3920002 35
115.806 -18.452 7.2459998 30
116.222 -18.377001 9.066 14
59.830002 -9.3879995 5.5929999 10
90.293999 -14.111 1.399 8
101.159 -15.669 3.1140001 13
115.326 -17.704 5.3179998 33
115.12 -17.521 7.0770001 18
0 0 0 0
0 0 0 0
100.203 -14.948 1.444 29
100.546 -14.856 2.983 34
114.256 -16.726999 5.1350002 43
0 0 0 0
0 0 0 0
0 0 0 0
70.074997 -9.9510002 0.92400002 20
100.681 -14.161 2.862 46
114.243 -15.915 4.9920001 48
0 0 0 0
0 0 0 0
0 0 0 0
70.568001 -9.5249996 0.83700001 14
100.902 -13.48 2.7309999 57
114.403 -15.132 4.8410001 36
114.824 -15.046 6.6139998 26
0 0 0 0
0 0 0 0
85.806999 -10.978 0.89700001 25
98.578003 -12.473 2.5239999 24
113.327 -14.196 4.6269999 30
114.003 -14.136 6.3930001 34
0 0 0 0
0 0 0 0
85.521004 -10.343 0.76099998 35
98.622002 -11.794 2.3729999 35
66.556999 -7.8759999 2.6129999 5
113.723 -13.315 6.197 43
116.145 -13.454 8.099 39
0 0 0 0
39.327 -4.4819999 0.285 3
39.422001 -4.441 0.88200003 12
66.460999 -7.4039998 2.4960001 46
65.313004 -7.1960001 3.4460001 27
114.528 -12.481 7.789 31
0 0 0 0
118.056 -12.639 0.64899999 22
0 0 0 0
65.349998 -6.8280001 2.336 44
111.563 -11.525 5.6830001 16
116.277 -11.874 7.6929998 28
59.553001 -6.0159998 4.849 7
94.263 -9.448 0.34200001 11
66.249001 -6.5539999 1.24 25
65.683998 -6.4159999 2.224 38
65.096001 -6.2820001 3.1919999 11
83.277 -7.9390001 5.349 7
59.195999 -5.5760002 4.704 14
94.121002 -8.7860003 0.154 15
66.674004 -6.1389999 1.114 17
65.670998 -5.9650002 2.0899999 34
65.957001 -5.9120002 3.098 40
60.514999 -5.3559999 3.7620001 26
60.044998 -5.2470002 4.6459999 23
60.865002 -5.2680001 -0.026000001 52
60.818001 -5.1880002 0.88800001 53
60.821999 -5.1139998 1.806 29
60.834999 -5.0430002 2.727 35
82.93 -6.7820001 4.9759998 36
60.396999 -4.8720002 4.5419998 14
42.166 -3.3659999 -0.111 19
66.299004 -5.21 0.82200003 3
66.581001 -5.1490002 1.8279999 44
66.445999 -5.0630002 2.8299999 31
82.737 -6.21 4.777 29
82.492996 -6.0960002 6.0139999 13
42.591 -3.112 -0.211 14
81.499001 -5.8569999 0.81999999 6
66.796997 -4.723 1.6799999 31
67.071999 -4.665 2.7 34
82.523003 -5.6490002 4.572 32
60.756001 -4.0869999 4.2839999 3
70.805 -4.704 -0.523 43
70.894997 -4.625 0.54100001 42
67.626999 -4.335 1.536 10
66.904999 -4.2119999 2.529 23
69.803001 -4.3150001 3.694 28
69.746002 -4.23 4.744 11
43.380001 -2.5940001 -0.43099999 32
113.451 -6.6500001 0.57700002 9
0 0 0 0
71.072998 -4.0050001 2.5039999 31
83.150002 -4.5929999 4.1859999 20
83.688004 -4.5320001 5.4790001 15
43.706001 -2.3269999 -0.54900002 33
43.790001 -2.279 0.106 5
82.433998 -4.1989999 1.442 32
82.071999 -4.0879998 2.6719999 8
71.530998 -3.484 3.4089999 12
71.803001 -3.4230001 4.5079999 23
30.427999 -1.4220001 -0.465 14
92.597 -4.2259998 -0.025 17
82.552002 -3.674 1.2180001 11
83.434998 -3.6210001 2.4890001 15
94.036003 -3.9820001 4.2249999 23
0 0 0 0
30.284 -1.22 -0.55000001 39
44.494999 -1.745 -0.139 53
88.196999 -3.3599999 1.05 10
83.043999 -3.073 2.2390001 13
94.015999 -3.3770001 3.9530001 19
95.900002 -3.3429999 5.48 12
30.174999 -1.024 -0.63599998 65
44.839001 -1.47 -0.273 54
97.810997 -3.0999999 0.87300003 19
0 0 0 0
0 0 0 0
0 0 0 0
30.239 -0.833 -0.73100001 58
68.453003 -1.809 -0.62900001 8
0 0 0 0
79.591003 -1.936 1.665 33
0 0 0 0
0 0 0 0
30.559999 -0.64999998 -0.83600003 59
31.204 -0.63 -0.384 8
68.144997 -1.304 0.184 20
79.336998 -1.434 1.409 13
80.237 -1.364 2.632 15
0 0 0 0
30.851 -0.463 -0.94499999 64
30.849001 -0.43000001 -0.48199999 73
68.017998 -0.87699997 -0.039000001 52
79.391998 -0.94099998 1.149 26
79.682999 -0.866 2.3559999 36
0 0 0 0
31.042999 -0.273 -1.057 36
30.634001 -0.237 -0.58200002 75
68.251999 -0.461 -0.26899999 42
64.329002 -0.368 0.71499997 68
64.188004 -0.30199999 1.6799999 34
63.896 -0.236 2.6359999 30
31.006001 -0.081 -1.165 48
30.525999 -0.048999999 -0.68699998 67
31.042999 -0.018999999 -0.23 19
115.757 0.037999999 0.88499999 48
80.275002 0.107 1.824 30
0 0 0 0
24.865999 0.083999999 -1.023 7
30.48 0.133 -0.79400003 76
30.841999 0.164 -0.338 52
116.771 0.745 0.47400001 27
80.267998 0.59200001 1.536 31
0 0 0 0
24.375 0.229 -1.0930001 43
30.545 0.31600001 -0.90899998 69
30.822001 0.34900001 -0.45199999 54
94.697998 1.164 0.039999999 9
0 0 0 0
123.069 1.75 3.7679999 59
22.247 0.34099999 -1.082 17
30.688 0.5 -1.029 33
30.766001 0.52899998 -0.56599998 69
90 1.637 -0.29899999 23
0 0 0 0
122.928 2.474 3.3 20
21.07 0.44600001 -1.1059999 16
31.372999 0.69400001 -1.173 34
30.913 0.713 -0.68900001 61
82.577003 1.98 -0.59100002 5
82.666 2.0639999 0.65399998 17
66.380997 1.719 1.529 13
20.783001 0.56099999 -1.174 65
24.813 0.69300002 -1.027 22
34.973 1.007 -0.917 3
79.155998 2.352 -0.87699997 6
82.763 2.5369999 0.333 15
65.940002 2.0840001 1.261 83
20.620001 0.67400002 -1.249 70
24.202999 0.81300002 -1.099 64
30.483 1.054 -0.92400002 4
65.68 2.329 -0.995 21
67.829002 2.4679999 -0.001 62
82.808998 3.0910001 1.249 4
20.473 0.78600001 -1.327 61
23.240999 0.912 -1.153 66
30.478001 1.224 -1.049 22
42.966999 1.7640001 -0.82800001 19
67.901001 2.8499999 -0.28 6
134.629 5.776 1.48 33
20.43 0.89899999 -1.4119999 60
20.879 0.93800002 -1.125 45
34.580002 1.5829999 -1.3380001 4
37.326 1.742 -0.87800002 5
72.675003 3.4549999 -0.60600001 35
74.884003 3.628 0.50800002 13
20.329 1.0089999 -1.495 60
20.357 1.028 -1.187 70
24.349001 1.25 -1.048 9
37.716999 1.969 -1.051 12
70.723999 3.7539999 -0.89700001 4
74.487999 4.0180001 0.186 47
20.422001 1.126 -1.594 63
20.316999 1.137 -1.275 64
23.533001 1.336 -1.117 37
38.061001 2.194 -1.228 9
65.935997 3.8559999 -1.125 5
71.968002 4.2750001 -0.13699999 36
20.427 1.238 -1.689 56
20.200001 1.24 -1.3609999 71
21.132999 1.3150001 -1.101 22
35.028999 2.2079999 -1.289 1
38.547001 2.464 -0.83200002 2
71.878998 4.6570001 -0.46000001 53
20.325001 1.342 -1.777 44
20.176001 1.348 -1.454 73
20.360001 1.375 -1.155 60
24.528 1.677 -1.016 47
24.587 1.701 -0.64399999 53
67.514999 4.7329998 -0.74199998 7
20.117001 1.4349999 -1.8559999 14
20.129 1.451 -1.5470001 64
20.037001 1.459 -1.2309999 68
23.849001 1.756 -1.1 65
24.280001 1.807 -0.74900001 64
24.448999 1.84 -0.382 56
19.517 1.495 -1.896 14
20.177 1.5599999 -1.649 55
20.007 1.562 -1.326 66
0 0 0 0
24.174999 1.925 -0.86199999 60
24.166 1.943 -0.49200001 57
18.438999 1.508 -1.8839999 12
20.09 1.6569999 -1.7410001 52
19.959 1.66 -1.4220001 54
20.315001 1.704 -1.1339999 57
24.002001 2.033 -0.972 61
24.075001 2.059 -0.60600001 51
17.533001 1.524 -1.881 11
19.955999 1.747 -1.83 17
20 1.7640001 -1.524 57
19.959999 1.775 -1.2130001 51
23.712999 2.1270001 -1.076 61
23.950001 2.1670001 -0.72000003 44
16.67 1.5319999 -1.875 10
19.365999 1.793 -1.877 14
19.99 1.864 -1.626 51
19.837999 1.864 -1.307 60
22.319 2.1129999 -1.126 61
23.763 2.2679999 -0.833 53
15.907 1.541 -1.873 9
18.316999 1.785 -1.87 12
19.92 1.954 -1.722 45
19.85 1.961 -1.408 50
20.726 2.062 -1.15 63
23.631001 2.368 -0.94700003 52
15.202 1.546 -1.8710001 8
17.427999 1.783 -1.872 11
19.811001 2.04 -1.818 24
19.740999 2.0450001 -1.5039999 58
19.721001 2.056 -1.196 58
23.552999 2.473 -1.0650001 48
14.509 1.545 -1.865 10
16.551001 1.772 -1.8660001 10
19.252001 2.073 -1.869 14
19.801001 2.145 -1.613 53
19.667999 2.1429999 -1.296 59
22.511 2.4679999 -1.1339999 65
13.876 1.543 -1.86 11
15.762 1.762 -1.864 9
18.296 2.056 -1.875 12
19.816999 2.2390001 -1.72 57
19.650999 2.2320001 -1.399 60
20.191999 2.3069999 -1.124 27
13.272 1.538 -1.853 11
14.994 1.745 -1.8559999 10
17.348 2.029 -1.873 11
19.646999 2.309 -1.813 26
19.613001 2.3169999 -1.502 62
19.545 2.322 -1.193 55
12.721 1.533 -1.851 11
14.297 1.73 -1.851 10
16.438999 1.998 -1.868 10
19.105 2.332 -1.869 14
19.635 2.4089999 -1.613 60
19.514 2.4070001 -1.299 60
12.201 1.526 -1.846 12
13.67 1.716 -1.85 12
15.593 1.965 -1.862 9
18.066999 2.286 -1.87 12
19.632999 2.497 -1.724 42
19.514 2.493 -1.408 55
11.742 1.52 -1.846 12
13.064 1.697 -1.844 12
14.837 1.9349999 -1.857 10
17.105 2.24 -1.869 11
19.482 2.562 -1.822 20
19.464001 2.572 -1.515 59
11.298 1.513 -1.845 12
12.517 1.681 -1.842 12
14.121 1.903 -1.851 11
16.18 2.188 -1.862 9
18.851999 2.5610001 -1.872 13
19.450001 2.6530001 -1.624 58
10.871 1.503 -1.842 11
12.015 1.665 -1.84 13
13.468 1.872 -1.846 12
15.337 2.1389999 -1.8559999 9
17.729 2.483 -1.864 11
19.481001 2.7390001 -1.74 46
10.489 1.495 -1.8430001 12
11.539 1.648 -1.839 13
12.888 1.846 -1.845 12
14.582 2.0940001 -1.852 10
16.816 2.424 -1.867 10
19.308001 2.793 -1.837 17
10.113 1.483 -1.84 12
11.108 1.632 -1.839 12
12.33 1.816 -1.84 12
13.888 2.0510001 -1.847 11
15.893 2.355 -1.859 9
18.434999 2.74 -1.863 12
9.7930002 1.476 -1.844 12
10.689 1.613 -1.836 13
11.839 1.791 -1.839 13
13.251 2.0090001 -1.8430001 11
15.073 2.2920001 -1.853 10
17.42 2.6570001 -1.863 11
9.4790001 1.466 -1.845 11
10.305 1.596 -1.835 12
11.372 1.7640001 -1.837 14
12.671 1.97 -1.84 12
14.322 2.233 -1.848 10
16.452 2.573 -1.859 10
9.1789999 1.455 -1.847 11
9.9560003 1.581 -1.837 13
10.946 1.7410001 -1.8380001 12
12.119 1.931 -1.836 11
13.616 2.175 -1.842 11
15.528 2.487 -1.851 9
8.8870001 1.443 -1.847 11
9.6260004 1.5650001 -1.839 12
10.531 1.714 -1.836 12
11.631 1.897 -1.836 14
13.011 2.1259999 -1.841 11
14.739 2.414 -1.847 10
8.6090002 1.4299999 -1.846 12
9.316 1.549 -1.84 11
10.148 1.689 -1.835 12
11.193 1.8660001 -1.8380001 13
12.444 2.079 -1.84 11
14.007 2.345 -1.8430001 11
8.3699999 1.421 -1.852 12
9.0240002 1.533 -1.8430001 11
9.802 1.6670001 -1.836 12
10.745 1.83 -1.834 13
11.896 2.029 -1.834 13
13.329 2.279 -1.839 11
8.1149998 1.408 -1.851 11
8.7399998 1.516 -1.844 12
9.4799995 1.646 -1.839 12
10.344 1.798 -1.834 12
11.41 1.9859999 -1.8329999 13
12.719 2.2179999 -1.835 12
7.8829999 1.395 -1.853 11
8.4689999 1.499 -1.844 12
9.1709995 1.623 -1.841 12
9.9799995 1.768 -1.835 12
10.966 1.9450001 -1.8329999 12
12.166 2.1619999 -1.8329999 11
7.6659999 1.383 -1.855 11
8.224 1.483 -1.847 11
8.8859997 1.603 -1.844 12
9.6269999 1.738 -1.834 12
10.542 1.905 -1.831 12
11.65 2.108 -1.831 14
7.461 1.3710001 -1.859 10
7.973 1.464 -1.846 11
8.6029997 1.58 -1.844 11
9.3190002 1.712 -1.8380001 12
10.162 1.869 -1.8329999 11
11.187 2.0599999 -1.831 13
7.2639999 1.358 -1.8609999 10
7.7490001 1.448 -1.849 10
8.3360004 1.557 -1.844 11
9.0229998 1.686 -1.841 12
9.7989998 1.8329999 -1.8329999 12
10.752 2.013 -1.831 12
7.0289998 1.337 -1.852 11
7.5409999 1.433 -1.853 11
8.0909996 1.5369999 -1.847 11
8.7259998 1.658 -1.841 12
9.4770002 1.802 -1.8380001 12
10.332 1.966 -1.83 11
6.8379998 1.322 -1.852 11
7.2979999 1.409 -1.846 12
7.8530002 1.516 -1.848 10
8.4610004 1.633 -1.8430001 11
9.1529999 1.767 -1.837 11
9.9530001 1.9220001 -1.829 12
6.6599998 1.307 -1.853 11
7.1030002 1.393 -1.847 11
7.6500001 1.499 -1.854 11
8.2060003 1.607 -1.844 11
8.8620005 1.735 -1.839 11
9.6120005 1.883 -1.83 12
6.494 1.294 -1.854 12
6.901 1.373 -1.845 11
7.4320002 1.477 -1.854 10
7.9650002 1.582 -1.846 11
8.5860004 1.705 -1.841 11
9.2989998 1.847 -1.835 12
6.329 1.279 -1.855 11
6.7140002 1.355 -1.844 12
7.2020001 1.452 -1.849 11
7.7340002 1.557 -1.848 10
8.3249998 1.676 -1.8430001 11
8.9890003 1.8099999 -1.835 11
6.1659999 1.263 -1.854 11
6.5479999 1.339 -1.848 11
7.0050001 1.4299999 -1.849 12
7.5229998 1.535 -1.852 10
8.0769997 1.647 -1.845 11
8.7209997 1.778 -1.841 11
5.9990001 1.245 -1.85 10
6.375 1.321 -1.846 12
6.8130002 1.409 -1.848 11
7.2930002 1.506 -1.847 12
7.8530002 1.6210001 -1.849 11
8.448 1.743 -1.842 12
5.862 1.232 -1.852 10
6.2160001 1.303 -1.847 11
6.6350002 1.3890001 -1.849 11
7.0939999 1.483 -1.848 11
7.6279998 1.5930001 -1.85 11
8.1870003 1.709 -1.842 11
5.7199998 1.216 -1.851 10
6.0700002 1.2869999 -1.849 11
6.4629998 1.368 -1.849 12
6.9070001 1.46 -1.849 11
7.3769999 1.557 -1.842 11
7.9460001 1.676 -1.8430001 10
5.5890002 1.202 -1.852 11
5.9229999 1.27 -1.849 11
6.3070002 1.35 -1.851 11
6.7140002 1.434 -1.846 11
7.1849999 1.533 -1.846 11
7.7199998 1.645 -1.846 10
5.4530001 1.186 -1.85 10
5.7690001 1.251 -1.846 10
6.1500001 1.33 -1.851 12
6.5349998 1.41 -1.846 11
6.9829998 1.505 -1.845 11
7.4689999 1.608 -1.839 11
5.3400002 1.173 -1.854 10
5.6420002 1.235 -1.849 10
5.9959998 1.309 -1.851 11
6.3839998 1.391 -1.85 11
6.803 1.48 -1.846 11
7.2649999 1.5779999 -1.84 11
5.2090001 1.155 -1.85 11
5.5079999 1.2180001 -1.848 12
5.8509998 1.29 -1.85 11
6.2179999 1.367 -1.848 11
6.6240001 1.454 -1.846 11
7.0819998 1.552 -1.845 12
5.098 1.141 -1.852 10
5.375 1.199 -1.845 12
5.7129998 1.271 -1.85 11
6.0560002 1.3430001 -1.846 13
6.4499998 1.427 -1.845 11
6.8850002 1.521 -1.8430001 11
4.9889998 1.127 -1.853 10
5.276 1.187 -1.853 12
5.5830002 1.252 -1.851 11
5.927 1.325 -1.851 12
6.2989998 1.405 -1.848 11
6.7069998 1.493 -1.844 11
4.882 1.112 -1.852 10
5.1560001 1.169 -1.851 11
5.4510002 1.232 -1.849 13
5.7839999 1.303 -1.85 11
6.1290002 1.378 -1.844 11
6.527 1.464 -1.842 11
4.7789998 1.097 -1.852 10
5.0469999 1.154 -1.852 12
5.3400002 1.216 -1.853 12
5.645 1.281 -1.848 12
5.9860001 1.355 -1.845 12
6.3670001 1.438 -1.8430001 12
4.677 1.082 -1.851 10
4.9390001 1.137 -1.853 11
5.224 1.198 -1.854 12
5.52 1.262 -1.85 12
5.8369999 1.33 -1.8430001 12
6.2119999 1.4119999 -1.8430001 11
4.5939999 1.0700001 -1.8559999 10
4.8309999 1.12 -1.851 11
5.1069999 1.179 -1.851 12
5.3990002 1.2410001 -1.85 12
5.723 1.312 -1.849 10
6.053 1.3839999 -1.84 11
4.5019999 1.0549999 -1.8559999 10
4.737 1.105 -1.853 11
5.0050001 1.1619999 -1.854 11
5.2729998 1.22 -1.847 12
5.598 1.29 -1.851 10
5.908 1.358 -1.84 12
4.408 1.04 -1.854 10
4.6409998 1.089 -1.853 10
4.895 1.143 -1.852 11
5.1659999 1.202 -1.85 11
5.434 1.2589999 -1.8380001 11
5.7750001 1.334 -1.841 12
4.322 1.025 -1.854 10
4.546 1.072 -1.852 10
4.796 1.126 -1.852 11
5.0630002 1.183 -1.851 12
5.3330002 1.242 -1.8430001 13
5.6459999 1.3099999 -1.841 11
4.2360001 1.01 -1.853 9
4.4580002 1.057 -1.852 10
4.697 1.108 -1.851 10
4.9559999 1.164 -1.85 11
5.2309999 1.223 -1.847 12
5.5100002 1.284 -1.837 11
4.1529999 0.995 -1.852 10
4.3779998 1.043 -1.855 10
4.6090002 1.092 -1.853 12
4.8579998 1.145 -1.851 11
5.1199999 1.202 -1.847 11
5.4120002 1.266 -1.844 12
4.0749998 0.98100001 -1.851 10
4.2839999 1.025 -1.85 10
4.52 1.075 -1.853 11
4.7600002 1.126 -1.851 11
5.0180001 1.182 -1.848 12
5.3039999 1.245 -1.846 12
3.9909999 0.96499997 -1.847 9
4.2059999 1.01 -1.85 10
4.4359999 1.059 -1.854 10
4.658 1.1059999 -1.847 10
4.9320002 1.165 -1.853 11
5.197 1.223 -1.847 11
3.927 0.95300001 -1.85 10
4.132 0.99599999 -1.852 10
4.3460002 1.041 -1.851 11
4.5739999 1.089 -1.849 10
4.8210001 1.142 -1.848 11
5.0869999 1.2 -1.846 12
3.862 0.94 -1.852 9
4.0510001 0.97899997 -1.849 10
4.2690001 1.025 -1.852 10
4.4879999 1.071 -1.85 10
4.723 1.1210001 -1.846 10
4.9899998 1.179 -1.847 11
3.796 0.926 -1.853 9
3.98 0.96399999 -1.849 10
4.1869998 1.007 -1.85 10
4.4120002 1.0549999 -1.852 10
4.6420002 1.104 -1.849 11
4.8990002 1.16 -1.849 11
3.7360001 0.91399997 -1.855 9
3.908 0.949 -1.848 10
4.1100001 0.991 -1.848 11
4.3309999 1.0369999 -1.851 10
4.5479999 1.0829999 -1.846 10
4.8000002 1.137 -1.847 11
3.677 0.90200001 -1.857 9
3.839 0.93400002 -1.847 10
4.039 0.97500002 -1.848 10
4.2509999 1.02 -1.85 10
4.4780002 1.067 -1.85 10
4.71 1.117 -1.846 10
3.605 0.88499999 -1.852 9
3.779 0.92000002 -1.849 9
3.97 0.95999998 -1.848 10
4.1760001 1.002 -1.849 10
4.3940001 1.048 -1.849 10
4.6269999 1.097 -1.847 11
3.552 0.87300003 -1.854 9
3.723 0.90700001 -1.852 10
3.9000001 0.94300002 -1.846 10
4.105 0.986 -1.849 10
4.3140001 1.029 -1.847 10
4.553 1.08 -1.851 10
3.494 0.86000001 -1.853 9
3.6630001 0.89300001 -1.851 9
3.8369999 0.92799997 -1.847 10
4.0339999 0.96799999 -1.847 10
4.243 1.012 -1.848 10
4.4699998 1.0599999 -1.849 10
3.438 0.84600002 -1.853 8
3.6110001 0.88099998 -1.855 9
3.7780001 0.91399997 -1.848 10
3.9719999 0.95300001 -1.849 10
4.1729999 0.99400002 -1.847 10
4.3889999 1.039 -1.847 10
3.3840001 0.833 -1.853 8
3.55 0.86500001 -1.852 9
3.724 0.89999998 -1.851 9
3.898 0.935 -1.844 9
4.0970001 0.97500002 -1.844 10
4.3130002 1.02 -1.846 10
3.3280001 0.81900001 -1.849 8
3.4990001 0.852 -1.854 9
3.6689999 0.88599998 -1.852 9
3.839 0.91900003 -1.845 10
4.0370002 0.95899999 -1.847 10
4.243 1.001 -1.845 9
3.2780001 0.80599999 -1.849 8
3.4419999 0.838 -1.851 9
3.615 0.87099999 -1.852 9
3.783 0.90399998 -1.846 9
3.9719999 0.94199997 -1.845 10
4.1750002 0.98299998 -1.845 10
3.2379999 0.79500002 -1.853 8
3.3959999 0.82499999 -1.853 9
3.5569999 0.85600001 -1.85 9
3.7309999 0.88999999 -1.848 9
3.9119999 0.92500001 -1.845 9
4.1149998 0.96600002 -1.847 9
3.188 0.78100002 -1.851 7
3.3469999 0.81199998 -1.852 9
3.5079999 0.84200001 -1.851 9
3.6789999 0.875 -1.849 9
3.848 0.90700001 -1.842 10
4.0500002 0.94800001 -1.845 9
3.1470001 0.76999998 -1.853 7
3.3039999 0.79900002 -1.855 9
3.467 0.82999998 -1.855 9
3.6259999 0.86000001 -1.849 8
3.8 0.89300001 -1.846 9
3.987 0.93000001 -1.844 9
3.1029999 0.75700003 -1.852 7
3.253 0.78500003 -1.851 8
3.4170001 0.815 -1.854 9
3.576 0.84500003 -1.849 9
3.7449999 0.87699997 -1.844 9
3.928 0.912 -1.842 9
3.0639999 0.745 -1.853 7
3.207 0.77100003 -1.85 8
3.3710001 0.801 -1.853 9
3.5320001 0.83099997 -1.851 8
3.704 0.86400002 -1.85 9
3.875 0.89600003 -1.8430001 9
3.0280001 0.73400003 -1.855 6
3.1719999 0.75999999 -1.853 8
3.3280001 0.78799999 -1.854 8
3.484 0.81599998 -1.85 8
3.652 0.84799999 -1.849 9
3.826 0.88 -1.844 9
2.9860001 0.72100002 -1.853 6
3.131 0.74699998 -1.853 7
3.2839999 0.77399999 -1.853 8
3.4419999 0.80299997 -1.852 9
3.602 0.83099997 -1.847 9
3.7750001 0.86299998 -1.844 8
0 0 0 0
3.0899999 0.73400003 -1.852 7
3.247 0.76099998 -1.855 8
3.4030001 0.78899997 -1.854 8
3.5610001 0.81800002 -1.849 8
3.7290001 0.84799999 -1.845 8
1.568 0.375 -0.99699998 2
3.0569999 0.722 -1.854 8
3.1960001 0.74599999 -1.849 8
3.3570001 0.77399999 -1.852 8
3.516 0.80199999 -1.849 8
3.688 0.833 -1.848 8
1.5190001 0.36199999 -0.97799999 2
3.023 0.70999998 -1.8559999 7
3.1689999 0.73500001 -1.855 8
3.3169999 0.75999999 -1.852 8
3.4779999 0.78799999 -1.851 9
