# .PCD v0.7 - Point Cloud Data file format
VERSION 0.7
FIELDS x y z intensity
SIZE 4 4 4 4
TYPE F F F F
COUNT 1 1 1 1
WIDTH 1731
HEIGHT 1
VIEWPOINT 0 0 0 1 0 0 0
POINTS 1731
DATA ascii
2.8610001 -1.135 -1.876 35
3.01 -1.173 -1.874 61
3.171 -1.215 -1.874 6
3.339 -1.261 -1.873 7
3.513 -1.308 -1.87 7
3.681 -1.353 -1.859 8
2.878 -1.147 -1.874 39
3.026 -1.1849999 -1.87 43
3.1949999 -1.23 -1.874 7
3.368 -1.278 -1.874 7
3.536 -1.323 -1.867 7
3.7160001 -1.373 -1.8609999 8
2.904 -1.1619999 -1.876 36
3.052 -1.2 -1.8710001 8
3.2249999 -1.247 -1.876 7
3.3870001 -1.291 -1.87 7
3.562 -1.339 -1.865 8
3.753 -1.3940001 -1.863 8
2.9289999 -1.176 -1.877 37
3.0910001 -1.22 -1.8789999 7
3.2579999 -1.265 -1.8789999 7
3.424 -1.3099999 -1.874 7
3.596 -1.358 -1.8660001 8
3.79 -1.414 -1.864 8
2.9489999 -1.188 -1.874 41
3.1129999 -1.233 -1.876 7
3.2869999 -1.281 -1.8789999 8
3.4560001 -1.327 -1.874 7
3.6229999 -1.373 -1.863 8
3.822 -1.431 -1.862 8
2.967 -1.198 -1.868 9
3.1459999 -1.249 -1.8789999 7
3.3080001 -1.293 -1.873 7
3.49 -1.345 -1.874 7
3.658 -1.391 -1.862 8
3.862 -1.452 -1.863 8
3.0109999 -1.219 -1.878 7
3.177 -1.265 -1.88 7
3.345 -1.311 -1.876 7
3.52 -1.36 -1.872 8
3.6989999 -1.411 -1.864 8
3.9070001 -1.473 -1.865 8
3.0350001 -1.2309999 -1.875 7
3.2060001 -1.279 -1.8789999 7
3.382 -1.329 -1.878 7
3.55 -1.375 -1.869 8
3.7379999 -1.4299999 -1.864 8
3.9530001 -1.495 -1.867 9
3.073 -1.249 -1.88 7
3.234 -1.293 -1.876 7
3.4119999 -1.3430001 -1.876 7
3.5880001 -1.393 -1.869 7
3.779 -1.449 -1.864 8
4.0040002 -1.518 -1.869 9
3.1040001 -1.263 -1.8789999 7
3.277 -1.311 -1.88 7
3.448 -1.36 -1.875 7
3.628 -1.411 -1.869 8
3.8169999 -1.466 -1.862 8
4.0430002 -1.535 -1.8660001 8
3.1400001 -1.278 -1.881 6
3.3110001 -1.327 -1.88 8
3.4860001 -1.376 -1.875 7
3.6659999 -1.428 -1.867 7
3.875 -1.49 -1.868 8
4.0949998 -1.557 -1.867 7
3.1719999 -1.2920001 -1.8789999 6
3.349 -1.342 -1.88 9
3.5280001 -1.3940001 -1.876 8
3.7079999 -1.446 -1.867 7
3.9260001 -1.512 -1.87 8
4.1459999 -1.579 -1.867 8
3.2079999 -1.306 -1.8789999 7
3.3840001 -1.357 -1.878 8
3.5599999 -1.4069999 -1.87 7
3.7520001 -1.464 -1.8660001 8
3.973 -1.531 -1.869 8
4.2069998 -1.604 -1.87 9
3.243 -1.3200001 -1.877 7
3.4200001 -1.3710001 -1.875 7
3.5999999 -1.423 -1.869 8
3.8 -1.483 -1.8660001 8
4.0170002 -1.549 -1.865 8
4.2810001 -1.633 -1.878 22
3.2869999 -1.337 -1.8789999 7
3.467 -1.3890001 -1.877 8
3.6459999 -1.441 -1.869 8
3.8529999 -1.503 -1.868 8
4.0809999 -1.574 -1.87 8
4.3249998 -1.65 -1.8710001 43
3.3329999 -1.355 -1.882 7
3.5050001 -1.404 -1.874 8
3.694 -1.459 -1.869 8
3.9070001 -1.524 -1.869 8
4.1350002 -1.594 -1.869 8
4.3829999 -1.6720001 -1.87 43
3.3740001 -1.369 -1.881 7
3.5569999 -1.4220001 -1.877 8
3.7390001 -1.475 -1.867 7
3.9719999 -1.548 -1.875 8
4.2069998 -1.6210001 -1.874 13
4.448 -1.696 -1.87 45
3.418 -1.385 -1.88 8
3.598 -1.437 -1.873 9
3.7969999 -1.4960001 -1.87 8
4.0190001 -1.564 -1.87 8
4.263 -1.641 -1.872 43
4.506 -1.717 -1.8660001 49
3.4590001 -1.399 -1.878 8
3.6470001 -1.454 -1.872 9
3.849 -1.5140001 -1.868 8
4.0819998 -1.587 -1.872 8
4.323 -1.6619999 -1.8710001 62
4.5780001 -1.742 -1.867 50
3.5079999 -1.415 -1.878 8
3.7 -1.471 -1.873 8
3.9119999 -1.536 -1.872 8
4.145 -1.608 -1.873 8
4.3899999 -1.6849999 -1.8710001 56
4.651 -1.767 -1.867 53
3.559 -1.432 -1.878 8
3.7460001 -1.4859999 -1.869 8
3.9719999 -1.556 -1.872 8
4.217 -1.632 -1.876 20
4.4580002 -1.707 -1.87 70
4.7270002 -1.793 -1.867 39
3.6070001 -1.446 -1.876 7
3.803 -1.5039999 -1.87 8
4.0359998 -1.577 -1.874 8
4.276 -1.651 -1.873 72
4.5240002 -1.728 -1.867 75
4.8049998 -1.818 -1.8660001 33
3.658 -1.462 -1.874 8
3.8559999 -1.52 -1.867 7
4.0949998 -1.595 -1.872 8
4.3390002 -1.671 -1.87 65
4.6009998 -1.753 -1.868 78
4.8940001 -1.847 -1.869 40
3.7060001 -1.476 -1.8710001 8
3.9230001 -1.541 -1.87 8
4.1739998 -1.62 -1.878 11
4.4120002 -1.693 -1.872 66
4.6729999 -1.776 -1.8660001 67
4.974 -1.872 -1.8660001 48
3.766 -1.494 -1.872 8
3.9949999 -1.564 -1.875 8
4.2329998 -1.637 -1.874 51
4.4809999 -1.714 -1.869 79
4.7589998 -1.802 -1.867 53
5.0669999 -1.901 -1.867 49
3.8210001 -1.5089999 -1.869 8
4.053 -1.58 -1.872 8
4.2979999 -1.656 -1.872 87
4.5580001 -1.737 -1.869 73
4.8410001 -1.826 -1.867 56
5.1290002 -1.9170001 -1.8559999 20
3.8859999 -1.527 -1.8710001 8
4.1199999 -1.599 -1.872 8
4.368 -1.675 -1.87 70
4.6269999 -1.756 -1.865 82
4.934 -1.854 -1.868 71
5.2470002 -1.954 -1.863 9
3.951 -1.545 -1.8710001 8
4.2059999 -1.624 -1.8789999 14
4.4450002 -1.697 -1.8710001 86
4.724 -1.785 -1.87 78
5.0209999 -1.8789999 -1.8660001 58
5.3540001 -1.9859999 -1.865 8
4.0139999 -1.561 -1.869 8
4.2589998 -1.637 -1.87 61
4.5159998 -1.716 -1.867 81
4.8010001 -1.8049999 -1.8660001 59
5.1090002 -1.903 -1.864 51
5.4499998 -2.0120001 -1.8609999 10
4.085 -1.58 -1.87 8
4.3319998 -1.656 -1.869 75
4.5999999 -1.738 -1.868 85
4.8940001 -1.831 -1.867 73
5.1729999 -1.9170001 -1.851 16
5.5619998 -2.0439999 -1.8609999 9
4.1700001 -1.603 -1.875 8
4.4120002 -1.676 -1.87 70
4.6810002 -1.7589999 -1.8660001 75
4.9949999 -1.858 -1.869 80
5.3150001 -1.959 -1.864 8
5.6900001 -2.0799999 -1.865 10
4.2579999 -1.627 -1.881 15
4.4889998 -1.6950001 -1.868 71
4.7709999 -1.783 -1.8660001 72
5.0879998 -1.882 -1.867 70
5.4320002 -1.9910001 -1.867 9
5.8099999 -2.112 -1.864 9
4.309 -1.636 -1.87 35
4.5650001 -1.7130001 -1.864 89
4.8670001 -1.807 -1.867 71
5.1729999 -1.902 -1.8609999 42
5.5469999 -2.0209999 -1.8660001 9
5.9289999 -2.1429999 -1.8609999 10
4.3889999 -1.655 -1.869 29
4.658 -1.7359999 -1.8660001 95
4.9660001 -1.832 -1.868 96
5.2750001 -1.927 -1.859 11
5.6620002 -2.05 -1.865 9
6.0650001 -2.178 -1.862 9
4.4710002 -1.674 -1.869 23
4.7449999 -1.756 -1.865 63
5.0599999 -1.854 -1.8660001 100
5.415 -1.965 -1.87 9
5.7919998 -2.0840001 -1.867 10
6.1929998 -2.21 -1.859 10
4.559 -1.694 -1.87 22
4.842 -1.779 -1.8660001 60
5.1690001 -1.88 -1.868 89
5.5209999 -1.989 -1.8660001 10
5.9120002 -2.112 -1.865 10
6.3330002 -2.2449999 -1.857 10
4.6459999 -1.7130001 -1.869 21
4.9419999 -1.802 -1.867 76
5.2449999 -1.8940001 -1.857 28
5.6430001 -2.0190001 -1.867 9
6.0489998 -2.145 -1.865 9
6.48 -2.28 -1.8559999 10
4.73 -1.729 -1.8660001 20
5.0430002 -1.824 -1.867 83
5.381 -1.927 -1.865 11
5.7750001 -2.05 -1.869 9
6.1890001 -2.178 -1.865 9
6.6830001 -2.3340001 -1.868 9
4.8280001 -1.75 -1.867 20
5.145 -1.846 -1.865 76
5.5089998 -1.957 -1.869 9
5.895 -2.075 -1.8660001 10
6.3169999 -2.2060001 -1.859 10
6.822 -2.3640001 -1.86 10
4.9299998 -1.771 -1.868 22
5.2480001 -1.8660001 -1.863 70
5.6290002 -1.983 -1.869 9
6.0289998 -2.105 -1.865 10
6.4790001 -2.244 -1.862 10
6.9949999 -2.404 -1.86 10
5.0370002 -1.794 -1.869 22
5.3429999 -1.883 -1.857 34
5.743 -2.0050001 -1.864 9
6.1729999 -2.1359999 -1.8660001 10
6.6350002 -2.2780001 -1.8609999 10
7.1950002 -2.4519999 -1.864 10
5.1350002 -1.812 -1.8660001 23
5.4920001 -1.918 -1.868 10
5.875 -2.033 -1.864 10
6.3150001 -2.1659999 -1.864 10
6.8299999 -2.3239999 -1.868 9
7.3829999 -2.494 -1.862 9
5.243 -1.831 -1.865 23
5.6069999 -1.939 -1.865 9
6.0180001 -2.062 -1.8660001 10
6.4699998 -2.198 -1.863 10
6.994 -2.358 -1.864 10
7.585 -2.539 -1.862 10
5.3579998 -1.853 -1.865 23
5.73 -1.962 -1.863 10
6.1550002 -2.0880001 -1.864 10
6.625 -2.2290001 -1.8609999 10
7.191 -2.401 -1.867 10
7.8039999 -2.5869999 -1.863 10
5.4499998 -1.865 -1.8559999 20
5.8610001 -1.9859999 -1.863 10
6.2930002 -2.1140001 -1.8609999 9
6.803 -2.2650001 -1.864 9
7.3720002 -2.4360001 -1.863 10
8.0170002 -2.631 -1.86 10
5.585 -1.89 -1.86 11
5.9899998 -2.0079999 -1.86 10
6.4510002 -2.1440001 -1.8609999 10
6.9970002 -2.306 -1.868 10
7.5609999 -2.473 -1.86 9
8.2550001 -2.681 -1.8609999 10
5.7360001 -1.92 -1.867 9
6.1350002 -2.0350001 -1.8609999 9
6.6040001 -2.171 -1.859 10
7.1659999 -2.336 -1.864 10
7.7880001 -2.52 -1.864 10
8.5010004 -2.7309999 -1.86 10
5.8670001 -1.941 -1.867 10
6.2779999 -2.0580001 -1.859 10
6.7870002 -2.2060001 -1.863 10
7.3660002 -2.375 -1.8660001 10
7.9980001 -2.559 -1.8609999 10
8.7779999 -2.79 -1.863 10
6.0029998 -1.9630001 -1.8660001 11
6.427 -2.082 -1.857 10
6.9829998 -2.243 -1.868 10
7.5430002 -2.4030001 -1.859 10
8.2379999 -2.6059999 -1.8609999 10
9.0579996 -2.845 -1.863 10
6.1409998 -1.984 -1.864 10
6.5809999 -2.1059999 -1.854 10
7.1599998 -2.2720001 -1.865 9
7.7659998 -2.444 -1.8609999 10
8.4899998 -2.6530001 -1.8609999 10
9.3559999 -2.904 -1.863 10
6.2849998 -2.0039999 -1.862 9
6.7930002 -2.1470001 -1.8660001 9
7.3509998 -2.3039999 -1.864 10
7.9879999 -2.483 -1.86 10
8.757 -2.7030001 -1.862 10
9.677 -2.967 -1.865 9
6.4320002 -2.0250001 -1.86 9
6.9520001 -2.168 -1.8609999 9
7.5450001 -2.3340001 -1.862 10
8.2189999 -2.5220001 -1.86 10
9.0410004 -2.7550001 -1.864 10
9.9989996 -3.027 -1.863 9
6.5840001 -2.0439999 -1.8559999 10
7.1469998 -2.2 -1.864 10
7.7529998 -2.3670001 -1.8609999 11
8.4700003 -2.5650001 -1.8609999 11
9.335 -2.8069999 -1.864 10
10.357 -3.0929999 -1.864 10
6.7589998 -2.0699999 -1.858 10
7.3439999 -2.2290001 -1.865 10
7.974 -2.401 -1.8609999 10
8.7279997 -2.6070001 -1.86 10
9.6420002 -2.8599999 -1.863 10
10.721 -3.158 -1.862 9
6.9640002 -2.102 -1.8660001 9
7.5250001 -2.2520001 -1.86 10
8.2119999 -2.437 -1.862 11
9.0089998 -2.6530001 -1.862 11
9.9709997 -2.9159999 -1.863 9
11.111 -3.2279999 -1.86 9
7.1469998 -2.1259999 -1.8660001 9
7.7350001 -2.28 -1.86 10
8.4490004 -2.471 -1.86 11
9.3059998 -2.701 -1.863 10
10.317 -2.973 -1.864 10
11.541 -3.3039999 -1.862 9
7.335 -2.148 -1.865 10
7.9499998 -2.3080001 -1.859 11
8.7060003 -2.5079999 -1.86 10
9.6070004 -2.7460001 -1.863 11
10.677 -3.0309999 -1.863 9
11.985 -3.3800001 -1.86 9
7.52 -2.168 -1.862 10
8.1759996 -2.3369999 -1.858 11
8.9720001 -2.5439999 -1.86 10
9.915 -2.7909999 -1.8609999 10
11.05 -3.0880001 -1.86 10
12.463 -3.461 -1.86 9
7.7350001 -2.1949999 -1.864 11
8.4160004 -2.368 -1.859 11
9.2589998 -2.5840001 -1.862 11
10.256 -2.8410001 -1.862 10
11.47 -3.155 -1.862 10
12.961 -3.5420001 -1.858 9
7.9429998 -2.217 -1.863 11
8.6590004 -2.3959999 -1.858 12
9.5509996 -2.622 -1.8609999 11
10.604 -2.8889999 -1.86 10
11.9 -3.2190001 -1.86 10
13.533 -3.6370001 -1.86 9
8.1569996 -2.237 -1.86 11
8.9320002 -2.4289999 -1.859 11
9.868 -2.6630001 -1.862 11
10.979 -2.9389999 -1.859 10
12.375 -3.29 -1.86 9
14.126 -3.7320001 -1.859 9
8.4040003 -2.2650001 -1.863 11
9.2119999 -2.461 -1.86 11
10.193 -2.701 -1.86 12
11.377 -2.993 -1.858 10
12.864 -3.3610001 -1.858 9
14.783 -3.8369999 -1.86 8
8.6420002 -2.2869999 -1.8609999 12
9.4969997 -2.4909999 -1.859 11
10.542 -2.743 -1.8609999 10
11.809 -3.05 -1.859 9
13.415 -3.4400001 -1.86 9
15.467 -3.941 -1.857 9
8.8999996 -2.3099999 -1.8609999 12
9.8009996 -2.5220001 -1.859 11
10.91 -2.7850001 -1.86 11
12.265 -3.108 -1.859 9
13.969 -3.5150001 -1.857 10
16.216999 -4.0539999 -1.8559999 10
9.1660004 -2.3329999 -1.86 11
10.12 -2.5539999 -1.859 11
11.289 -2.8269999 -1.859 10
12.733 -3.164 -1.857 10
14.613 -3.605 -1.86 8
17.032 -4.1750002 -1.8559999 11
9.4580002 -2.359 -1.863 11
10.449 -2.5840001 -1.858 12
11.693 -2.869 -1.857 9
13.248 -3.2260001 -1.857 10
15.279 -3.6930001 -1.859 9
17.958 -4.3130002 -1.858 12
9.7449999 -2.3800001 -1.8609999 11
10.797 -2.615 -1.857 11
12.115 -2.911 -1.8559999 10
13.757 -3.28 -1.852 10
15.966 -3.78 -1.8559999 10
19.024 -4.4749999 -1.8660001 14
10.061 -2.405 -1.862 11
11.151 -2.6429999 -1.854 11
12.577 -2.957 -1.8559999 10
14.377 -3.355 -1.8559999 9
16.732 -3.8759999 -1.855 11
20.212 -4.651 -1.874 15
10.367 -2.424 -1.859 11
11.543 -2.6760001 -1.853 11
13.066 -3.0039999 -1.8559999 11
14.971 -3.4159999 -1.852 8
17.6 -3.9860001 -1.857 12
21.475 -4.8309999 -1.878 15
10.694 -2.4430001 -1.857 11
11.959 -2.7090001 -1.854 10
13.561 -3.0469999 -1.852 10
15.66 -3.4920001 -1.854 9
18.552 -4.1059999 -1.8609999 13
22.761 -5.0040002 -1.875 9
11.057 -2.4660001 -1.859 11
12.376 -2.737 -1.851 11
14.124 -3.098 -1.854 10
16.402 -3.5699999 -1.855 10
19.636999 -4.2420001 -1.868 14
24.472 -5.2509999 -1.892 9
11.422 -2.4849999 -1.857 11
12.82 -2.7650001 -1.849 10
14.717 -3.148 -1.854 10
17.177999 -3.6459999 -1.854 11
20.839001 -4.3909998 -1.877 16
26.014999 -5.4429998 -1.882 10
11.806 -2.5039999 -1.8559999 12
13.309 -2.799 -1.849 11
15.347 -3.201 -1.855 9
18.042 -3.733 -1.857 12
22.013 -4.5209999 -1.874 13
27.621 -5.631 -1.864 7
12.202 -2.5209999 -1.855 11
13.808 -2.8280001 -1.849 11
16.011 -3.2520001 -1.855 9
18.986 -3.825 -1.8609999 13
23.475 -4.6929998 -1.885 9
30.066999 -5.9689999 -1.887 8
12.631 -2.54 -1.855 11
14.326 -2.855 -1.846 11
16.704 -3.3010001 -1.853 10
20.044001 -3.9289999 -1.868 15
25.063 -4.875 -1.8940001 10
30.938999 -5.9720001 -1.796 22
13.07 -2.5539999 -1.854 11
14.92 -2.8900001 -1.849 10
17.466999 -3.3540001 -1.853 11
21.167999 -4.0310001 -1.872 16
26.440001 -4.9959998 -1.874 8
31.226 -5.8559999 -1.669 51
13.52 -2.566 -1.851 11
15.506 -2.9159999 -1.847 9
18.297001 -3.411 -1.855 13
22.354 -4.132 -1.873 14
28.003 -5.1360002 -1.858 6
31.198999 -5.678 -1.528 61
14.009 -2.5780001 -1.851 11
16.167999 -2.948 -1.848 10
19.219 -3.473 -1.859 14
23.801001 -4.2649999 -1.885 10
30.107 -5.3509998 -1.8609999 7
26.780001 -4.723 -1.193 34
14.542 -2.5929999 -1.852 11
16.844999 -2.9749999 -1.848 10
20.271 -3.546 -1.867 15
25.163 -4.3639998 -1.88 11
26.763 -4.6030002 -1.536 24
26.695 -4.5549998 -1.073 13
15.08 -2.5999999 -1.85 8
17.59 -3.0039999 -1.849 11
21.297001 -3.6029999 -1.867 16
26.472 -4.4400001 -1.862 14
26.516001 -4.4089999 -1.408 72
32.098 -5.2950001 -1.156 42
15.696 -2.6140001 -1.855 9
18.378 -3.03 -1.85 12
22.516001 -3.678 -1.877 18
26.555 -4.2979999 -1.7539999 17
26.426001 -4.2399998 -1.2920001 47
33.192001 -5.283 -1.057 45
16.283001 -2.615 -1.852 10
19.245001 -3.0610001 -1.855 14
23.731001 -3.737 -1.876 14
26.372999 -4.1149998 -1.632 45
26.146999 -4.0419998 -1.171 71
35.061001 -5.375 -0.97500002 39
16.917999 -2.6159999 -1.851 10
20.193001 -3.0910001 -1.8609999 15
25.162001 -3.813 -1.885 12
26.169001 -3.928 -1.513 58
26.288 -3.9100001 -1.073 35
38.319 -5.6500001 -0.91500002 9
17.601 -2.6159999 -1.852 11
21.158001 -3.1110001 -1.862 16
26.048 -3.79 -1.845 24
25.926001 -3.7360001 -1.395 70
27.073999 -3.865 -0.99800003 11
0 0 0 0
18.365999 -2.618 -1.857 12
22.253 -3.138 -1.868 17
26.011999 -3.6289999 -1.74 40
25.712 -3.55 -1.283 66
32.219002 -4.4050002 -1.0650001 38
46.685001 -6.3210001 -0.75599998 31
19.146999 -2.6110001 -1.858 14
23.327 -3.1459999 -1.8660001 19
25.889999 -3.454 -1.632 61
25.688 -3.391 -1.1849999 68
33.626999 -4.3940001 -0.98500001 40
33.764 -4.3670001 -0.42300001 1
20.021999 -2.6059999 -1.865 15
24.483999 -3.1500001 -1.865 11
25.601999 -3.257 -1.517 63
25.933001 -3.2639999 -1.1 71
33.439999 -4.165 -0.85799998 41
0 0 0 0
20.886999 -2.5899999 -1.867 16
25.462999 -3.118 -1.845 15
25.313 -3.0650001 -1.408 89
26.882 -3.2179999 -1.045 30
33.396999 -3.954 -0.74000001 53
47.859001 -5.6069999 -0.264 36
21.837 -2.5710001 -1.872 17
25.402 -2.9549999 -1.75 45
25.254 -2.902 -1.316 85
27.596001 -3.1329999 -0.977 6
33.443001 -3.753 -0.62699997 68
48.237 -5.3509998 -0.103 17
22.85 -2.546 -1.877 18
25.253 -2.7780001 -1.651 66
25.065001 -2.7219999 -1.219 72
33.646999 -3.609 -1.077 40
33.719002 -3.573 -0.51899999 31
71.190002 -7.4510002 0.079999998 32
23.729 -2.4920001 -1.8660001 10
25.072001 -2.599 -1.554 72
25.129 -2.5699999 -1.1390001 70
34.101002 -3.4430001 -0.98000002 44
34.438 -3.4330001 -0.41999999 27
71.373001 -7.026 0.30500001 11
24.759001 -2.4449999 -1.865 12
24.870001 -2.421 -1.46 75
25.816 -2.4760001 -1.087 66
34.058998 -3.2219999 -0.87 68
34.387001 -3.2090001 -0.31200001 39
83.762001 -7.717 0.61400002 20
24.952999 -2.3039999 -1.799 31
24.698999 -2.2460001 -1.372 84
27.047001 -2.4230001 -1.0549999 31
33.902 -2.994 -0.764 71
34.370998 -2.9920001 -0.20999999 12
67.545998 -5.8000002 0.69300002 7
24.768999 -2.128 -1.709 59
24.566999 -2.076 -1.289 76
28.004 -2.329 -1.008 29
33.881001 -2.7739999 -0.66299999 73
97.754997 -7.8850002 -0.31400001 9
83.355003 -6.625 1.0930001 22
24.684999 -1.961 -1.6289999 63
24.540001 -1.916 -1.216 82
28.533001 -2.1900001 -0.94499999 2
33.997002 -2.5669999 -0.56999999 68
97.987999 -7.2690001 -0.039000001 12
0 0 0 0
24.542 -1.789 -1.549 68
24.457001 -1.75 -1.142 77
34.304001 -2.4100001 -1.041 43
34.212002 -2.3599999 -0.479 59
93.084999 -6.3109999 0.20900001 19
128.522 -8.5579996 2.3789999 30
24.302 -1.6109999 -1.466 70
25.027 -1.627 -1.101 25
34.181999 -2.178 -0.94599998 62
34.459 -2.1530001 -0.39300001 11
70.728996 -4.3319998 0.34200001 15
69.790001 -4.1929998 1.469 10
24.179001 -1.444 -1.3940001 71
24.858999 -1.4529999 -1.028 2
34.645 -1.9809999 -0.87 3
83.162003 -4.651 -0.73900002 7
69.331001 -3.793 0.50700003 11
69.163002 -3.701 1.625 33
24.107 -1.279 -1.3279999 72
27.621 -1.4299999 -1.073 52
39.513 -1.997 -0.89499998 4
75.981003 -3.7490001 -0.49200001 57
86.139 -4.1459999 0.83399999 9
126.556 -5.9359999 3.27 12
23.958 -1.112 -1.262 76
27.896 -1.2589999 -1.017 28
40.320999 -1.77 -0.81900001 2
75.959999 -3.2460001 -0.317 65
0 0 0 0
127.442 -5.1469998 3.573 52
23.868 -0.949 -1.202 71
27.841 -1.072 -0.95200002 1
40.952 -1.529 -0.741 1
78.061996 -2.816 -0.155 42
115.685 -4.0359998 1.63 34
128.522 -4.3379998 3.875 31
24.006001 -0.79299998 -1.156 68
41.415001 -1.319 -1.3279999 3
69.436996 -2.128 -1.11 3
75.706001 -2.2290001 0.0049999999 15
127.52 -3.6040001 2.056 12
128.465 -3.48 4.132 40
24.143999 -0.634 -1.112 62
40.277 -1.01 -1.209 1
75.514 -1.806 -1.056 33
75.583 -1.7180001 0.154 10
128.061 -2.7609999 2.313 12
128.28999 -2.6170001 4.3699999 21
0 0 0 0
27.961 -0.51099998 -0.78500003 67
28.212999 -0.48199999 -0.34 35
71.088997 -1.1339999 0.278 39
71.087997 -1.048 1.415 44
71.452003 -0.97399998 2.563 12
0 0 0 0
27.715 -0.31799999 -0.727 74
27.884001 -0.28799999 -0.287 62
80.091003 -0.73199999 0.454 33
129.974 -1.038 2.8099999 12
70.550003 -0.48500001 2.6489999 8
27 -0.156 -1.0930001 61
27.656 -0.12899999 -0.67900002 57
27.66 -0.097999997 -0.23800001 68
114.027 -0.273 0.83099997 9
129.911 -0.156 3.017 12
130.032 -0.0080000004 5.0900002 22
27.280001 0.028999999 -1.0599999 45
27.357 0.059 -0.62800002 70
27.534 0.090999998 -0.19400001 66
28.282 0.126 0.249 1
133.89101 0.74400002 3.3080001 18
0 0 0 0
27.285 0.215 -1.02 58
27.208 0.244 -0.58499998 70
27.398001 0.27599999 -0.154 66
28.27 0.31799999 0.289 8
0 0 0 0
134.146 1.808 5.6279998 18
27.066 0.39899999 -0.97399998 74
27.094 0.43000001 -0.546 78
27.291 0.463 -0.117 76
27.947001 0.505 0.32100001 4
133.916 2.5710001 3.664 23
133.849 2.721 5.7820001 13
26.973 0.58399999 -0.93699998 71
27.032 0.616 -0.51099998 72
27.246 0.65100002 -0.083999999 62
28.214001 0.70499998 0.35800001 11
131.07001 3.424 3.74 12
136.91 3.73 6.072 19
26.910999 0.773 -0.903 78
26.933001 0.80299997 -0.47799999 81
27.216999 0.84100002 -0.054000001 77
27.993 0.89600003 0.38600001 2
131.06599 4.335 3.878 12
0 0 0 0
26.940001 0.96399999 -0.87599999 62
26.927999 0.99199998 -0.45100001 71
27.23 1.031 -0.027000001 74
28.326 1.103 0.41800001 0
131.548 5.2670002 4.0170002 23
133.11 5.4699998 6.164 35
26.895 1.149 -0.85000002 66
26.906 1.178 -0.42699999 69
27.289 1.224 -0.003 72
131.16701 6.0209999 2.0480001 12
133.349 6.2649999 4.1830001 18
132.448 6.368 6.2420001 13
27.014 1.345 -0.83200002 48
26.91 1.367 -0.40599999 76
27.304001 1.414 0.016000001 82
79.614998 4.2090001 1.301 4
132.66 7.1500001 4.256 33
90.292999 4.9650002 4.3179998 13
26.908001 1.529 -0.81099999 55
26.938999 1.558 -0.389 81
27.42 1.614 0.034000002 72
89.343002 5.3520002 1.516 10
79.617996 4.8540001 2.6029999 16
80.674004 5.0089998 3.9070001 11
26.879 1.7180001 -0.79500002 70
27.021999 1.7539999 -0.375 73
27.577 1.818 0.048999999 72
89.609001 6 1.566 36
79.582001 5.4120002 2.641 4
85.733002 5.9180002 4.1919999 9
27.028999 1.92 -0.787 64
27.145 1.955 -0.36500001 79
27.764999 2.026 0.061000001 67
47.728001 3.533 0.85299999 4
94.342003 7.0770001 3.1670001 11
79.427002 6.039 3.914 11
27.195999 2.1240001 -0.78399998 54
27.285999 2.158 -0.359 81
28.046 2.2449999 0.07 23
47.665001 3.8640001 0.866 15
112.948 9.2659998 3.823 31
113.1 9.3970003 5.6030002 26
27.422001 2.339 -0.78500003 55
27.570999 2.3759999 -0.35800001 63
36.280998 3.1589999 0.096000001 47
37.215 3.277 0.68199998 32
0 0 0 0
112.669 10.158 5.599 27
27.802 2.5680001 -0.79299998 46
28.136999 2.6240001 -0.36300001 29
35.722 3.365 0.097000003 51
36.240002 3.447 0.66600001 47
112.843 10.847 3.842 20
80.024002 7.7709999 3.9790001 11
29.055 2.8889999 -0.82999998 2
35.424999 3.552 -0.458 45
35.335999 3.576 0.093999997 58
35.643002 3.641 0.653 51
37.069 3.8210001 1.2589999 49
116.074 12.08 5.7639999 42
28.983 3.086 -0.83200002 2
35.103001 3.77 -0.45899999 59
35.005001 3.7909999 0.088 55
35.344002 3.859 0.64200002 49
36.053001 3.971 1.219 47
0 0 0 0
28.877001 3.2809999 -0.83700001 3
34.910999 3.9979999 -0.46599999 49
34.794998 4.0159998 0.078000002 55
35.007999 4.072 0.62599999 58
35.584999 4.1729999 1.193 45
36.958 4.3709998 1.818 2
26.393 3.1889999 -0.77499998 44
26.341999 3.2049999 -0.36199999 54
26.667999 3.267 0.048999999 3
34.773998 4.2919998 0.60799998 60
23.466 2.9170001 0.778 0
36.610001 4.5869999 1.786 39
26.035 3.3329999 -0.778 42
26.264 3.382 -0.37400001 34
26.341999 3.415 0.035 42
23.403999 3.0539999 0.39700001 13
23.363001 3.0699999 0.76200002 68
23.327999 3.0880001 1.126 13
25.764 3.483 -0.78500003 59
25.823 3.5109999 -0.384 48
26.129 3.5739999 0.018999999 37
23.261999 3.201 0.38100001 47
23.216 3.2149999 0.74299997 67
23.191 3.234 1.105 37
23.322001 3.3199999 -0.72799999 4
25.815001 3.694 -0.403 37
25.874001 3.723 0 47
23.122 3.3469999 0.361 15
23.094 3.3640001 0.722 89
23.058001 3.3789999 1.082 11
25.535 3.819 -0.81900001 58
25.589001 3.846 -0.421 47
25.728001 3.885 -0.021 36
26.153999 3.9719999 0.38600001 51
22.954 3.5050001 0.69800001 2
35.125 5.3979998 1.619 41
25.462999 3.993 -0.84200001 41
25.386 3.9979999 -0.44299999 58
25.532 4.039 -0.046 48
25.982 4.131 0.359 42
34.255001 5.4759998 1.01 56
34.933998 5.618 1.577 45
25.306 4.151 -0.86400002 52
25.274 4.1630001 -0.46799999 57
25.471001 4.2140002 -0.072999999 50
25.889 4.302 0.33000001 41
26.577 4.4380002 0.755 9
34.769001 5.8369999 1.533 50
25.216999 4.3179998 -0.89200002 49
25.278999 4.3449998 -0.498 47
25.372 4.3790002 -0.103 52
25.722 4.4590001 0.29699999 41
26.284 4.5770001 0.71600002 19
34.562 6.0489998 1.483 46
25.194 4.4959998 -0.92500001 51
25.158001 4.5040002 -0.52899998 67
25.274 4.5419998 -0.13600001 53
25.653999 4.6279998 0.264 34
26.190001 4.7480001 0.68000001 37
34.355999 6.2579999 1.431 58
24.996 4.6420002 -0.954 59
25.082001 4.6719999 -0.56400001 57
25.261999 4.7210002 -0.17200001 49
25.497999 4.783 0.226 51
26.129 4.921 0.64200002 38
34.261002 6.4829998 1.38 50
24.749001 4.7740002 -0.98299998 58
25.127001 4.8600001 -0.60299999 50
25.315001 4.9120002 -0.20999999 40
25.487 4.9619999 0.18799999 46
26.080999 5.0970001 0.602 39
34.151001 6.7010002 1.325 57
0 0 0 0
25.114 5.0380001 -0.64499998 65
25.138 5.0570002 -0.25 53
25.433001 5.1329999 0.146 40
25.961 5.2589998 0.55699998 44
34.051998 6.9239998 1.267 54
22.114 4.5840001 -0.95499998 6
25.120001 5.2179999 -0.68900001 59
25.235001 5.256 -0.29499999 34
25.34 5.2930002 0.102 47
25.931 5.434 0.51200002 44
33.972 7.1459999 1.206 63
22.219999 4.7659998 -1.002 27
25.165001 5.408 -0.73699999 44
25.290001 5.448 -0.34200001 42
25.341 5.474 0.055 54
25.837 5.599 0.463 40
33.932999 7.3790002 1.143 59
22.086 4.895 -1.04 58
25.157 5.5869999 -0.78799999 45
25.216999 5.612 -0.391 50
25.395 5.665 0.0060000001 49
25.856001 5.7859998 0.414 42
33.890999 7.6069999 1.0779999 60
21.952 5.0229998 -1.081 55
25.273001 5.7930002 -0.84500003 40
25.198999 5.7859998 -0.44299999 57
25.389 5.8429999 -0.045000002 42
25.874001 5.9710002 0.361 39
33.875999 7.842 1.008 37
21.871 5.1630001 -1.126 62
25.329 5.9860001 -0.90200001 35
25.299999 5.9899998 -0.50099999 49
25.365 6.0180001 -0.101 53
26.003 6.1849999 0.30700001 35
33.911999 8.0889997 0.93800002 40
21.837999 5.3109999 -1.176 63
25.014999 6.0910001 -0.94999999 33
25.268999 6.1609998 -0.55800003 56
25.52 6.2329998 -0.15899999 37
26.112 6.3930001 0.25 43
33.855999 8.309 0.861 52
21.849001 5.4689999 -1.23 55
24.280001 6.0830002 -0.98000002 27
25.429001 6.3790002 -0.62199998 42
25.642 6.4439998 -0.22 34
26.343 6.6329999 0.191 14
33.880001 8.552 0.78399998 51
21.827999 5.618 -1.285 67
0 0 0 0
25.650999 6.6149998 -0.69199997 36
25.809 6.665 -0.285 35
26.266001 6.7950001 0.127 0
33.987 8.8129997 0.704 40
21.857 5.7800002 -1.345 55
21.98 5.8150001 -1.001 35
25.990999 6.8850002 -0.76800001 41
26.202999 6.9510002 -0.35699999 16
33.952999 9.0240002 0.075999998 43
34.007 9.0570002 0.61799997 58
21.891001 5.9460001 -1.409 55
21.879 5.9450002 -1.057 60
28.094999 7.6399999 -0.90799999 23
34.103001 9.2860003 -0.55599999 44
34.061001 9.2889996 -0.012 44
34.139999 9.3290005 0.53100002 48
21.882999 6.099 -1.471 54
21.903999 6.1059999 -1.1210001 56
28.106001 7.8390002 -0.98699999 29
34.460999 9.6239996 -0.66000003 45
34.202999 9.5640001 -0.107 51
34.268002 9.6000004 0.43900001 54
21.92 6.2659998 -1.541 56
21.806 6.2340002 -1.181 61
24.249001 6.9359999 -0.92400002 12
34.758999 9.9490004 -0.76599997 46
34.556999 9.9040003 -0.207 43
34.522999 9.9110003 0.34400001 44
21.974001 6.4359999 -1.613 49
21.851999 6.4000001 -1.252 57
0 0 0 0
35.247002 10.334 -0.88200003 30
34.879002 10.237 -0.31200001 41
34.959 10.276 0.24600001 39
21.919001 6.5749998 -1.681 19
21.846001 6.5510001 -1.321 58
22.349001 6.7030001 -0.99000001 70
27.105 8.1339998 -0.76300001 28
27.156 8.1590004 -0.32699999 39
35.577999 10.703 0.142 40
21.726 6.671 -1.739 15
21.799999 6.691 -1.39 63
21.83 6.6999998 -1.038 57
26.737 8.2089996 -0.83899999 28
26.867001 8.2559996 -0.40900001 29
26.990999 8.3030005 0.023 41
21.205999 6.6609998 -1.771 18
22.077 6.9310002 -1.483 46
21.791 6.8390002 -1.109 56
26.466999 8.3079996 -0.91799998 28
26.278999 8.2550001 -0.486 44
26.431 8.3129997 -0.061999999 44
20.275999 6.5120001 -1.766 16
21.941 7.0409999 -1.552 50
21.801001 6.993 -1.1849999 55
0 0 0 0
26.124001 8.3839998 -0.56999999 39
26.136 8.3950005 -0.148 42
19.443001 6.3779998 -1.7640001 15
21.895 7.1760001 -1.627 34
21.986 7.2020001 -1.274 43
0 0 0 0
25.954 8.5039997 -0.65700001 34
25.976 8.5159998 -0.235 35
18.587 6.2270002 -1.756 14
21.809 7.2979999 -1.701 16
21.868 7.3130002 -1.346 57
21.978001 7.349 -0.99299997 46
25.841999 8.6409998 -0.745 40
25.813999 8.6359997 -0.324 40
17.785999 6.0809999 -1.749 13
21.322001 7.2800002 -1.743 18
21.855 7.4559999 -1.427 56
21.865 7.4559999 -1.067 53
25.733 8.7749996 -0.83499998 44
25.958 8.8549995 -0.41800001 28
17.042 5.9429998 -1.743 12
20.306999 7.072 -1.739 14
22.094 7.6859999 -1.526 42
21.868999 7.6040001 -1.15 47
25.462 8.8520002 -0.921 27
25.719999 8.9440002 -0.509 26
16.354 5.8150001 -1.739 11
19.413 6.8920002 -1.7410001 13
21.923 7.7740002 -1.602 38
21.767 7.7150002 -1.23 59
0 0 0 0
25.627001 9.0830002 -0.60500002 41
15.734 5.7030001 -1.739 10
18.518 6.7010002 -1.737 13
21.870001 7.9029999 -1.686 18
21.790001 7.8670001 -1.318 55
22.098 7.9749999 -0.97100002 27
25.778 9.3030005 -0.708 39
15.152 5.5939999 -1.74 9
17.672001 6.5139999 -1.7309999 12
21.385 7.8699999 -1.7359999 18
21.864 8.0380001 -1.411 50
21.833 8.0220003 -1.0470001 53
25.497 9.3669996 -0.80000001 48
14.565 5.4770002 -1.7359999 9
16.936001 6.355 -1.732 12
20.341999 7.6209998 -1.739 15
21.959 8.2189999 -1.5089999 37
21.839001 8.1669998 -1.136 47
25.372 9.4860001 -0.89999998 43
14.065 5.3839998 -1.739 11
16.171 6.1760001 -1.724 11
19.348 7.3759999 -1.737 14
21.937 8.3520002 -1.601 30
21.846001 8.3100004 -1.228 43
24.42 9.2869997 -0.96600002 36
13.547 5.276 -1.737 9
15.555 6.0440001 -1.728 10
18.4 7.1350002 -1.7309999 14
21.839001 8.4560003 -1.687 12
21.892 8.4680004 -1.324 45
22.091 8.54 -0.96700001 21
13.055 5.171 -1.735 10
14.917 5.8930001 -1.725 9
17.552 6.9200001 -1.7309999 13
21.294001 8.3830004 -1.739 19
21.884001 8.6049995 -1.419 42
21.874001 8.5950003 -1.051 45
12.619 5.0819998 -1.7359999 12
14.368 5.77 -1.729 8
16.719999 6.6999998 -1.725 12
20.034 8.0129995 -1.726 12
22.141001 8.8439999 -1.533 48
21.843 8.717 -1.1440001 55
12.209 4.9959998 -1.738 12
13.827 5.6420002 -1.729 9
16.009001 6.5180001 -1.726 11
19.024 7.73 -1.726 11
21.993999 8.9239998 -1.623 23
22.007999 8.9200001 -1.252 36
11.788 4.901 -1.737 13
13.301 5.513 -1.728 9
15.327 6.336 -1.725 10
18.056999 7.4499998 -1.723 13
21.743 8.9560003 -1.704 16
22.073 9.0810003 -1.355 40
11.421 4.823 -1.74 12
12.812 5.3930001 -1.727 11
14.694 6.1680002 -1.725 9
17.146 7.1799998 -1.716 12
20.694 8.6499996 -1.716 12
21.992001 9.1809998 -1.45 43
11.046 4.7340002 -1.738 13
12.379 5.2880001 -1.73 11
14.136 6.02 -1.728 9
16.42 6.9759998 -1.723 11
19.569 8.2980003 -1.716 8
22.18 9.3929996 -1.567 32
10.705 4.6560001 -1.74 12
11.956 5.1810002 -1.7309999 11
13.595 5.8740001 -1.729 9
15.695 6.7639999 -1.723 10
18.556999 7.9809999 -1.717 11
21.983999 9.4399996 -1.656 18
10.381 4.5799999 -1.7410001 11
11.539 5.073 -1.73 11
13.062 5.724 -1.728 10
15.007 6.559 -1.722 9
17.649 7.6960001 -1.719 13
21.341999 9.2910004 -1.711 19
10.074 4.5079999 -1.743 12
11.166 4.9780002 -1.732 13
12.585 5.5910001 -1.729 10
14.375 6.368 -1.722 9
16.764 7.408 -1.715 12
20.135 8.8809996 -1.712 11
9.7690001 4.4320002 -1.744 12
10.812 4.8850002 -1.734 12
12.127 5.46 -1.728 11
13.793 6.191 -1.722 8
15.97 7.1500001 -1.7130001 11
19.011 8.4940004 -1.71 11
9.4849997 4.3610001 -1.745 11
10.456 4.7870002 -1.733 13
11.698 5.336 -1.729 12
13.239 6.0190001 -1.721 10
15.231 6.9060001 -1.712 10
18 8.1440001 -1.709 12
9.2089996 4.29 -1.745 11
10.134 4.7010002 -1.735 13
11.296 5.2189999 -1.729 12
12.765 5.8769999 -1.726 10
14.584 6.6960001 -1.714 9
17.072001 7.8200002 -1.707 12
8.96 4.2280002 -1.748 11
9.8240004 4.6139998 -1.7359999 12
10.923 5.1100001 -1.732 11
12.288 5.7280002 -1.727 11
14.013 6.513 -1.721 9
16.235001 7.526 -1.707 11
8.7049999 4.1589999 -1.748 11
9.5270004 4.5300002 -1.737 12
10.56 5 -1.732 12
11.833 5.5830002 -1.726 11
13.434 6.3179998 -1.72 8
15.453 7.2480001 -1.705 10
8.4610004 4.092 -1.747 11
9.2530003 4.4530001 -1.739 11
10.22 4.8969998 -1.732 13
11.419 5.4499998 -1.727 11
12.901 6.1360002 -1.72 10
14.782 7.0110002 -1.709 9
8.2370005 4.0310001 -1.749 11
8.9779997 4.3720002 -1.738 11
9.9189997 4.8070002 -1.7359999 13
11.022 5.3200002 -1.728 11
12.443 5.9850001 -1.725 10
14.19 6.8049998 -1.714 9
8.0279999 3.9749999 -1.752 11
8.7279997 4.2979999 -1.739 11
9.6190004 4.7140002 -1.738 12
10.668 5.2059999 -1.7309999 12
11.969 5.8189998 -1.725 10
13.594 6.5879998 -1.714 8
7.823 3.9159999 -1.753 11
8.4890003 4.2259998 -1.7410001 12
9.3319998 4.6230001 -1.738 12
10.308 5.085 -1.73 11
11.539 5.6700001 -1.725 10
13.05 6.3909998 -1.715 10
7.6230001 3.859 -1.7539999 11
8.2650003 4.1599998 -1.743 12
9.0489998 4.5310001 -1.738 11
9.9910002 4.98 -1.733 12
11.131 5.526 -1.725 11
12.567 6.217 -1.72 10
7.434 3.8039999 -1.755 11
8.0539999 4.0960002 -1.7460001 11
8.7939997 4.448 -1.739 11
9.6789999 4.8730001 -1.733 13
10.751 5.3899999 -1.726 11
12.099 6.0430002 -1.722 11
7.2529998 3.75 -1.756 11
7.8410001 4.0289998 -1.7460001 11
8.5439997 4.3660002 -1.739 11
9.3959999 4.777 -1.735 12
10.416 5.2719998 -1.73 11
11.623 5.8610001 -1.7180001 11
7.0819998 3.698 -1.758 10
7.6389999 3.9630001 -1.7460001 11
8.3109999 4.2870002 -1.74 12
9.118 4.6789999 -1.7359999 11
10.081 5.1500001 -1.7309999 11
11.246 5.7220001 -1.723 11
6.9159999 3.6470001 -1.7589999 10
7.448 3.901 -1.747 10
8.1000004 4.2179999 -1.743 12
8.8629999 4.5900002 -1.738 11
9.7670002 5.0349998 -1.732 12
10.855 5.573 -1.724 11
6.7729998 3.605 -1.7640001 10
7.2690001 3.8429999 -1.749 11
7.8889999 4.145 -1.744 12
8.6099997 4.4990001 -1.738 10
9.4589996 4.9190001 -1.73 12
10.503 5.4380002 -1.725 11
6.618 3.5550001 -1.7640001 10
7.1100001 3.793 -1.753 11
7.6989999 4.0809999 -1.747 11
8.3719997 4.4120002 -1.738 11
9.2030001 4.8249998 -1.735 11
10.17 5.3080001 -1.727 11
6.4640002 3.503 -1.7640001 9
6.9530001 3.7409999 -1.756 11
7.5009999 4.0089998 -1.7460001 11
8.1569996 4.335 -1.7410001 11
8.9239998 4.717 -1.734 11
9.8529997 5.184 -1.729 10
6.2919998 3.4389999 -1.756 11
6.7940001 3.6860001 -1.757 11
7.322 3.9460001 -1.749 11
7.9499998 4.2579999 -1.743 12
8.6800003 4.6230001 -1.7359999 11
9.5570002 5.066 -1.73 12
6.1469998 3.3870001 -1.753 11
6.6090002 3.615 -1.75 11
7.151 3.8840001 -1.75 11
7.7509999 4.184 -1.744 11
8.4469995 4.533 -1.737 11
9.2720003 4.9510002 -1.73 11
6.0279999 3.349 -1.757 9
6.4689999 3.5650001 -1.752 11
7 3.8299999 -1.7539999 11
7.553 4.1059999 -1.743 11
8.2119999 4.4380002 -1.735 12
9.0139999 4.8470001 -1.732 10
5.9099998 3.309 -1.76 11
6.3169999 3.5079999 -1.75 11
6.809 3.753 -1.747 12
7.3649998 4.033 -1.743 11
8.0129995 4.3610001 -1.739 11
8.7650003 4.7449999 -1.734 11
5.7470002 3.2409999 -1.747 20
6.1890001 3.461 -1.752 12
6.671 3.7030001 -1.752 11
7.198 3.9679999 -1.745 11
7.8130002 4.2800002 -1.7410001 11
8.5240002 4.6430001 -1.734 11
5.664 3.217 -1.757 24
6.0619998 3.414 -1.753 10
6.5250001 3.6459999 -1.752 12
7.0320001 3.901 -1.7460001 10
7.6199999 4.1999998 -1.7410001 11
8.2969999 4.5469999 -1.734 11
5.5580001 3.178 -1.7589999 23
5.934 3.3629999 -1.752 11
6.414 3.6059999 -1.761 10
6.895 3.848 -1.752 11
7.4439998 4.1279998 -1.743 11
8.0900002 4.4590001 -1.7359999 12
5.4460001 3.1340001 -1.758 23
5.7940001 3.3050001 -1.7460001 21
6.2449999 3.5320001 -1.751 12
6.7470002 3.7880001 -1.7539999 10
7.2670002 4.052 -1.743 11
7.8930001 4.375 -1.738 11
5.355 3.0999999 -1.762 23
5.6830001 3.26 -1.747 33
6.119 3.4809999 -1.752 12
6.5770001 3.7130001 -1.747 11
7.105 3.9820001 -1.744 11
7.7080002 4.2940001 -1.739 12
5.2620001 3.0639999 -1.763 23
5.5939999 3.227 -1.753 40
5.9959998 3.4289999 -1.751 11
6.4619999 3.6659999 -1.753 12
6.9829998 3.9330001 -1.753 11
7.527 4.2129998 -1.74 11
5.1609998 3.0220001 -1.761 22
5.5040002 3.1919999 -1.758 35
5.881 3.3800001 -1.752 11
6.3239999 3.605 -1.752 11
6.8330002 3.8659999 -1.753 11
7.3590002 4.1360002 -1.742 11
5.0760002 2.987 -1.763 23
5.3979998 3.145 -1.756 45
5.7360001 3.312 -1.742 28
6.191 3.5450001 -1.75 12
6.698 3.8069999 -1.756 10
7.1960001 4.0609999 -1.742 10
4.9959998 2.954 -1.765 21
5.3080001 3.1070001 -1.758 48
5.6550002 3.279 -1.75 68
6.0819998 3.497 -1.753 11
6.5240002 3.7219999 -1.7460001 11
7.0570002 3.9979999 -1.7460001 11
4.9169998 2.9200001 -1.767 22
5.223 3.0699999 -1.76 38
5.566 3.2409999 -1.7539999 51
5.9580002 3.4389999 -1.75 11
6.4029999 3.6670001 -1.748 11
6.888 3.9159999 -1.7410001 11
4.842 2.8870001 -1.7690001 23
5.1329999 3.029 -1.7589999 40
5.4749999 3.2 -1.756 37
5.835 3.3789999 -1.747 12
6.2849998 3.6110001 -1.75 11
6.7600002 3.855 -1.744 11
4.7750001 2.858 -1.772 23
5.0539999 2.993 -1.761 53
5.3740001 3.151 -1.7539999 50
5.7119999 3.319 -1.7410001 32
6.1630001 3.5510001 -1.749 11
6.6199999 3.7850001 -1.743 10
4.7220001 2.8369999 -1.78 19
4.9790001 2.9579999 -1.763 51
5.2979999 3.1159999 -1.758 66
5.6440001 3.289 -1.751 67
6.0510001 3.4960001 -1.749 11
6.494 3.7219999 -1.743 12
4.6560001 2.806 -1.7819999 10
4.9089999 2.925 -1.766 47
5.2210002 3.0780001 -1.761 49
5.5630002 3.2490001 -1.755 45
5.9450002 3.4419999 -1.749 11
6.382 3.6659999 -1.7460001 12
4.5799999 2.767 -1.779 8
4.8379998 2.8889999 -1.767 39
5.1339998 3.0350001 -1.7589999 49
5.467 3.2 -1.753 34
5.829 3.381 -1.745 12
6.2670002 3.6059999 -1.7460001 11
4.5190001 2.737 -1.78 9
4.7729998 2.8570001 -1.7690001 56
5.0650001 2.9990001 -1.762 54
5.3839998 3.1570001 -1.755 39
5.7129998 3.319 -1.739 29
6.1599998 3.549 -1.747 11
4.4590001 2.7049999 -1.781 9
4.7259998 2.8340001 -1.776 24
4.9920001 2.961 -1.763 59
5.3099999 3.1170001 -1.757 50
5.6570001 3.29 -1.75 56
6.0510001 3.49 -1.745 11
4.402 2.675 -1.781 9
4.6690001 2.803 -1.779 10
4.927 2.925 -1.7640001 45
5.2399998 3.079 -1.76 36
5.5809999 3.2490001 -1.753 42
5.9580002 3.438 -1.7460001 11
4.3400002 2.6400001 -1.779 10
4.598 2.7639999 -1.775 8
4.8660002 2.891 -1.766 43
5.1690001 3.039 -1.761 37
5.493 3.1989999 -1.752 32
5.8779998 3.3929999 -1.75 11
4.303 2.6199999 -1.786 9
4.546 2.734 -1.778 9
4.8099999 2.8599999 -1.77 59
5.0970001 2.9979999 -1.761 47
5.4200001 3.1570001 -1.7539999 31
5.7529998 3.3199999 -1.739 22
4.243 2.585 -1.7819999 9
4.4990001 2.707 -1.781 10
4.777 2.8399999 -1.78 23
5.0370002 2.9630001 -1.763 52
5.3520002 3.1159999 -1.756 40
5.6830001 3.2780001 -1.743 29
4.2030001 2.5610001 -1.786 9
4.4450002 2.674 -1.781 10
4.7119999 2.8010001 -1.778 9
4.9780002 2.9260001 -1.765 34
5.2849998 3.075 -1.758 39
5.6230001 3.2409999 -1.75 30
4.1490002 2.5280001 -1.7819999 9
4.4000001 2.6459999 -1.783 10
4.6539998 2.7639999 -1.777 9
4.9180002 2.888 -1.766 38
5.224 3.0369999 -1.76 31
5.553 3.198 -1.752 28
4.1129999 2.5039999 -1.786 9
4.3460002 2.6110001 -1.781 9
4.6069999 2.734 -1.779 10
4.8769999 2.8610001 -1.772 38
5.1570001 2.994 -1.7589999 35
5.487 3.154 -1.7539999 27
4.0809999 2.4820001 -1.79 10
4.3039999 2.582 -1.783 10
4.559 2.701 -1.78 10
4.8369999 2.8329999 -1.778 16
5.1059999 2.9590001 -1.763 37
5.4169998 3.108 -1.7539999 28
4.0370002 2.451 -1.789 9
4.2610002 2.552 -1.783 9
4.5110002 2.668 -1.78 10
4.7740002 2.79 -1.774 9
5.059 2.925 -1.767 28
5.3649998 3.0710001 -1.758 28
4.0040002 2.4260001 -1.791 9
4.2249999 2.526 -1.785 10
4.467 2.6359999 -1.781 11
4.7259998 2.756 -1.775 10
4.9990001 2.8829999 -1.765 31
5.309 3.0309999 -1.7589999 28
3.9760001 2.404 -1.794 9
4.1849999 2.4949999 -1.785 10
4.4359999 2.6110001 -1.785 11
4.6869998 2.7249999 -1.778 10
4.9689999 2.8570001 -1.773 23
5.2589998 2.993 -1.762 28
3.9430001 2.378 -1.795 10
4.1469998 2.4660001 -1.784 9
4.395 2.579 -1.785 10
4.6370001 2.688 -1.776 10
4.9260001 2.823 -1.775 9
5.2140002 2.957 -1.765 26
3.9070001 2.349 -1.793 9
4.1199999 2.441 -1.7869999 10
4.355 2.546 -1.784 11
4.6059999 2.6600001 -1.78 10
4.881 2.7869999 -1.776 9
5.1669998 2.9189999 -1.767 25
3.882 2.325 -1.795 9
4.0949998 2.4170001 -1.791 10
4.3239999 2.5190001 -1.786 11
4.5650001 2.6259999 -1.779 10
4.8260002 2.744 -1.772 10
5.131 2.8859999 -1.771 25
3.855 2.3 -1.795 9
4.0640001 2.3900001 -1.79 11
4.2909999 2.4890001 -1.786 10
4.527 2.5929999 -1.779 11
4.7589998 2.694 -1.762 10
5.0929999 2.852 -1.774 13
3.829 2.2750001 -1.795 9
4.0320001 2.3599999 -1.789 9
4.2589998 2.4590001 -1.786 11
4.5050001 2.5680001 -1.783 11
4.7420001 2.671 -1.77 10
5.0320001 2.803 -1.767 10
3.8080001 2.2520001 -1.7970001 9
4.02 2.3410001 -1.795 10
4.2329998 2.431 -1.7869999 10
4.4640002 2.5309999 -1.78 11
4.7290001 2.6500001 -1.778 11
4.993 2.767 -1.768 10
3.7880001 2.2279999 -1.798 9
3.9949999 2.3150001 -1.795 10
4.2080002 2.404 -1.788 9
4.4429998 2.5050001 -1.784 10
4.665 2.599 -1.767 10
4.961 2.733 -1.77 9
3.7679999 2.204 -1.798 9
3.973 2.289 -1.795 10
4.1789999 2.3740001 -1.7869999 11
4.4239998 2.48 -1.7869999 10
4.6659999 2.5829999 -1.779 11
4.908 2.687 -1.7640001 11
3.724 2.165 -1.786 22
3.954 2.2639999 -1.796 10
4.1630001 2.3499999 -1.79 9
4.401 2.4519999 -1.789 10
4.638 2.5510001 -1.779 11
4.8860002 2.6570001 -1.767 10
3.7179999 2.148 -1.7920001 50
3.937 2.2390001 -1.798 10
4.1409998 2.322 -1.79 10
4.3740001 2.4200001 -1.788 10
4.612 2.52 -1.78 11
4.8600001 2.6240001 -1.768 10
3.7049999 2.125 -1.793 34
3.9059999 2.2060001 -1.791 14
4.1290002 2.2980001 -1.793 10
4.349 2.388 -1.786 11
4.5929999 2.4909999 -1.7819999 11
4.842 2.596 -1.772 11
3.6900001 2.1010001 -1.793 31
3.888 2.1800001 -1.791 73
4.105 2.2679999 -1.79 10
4.3280001 2.359 -1.786 10
4.5739999 2.4619999 -1.783 10
4.7989998 2.553 -1.765 10
3.6789999 2.079 -1.794 33
3.8770001 2.1570001 -1.7920001 73
4.092 2.243 -1.7920001 10
4.3119998 2.332 -1.7869999 10
4.5469999 2.427 -1.781 10
4.7950001 2.529 -1.772 10
3.6659999 2.0550001 -1.793 37
3.862 2.131 -1.7920001 62
4.0679998 2.2119999 -1.788 21
4.2979999 2.3050001 -1.788 10
4.5359998 2.401 -1.783 11
4.77 2.4949999 -1.771 10
3.665 2.0369999 -1.7970001 31
3.852 2.1070001 -1.7920001 58
4.0669999 2.1919999 -1.793 88
4.2880001 2.279 -1.789 10
4.5229998 2.3740001 -1.785 12
4.7670002 2.4719999 -1.777 10
3.655 2.013 -1.7970001 30
3.845 2.085 -1.793 58
4.052 2.164 -1.791 76
4.2670002 2.2479999 -1.786 11
4.5139999 2.3469999 -1.7869999 11
4.756 2.4430001 -1.779 10
3.648 1.9910001 -1.7970001 32
3.8340001 2.059 -1.7920001 62
4.053 2.1440001 -1.796 70
4.263 2.224 -1.789 67
4.5009999 2.3169999 -1.7869999 10
4.743 2.4130001 -1.779 10
3.641 1.9680001 -1.796 34
3.829 2.0369999 -1.793 56
4.0430002 2.118 -1.795 77
4.2610002 2.201 -1.7920001 63
4.4899998 2.289 -1.7869999 11
4.7340002 2.3840001 -1.78 11
3.6359999 1.9450001 -1.796 31
3.8199999 2.0109999 -1.791 60
4.04 2.095 -1.796 60
4.25 2.1730001 -1.791 59
4.4559999 2.2479999 -1.777 24
4.7280002 2.3559999 -1.7819999 11
3.6359999 1.925 -1.7970001 28
3.823 1.9910001 -1.794 59
4.0339999 2.069 -1.796 60
4.2410002 2.145 -1.789 47
4.4749999 2.233 -1.7869999 73
4.7199998 2.326 -1.7819999 11
3.6400001 1.906 -1.8 33
3.8199999 1.9680001 -1.794 70
4.0279999 2.0439999 -1.795 83
4.2410002 2.1210001 -1.791 48
4.461 2.201 -1.784 54
4.7069998 2.2939999 -1.78 12
3.642 1.885 -1.802 39
3.8150001 1.943 -1.7920001 60
4.0339999 2.023 -1.798 68
4.243 2.098 -1.793 48
4.4689999 2.1800001 -1.788 55
4.7090001 2.2679999 -1.7819999 36
3.6459999 1.865 -1.803 39
3.8199999 1.9220001 -1.795 63
4.0320001 1.998 -1.798 81
4.237 2.0699999 -1.791 50
4.4640002 2.151 -1.7869999 58
4.711 2.2420001 -1.784 37
3.6500001 1.844 -1.804 35
3.822 1.9 -1.795 77
4.033 1.975 -1.798 68
4.2329998 2.043 -1.789 44
4.4679999 2.1270001 -1.789 65
4.7090001 2.2130001 -1.784 33
3.6500001 1.821 -1.803 37
3.8269999 1.8789999 -1.796 65
4.0370002 1.952 -1.798 82
4.2399998 2.02 -1.791 40
4.4660001 2.099 -1.788 63
4.704 2.1819999 -1.7819999 31
3.6559999 1.801 -1.804 37
3.8299999 1.8559999 -1.795 55
4.04 1.927 -1.798 93
4.2519999 1.999 -1.795 45
4.474 2.075 -1.79 62
4.7150002 2.1589999 -1.785 27
3.6670001 1.7819999 -1.806 47
3.8369999 1.835 -1.796 74
4.0440001 1.904 -1.7970001 77
4.256 1.974 -1.795 46
4.4819999 2.0510001 -1.791 57
4.7129998 2.1289999 -1.783 25
3.6760001 1.762 -1.807 11
3.848 1.814 -1.798 79
4.053 1.882 -1.799 69
4.2659998 1.952 -1.796 54
4.487 2.0250001 -1.79 60
4.7259998 2.105 -1.785 33
3.6800001 1.739 -1.8049999 9
3.8599999 1.794 -1.8 62
4.0640001 1.86 -1.8 80
4.2719998 1.927 -1.795 54
4.4910002 1.998 -1.789 59
4.7329998 2.0780001 -1.785 33
3.6949999 1.721 -1.808 10
3.8800001 1.777 -1.8049999 10
4.073 1.837 -1.8 86
4.2820001 1.903 -1.796 58
4.5040002 1.974 -1.79 70
4.7480001 2.0539999 -1.7869999 31
3.7019999 1.699 -1.807 9
3.895 1.758 -1.807 10
4.0999999 1.822 -1.807 35
4.296 1.881 -1.7970001 55
4.5159998 1.95 -1.791 60
4.7579999 2.027 -1.786 29
3.7130001 1.677 -1.806 9
3.901 1.734 -1.804 11
4.1079998 1.7970001 -1.8049999 10
4.3140001 1.859 -1.799 77
4.527 1.925 -1.79 62
4.7740002 2.003 -1.788 31
3.7219999 1.656 -1.804 10
3.9219999 1.716 -1.808 10
4.119 1.774 -1.804 10
4.3319998 1.8380001 -1.801 17
4.5469999 1.902 -1.7920001 73
4.7930002 1.979 -1.789 35
3.7390001 1.636 -1.8049999 9
3.937 1.6950001 -1.808 10
4.1370001 1.753 -1.8049999 10
4.3429999 1.813 -1.799 9
4.5630002 1.878 -1.7920001 69
4.8099999 1.954 -1.789 38
3.757 1.617 -1.807 9
3.95 1.6720001 -1.807 10
4.152 1.73 -1.8049999 10
4.3590002 1.789 -1.798 10
4.5960002 1.86 -1.798 13
4.8319998 1.9299999 -1.79 46
3.7709999 1.596 -1.806 10
3.9690001 1.652 -1.808 10
4.178 1.712 -1.809 10
4.3790002 1.768 -1.799 10
4.6030002 1.832 -1.794 11
4.8629999 1.91 -1.794 40
3.7869999 1.575 -1.8049999 10
3.9879999 1.631 -1.808 12
4.1919999 1.688 -1.806 11
4.3990002 1.745 -1.799 10
4.6329999 1.812 -1.7970001 10
4.8790002 1.883 -1.7920001 10
3.812 1.557 -1.808 9
4.0079999 1.6109999 -1.808 11
4.2160001 1.668 -1.808 11
4.4250002 1.724 -1.801 11
4.6500001 1.786 -1.795 11
4.895 1.855 -1.789 11
3.832 1.5369999 -1.808 9
4.0289998 1.59 -1.809 10
4.237 1.646 -1.807 10
4.4439998 1.7 -1.8 10
4.6859999 1.767 -1.799 11
4.928 1.834 -1.7920001 11
3.8570001 1.5190001 -1.8099999 9
4.0599999 1.572 -1.812 10
4.257 1.623 -1.806 11
4.4689999 1.678 -1.8 10
4.7069998 1.742 -1.7970001 10
4.96 1.811 -1.793 11
3.878 1.499 -1.809 9
4.0809999 1.551 -1.811 10
4.2870002 1.604 -1.808 10
4.4990001 1.658 -1.801 11
4.7329998 1.719 -1.7970001 11
4.9819999 1.785 -1.79 11
3.9000001 1.478 -1.809 10
4.0999999 1.529 -1.809 11
4.3140001 1.5829999 -1.809 10
4.526 1.635 -1.801 11
4.7670002 1.698 -1.798 11
5.0159998 1.762 -1.791 11
3.925 1.459 -1.809 9
4.1339998 1.511 -1.812 11
4.3390002 1.561 -1.808 11
4.553 1.613 -1.8 10
4.8000002 1.676 -1.799 11
5.052 1.74 -1.7920001 11
3.957 1.441 -1.811 10
4.1599998 1.49 -1.811 11
4.375 1.5420001 -1.8099999 10
4.5890002 1.5930001 -1.802 10
4.8330002 1.654 -1.799 11
5.0809999 1.715 -1.79 10
3.984 1.4220001 -1.811 9
4.1880002 1.47 -1.811 11
4.401 1.52 -1.808 10
4.6269999 1.574 -1.804 11
4.8569999 1.628 -1.795 11
5.1240001 1.694 -1.7920001 11
4.0190001 1.404 -1.814 10
4.2210002 1.451 -1.812 11
4.4369998 1.501 -1.8099999 10
4.6589999 1.552 -1.803 11
4.902 1.609 -1.798 11
5.1659999 1.6720001 -1.793 11
4.0479999 1.385 -1.814 10
4.2529998 1.431 -1.812 11
4.473 1.4809999 -1.8099999 10
4.691 1.529 -1.801 11
4.9380002 1.586 -1.7970001 12
5.2030001 1.648 -1.791 11
4.0780001 1.365 -1.813 9
4.2919998 1.413 -1.814 11
4.5079999 1.46 -1.8099999 10
4.7399998 1.512 -1.8049999 11
4.987 1.567 -1.799 11
5.25 1.627 -1.7920001 12
4.1209998 1.349 -1.817 10
4.3239999 1.392 -1.813 11
4.54 1.437 -1.808 11
4.7729998 1.488 -1.802 11
5.026 1.544 -1.798 11
5.2989998 1.605 -1.7920001 12
4.1550002 1.329 -1.817 10
4.362 1.372 -1.813 11
4.5799999 1.418 -1.808 11
4.8150001 1.4680001 -1.803 11
5.0799999 1.525 -1.801 12
5.342 1.582 -1.79 12
4.184 1.308 -1.814 10
4.401 1.353 -1.814 11
4.6170001 1.397 -1.807 10
4.8670001 1.449 -1.806 11
5.1209998 1.503 -1.799 11
5.3979998 1.561 -1.7920001 11
4.2290001 1.2920001 -1.817 9
4.4439998 1.335 -1.8150001 10
4.6609998 1.377 -1.807 11
4.9120002 1.429 -1.806 11
5.171 1.482 -1.799 12
5.454 1.541 -1.793 12
4.25 1.268 -1.8099999 12
4.4840002 1.3150001 -1.814 10
4.7080002 1.358 -1.808 10
4.9580002 1.408 -1.8049999 11
5.223 1.461 -1.799 11
5.5100002 1.5190001 -1.7920001 12
4.296 1.251 -1.812 62
4.5139999 1.2920001 -1.809 65
4.7509999 1.3380001 -1.807 11
5.0120001 1.3890001 -1.806 11
5.2750001 1.4400001 -1.798 12
5.5689998 1.498 -1.7920001 13
4.3379998 1.232 -1.812 50
4.5630002 1.274 -1.811 96
4.7909999 1.316 -1.804 85
5.0609999 1.368 -1.8049999 11
5.3249998 1.418 -1.796 13
5.6279998 1.477 -1.791 12
4.3829999 1.214 -1.813 55
4.6020002 1.253 -1.808 62
4.8470001 1.298 -1.806 93
5.1170001 1.348 -1.8049999 86
5.3720002 1.3940001 -1.791 23
5.6939998 1.456 -1.791 12
4.428 1.1950001 -1.812 55
4.6550002 1.235 -1.809 54
4.8930001 1.277 -1.803 66
5.164 1.326 -1.801 54
5.441 1.376 -1.794 72
5.7529998 1.433 -1.788 34
4.48 1.178 -1.814 34
4.704 1.216 -1.808 49
4.9510002 1.258 -1.804 50
5.2270002 1.307 -1.802 42
5.5079999 1.3559999 -1.794 61
5.836 1.415 -1.7920001 44
4.52 1.1569999 -1.8099999 42
4.7529998 1.1950001 -1.807 68
5.007 1.239 -1.804 58
5.2839999 1.286 -1.8 47
5.5770001 1.336 -1.794 56
5.9089999 1.395 -1.791 31
4.5760002 1.14 -1.812 43
4.803 1.175 -1.8049999 57
5.0679998 1.22 -1.804 52
5.3439999 1.265 -1.799 40
5.6399999 1.314 -1.791 52
5.974 1.3710001 -1.7869999 29
4.6290002 1.1210001 -1.812 35
4.869 1.159 -1.808 57
5.1370001 1.202 -1.806 56
5.408 1.245 -1.7970001 42
5.717 1.296 -1.7920001 42
6.0349998 1.347 -1.78 19
4.6820002 1.102 -1.811 36
4.9229999 1.1390001 -1.806 51
5.204 1.184 -1.807 60
5.4749999 1.225 -1.796 50
5.7950001 1.276 -1.7920001 50
6.1399999 1.331 -1.786 13
4.7379999 1.084 -1.811 33
4.9850001 1.1210001 -1.806 46
5.2600002 1.1619999 -1.803 68
5.5450001 1.205 -1.795 38
5.8720002 1.256 -1.791 47
6.2379999 1.313 -1.788 13
4.7950001 1.0650001 -1.809 34
5.0580001 1.104 -1.808 42
5.335 1.145 -1.804 61
5.6350002 1.189 -1.798 49
5.9699998 1.239 -1.794 87
6.3309999 1.293 -1.7869999 13
4.8629999 1.049 -1.812 39
5.1240001 1.085 -1.808 50
5.4029999 1.124 -1.802 68
5.704 1.1670001 -1.794 62
6.026 1.2130001 -1.784 27
6.4380002 1.276 -1.789 14
4.9239998 1.03 -1.8099999 28
5.1939998 1.067 -1.808 57
5.4770002 1.1059999 -1.801 64
5.796 1.15 -1.7970001 70
6.1550002 1.201 -1.794 13
6.5630002 1.26 -1.795 13
4.9879999 1.011 -1.809 28
5.2750001 1.05 -1.8099999 56
5.5469999 1.085 -1.7970001 57
5.8850002 1.131 -1.796 88
6.2620001 1.184 -1.796 13
6.6680002 1.24 -1.793 13
5.0619998 0.99400002 -1.8099999 25
5.3390002 1.029 -1.806 87
5.6370001 1.068 -1.799 82
5.9879999 1.115 -1.8 99
6.368 1.165 -1.7970001 14
6.8000002 1.224 -1.7970001 12
5.1409998 0.977 -1.812 40
5.4219999 1.012 -1.807 129
5.7220001 1.048 -1.798 105
