# .PCD v0.7 - Point Cloud Data file format
VERSION 0.7
FIELDS x y z intensity
SIZE 4 4 4 4
TYPE F F F F
COUNT 1 1 1 1
WIDTH 1849
HEIGHT 1
VIEWPOINT 0 0 0 1 0 0 0
POINTS 1849
DATA ascii
0 0 0 0
0 0 0 0
0 0 0 0
0 0 0 0
0 0 0 0
0 0 0 0
0 0 0 0
0 0 0 0
0 0 0 0
0 0 0 0
0 0 0 0
0 0 0 0
0 0 0 0
0 0 0 0
0 0 0 0
0 0 0 0
0 0 0 0
0 0 0 0
0 0 0 0
0 0 0 0
0 0 0 0
0 0 0 0
0 0 0 0
0 0 0 0
0 0 0 0
0 0 0 0
0 0 0 0
0 0 0 0
0 0 0 0
0 0 0 0
0 0 0 0
0 0 0 0
0 0 0 0
0 0 0 0
0 0 0 0
0 0 0 0
0 0 0 0
0 0 0 0
0 0 0 0
0 0 0 0
0 0 0 0
0 0 0 0
0 0 0 0
0 0 0 0
0 0 0 0
0 0 0 0
0 0 0 0
0 0 0 0
0 0 0 0
0 0 0 0
0 0 0 0
0 0 0 0
0 0 0 0
0 0 0 0
0 0 0 0
0 0 0 0
0 0 0 0
0 0 0 0
0 0 0 0
0 0 0 0
0 0 0 0
0 0 0 0
0 0 0 0
0 0 0 0
0 0 0 0
0 0 0 0
0 0 0 0
0 0 0 0
0 0 0 0
0 0 0 0
0 0 0 0
0 0 0 0
0 0 0 0
0 0 0 0
0 0 0 0
0 0 0 0
0 0 0 0
0 0 0 0
0 0 0 0
0 0 0 0
0 0 0 0
0 0 0 0
0 0 0 0
0 0 0 0
0 0 0 0
0 0 0 0
0 0 0 0
0 0 0 0
0 0 0 0
0 0 0 0
0 0 0 0
0 0 0 0
0 0 0 0
0 0 0 0
0 0 0 0
65.025002 4.105 7.6550002 8
0 0 0 0
0 0 0 0
0 0 0 0
0 0 0 0
0 0 0 0
65.193001 4.026 7.2249999 52
0 0 0 0
0 0 0 0
0 0 0 0
0 0 0 0
0 0 0 0
65.762001 3.9649999 6.8400002 48
65.011002 3.875 7.7589998 10
0 0 0 0
0 0 0 0
0 0 0 0
0 0 0 0
65.872002 3.8659999 6.402 44
65.002998 3.77 7.3080001 67
0 0 0 0
0 0 0 0
0 0 0 0
0 0 0 0
65.123001 3.7130001 5.8870001 52
65.112 3.6670001 6.875 31
64.875999 3.6099999 7.8449998 8
0 0 0 0
0 0 0 0
0 0 0 0
65.483002 3.6159999 5.4770002 33
65.957001 3.596 6.5159998 49
64.800003 3.4890001 7.3889999 56
67.264 3.5769999 8.7019997 6
0 0 0 0
0 0 0 0
67.336998 3.5910001 5.1799998 30
65.169998 3.4300001 5.9970002 45
65.134003 3.3840001 6.987 47
65.028999 3.3340001 7.967 8
0 0 0 0
0 0 0 0
67.375999 3.457 4.73 9
67.196999 3.401 5.7290001 21
65.626999 3.2780001 6.5929999 47
65.043999 3.2060001 7.5250001 40
0 0 0 0
0 0 0 0
69.197998 3.405 4.3979998 4
67.599998 3.2780001 5.3099999 23
65.707001 3.142 6.1529999 36
65.893997 3.108 7.171 36
67.093002 3.122 8.3280001 30
0 0 0 0
69.410004 3.2609999 3.948 6
0 0 0 0
66.739998 3.0420001 5.7989998 11
65.286003 2.9330001 6.6599998 53
65.359001 2.895 7.664 45
0 0 0 0
69.421997 3.099 3.4879999 15
0 0 0 0
67.228996 2.9070001 5.3899999 11
65.541 2.7909999 6.243 29
65.695999 2.757 7.256 42
66.670998 2.756 8.3780003 30
69.486 2.9319999 3.036 8
0 0 0 0
0 0 0 0
70.690002 2.842 6.2680001 36
65.786003 2.6029999 6.8260002 42
65.528 2.552 7.796 36
68.709 2.724 2.552 9
126.134 4.9169998 6.5679998 16
0 0 0 0
70.745003 2.664 5.802 40
66.278 2.454 6.4359999 14
65.852997 2.398 7.3920002 34
68.962997 2.5550001 2.1210001 26
69.323997 2.5209999 3.1619999 20
126.192 4.506 7.638 33
70.936996 2.487 5.3579998 16
67.672997 2.3299999 6.1269999 14
64.624001 2.1830001 6.8210001 14
69.138 2.372 1.683 14
126.124 4.2420001 4.941 31
69.624001 2.296 3.766 17
68.153 2.2030001 4.7010002 3
67.727997 2.1470001 5.6880002 15
64.750999 2.013 6.4120002 58
125.999 3.9690001 2.27 31
126.259 3.8940001 4.1500001 33
126.091 3.8050001 6.0159998 28
69.888 2.0650001 4.3779998 14
69.834999 2.0179999 5.4169998 9
67.666 1.914 6.2639999 21
162.476 4.6430001 1.9069999 15
126.133 3.5190001 3.346 21
126.45 3.447 5.2329998 31
0 0 0 0
69.766998 1.813 4.9650002 20
67.750999 1.7180001 5.8330002 6
76.883003 1.965 0.42300001 4
125.947 3.1370001 2.5580001 38
126.064 3.059 4.4310002 34
126.81 2.9949999 6.3379998 33
132.11 3.039 8.5699997 23
69.863998 1.563 5.5710001 16
73.68 1.656 -0.043000001 9
113.633 2.4779999 1.608 7
126.77 2.684 3.6719999 37
127.005 2.6070001 5.559 34
127.783 2.5420001 7.487 31
69.639 1.342 5.1129999 8
73.836998 1.4220001 -0.49599999 44
76.956001 1.431 0.616 6
125.674 2.2579999 2.865 39
127.997 2.214 4.8039999 38
127.299 2.1210001 6.6609998 28
72.277 1.16 4.855 3
76.413002 1.216 -0.98100001 44
76.255997 1.163 0.14300001 41
0 0 0 0
126.812 1.774 3.9820001 30
0 0 0 0
133.08 1.688 8.0979996 18
67.353996 0.83899999 -1.276 4
74.464996 0.87800002 -0.315 18
113.771 1.2690001 1.192 25
126.565 1.331 3.1900001 21
126.932 1.258 5.0749998 35
125.699 1.1670001 6.8779998 28
38.988998 0.34799999 -0.97100002 6
74.313004 0.616 -0.759 38
78.117996 0.597 0.34999999 11
126.317 0.88599998 2.424 27
0 0 0 0
124.642 0.71799999 6.059 27
32.073002 0.17 -0.99000001 2
71.278999 0.333 -1.15 11
74.160004 0.29899999 -0.107 31
136.24699 0.46399999 1.804 19
124.821 0.34999999 3.4909999 38
124.65 0.27200001 5.3169999 34
32.106998 0.050999999 -1.179 20
38.127998 0.037 -0.83899999 1
74.089996 0.023 -0.54500002 70
84.328003 -0.024 0.62 13
66.825996 -0.061999999 1.469 19
66.835999 -0.102 2.451 36
26.142 -0.057999998 -1.1109999 35
32.178001 -0.090999998 -0.89600003 1
67.283997 -0.234 -0.88599998 43
67.322998 -0.27399999 0.102 103
67.313004 -0.31400001 1.091 107
67.289001 -0.35600001 2.075 57
22.742001 -0.138 -1.097 3
32.367001 -0.21699999 -1.086 9
44.431999 -0.32600001 -0.83899999 6
69.322998 -0.55000001 -0.29100001 56
84.304001 -0.72399998 0.87599999 12
67.667 -0.62099999 1.694 33
22.365999 -0.226 -1.207 61
26.407 -0.28299999 -1.0369999 21
43.921001 -0.49700001 -1.079 31
81.238998 -0.96899998 -0.80400002 3
84.335999 -1.058 0.39700001 9
0 0 0 0
22.322001 -0.317 -1.33 61
25.493 -0.37799999 -1.1440001 74
32.416 -0.49900001 -0.97899997 50
32.584999 -0.523 -0.50800002 24
90.973999 -1.517 -0.090999998 34
0 0 0 0
22.382 -0.41299999 -1.46 60
22.973 -0.43700001 -1.16 50
32.321999 -0.63599998 -1.16 18
32.311001 -0.65399998 -0.685 64
95.749001 -2.0009999 -0.63700002 12
0 0 0 0
22.482 -0.51200002 -1.591 62
22.509001 -0.52600002 -1.262 54
26.361 -0.63200003 -1.092 26
32.16 -0.79000002 -0.861 62
32.515999 -0.81900001 -0.398 34
118.172 -3.049 0.27700001 29
22.652 -0.616 -1.728 49
22.531 -0.625 -1.387 63
24.532 -0.69499999 -1.15 64
32.191002 -0.93199998 -1.038 51
32.269001 -0.954 -0.56999999 56
95.819 -2.8889999 -0.296 19
22.742001 -0.72000003 -1.857 22
22.667 -0.73100001 -1.517 60
22.792 -0.74800003 -1.192 68
26.811001 -0.89600003 -1.01 0
32.074001 -1.092 -0.74000001 73
32.598999 -1.1289999 -0.278 18
22.128 -0.80199999 -1.925 17
22.819 -0.84100002 -1.65 54
22.702 -0.84799999 -1.306 64
25.639 -0.97399998 -1.101 33
32.227001 -1.243 -0.91399997 37
32.330002 -1.267 -0.447 67
20.85 -0.85399997 -1.924 16
22.924 -0.95099998 -1.777 43
22.796 -0.95899999 -1.433 67
23.792 -1.0140001 -1.146 72
32.382 -1.4 -1.089 40
32.210999 -1.4119999 -0.61500001 66
19.615 -0.89700001 -1.913 14
22.862 -1.058 -1.892 12
22.903999 -1.073 -1.559 56
22.976999 -1.09 -1.228 59
26.400999 -1.267 -1.025 1
32.238998 -1.568 -0.78399998 58
18.563 -0.94 -1.906 12
21.82 -1.117 -1.919 17
23.332001 -1.207 -1.709 60
22.951 -1.201 -1.345 74
25.083 -1.327 -1.103 25
32.68 -1.748 -0.963 39
17.628 -0.98000002 -1.9 11
20.539 -1.153 -1.911 15
23.291 -1.3200001 -1.823 32
23.122 -1.324 -1.471 68
23.579 -1.363 -1.155 66
32.428001 -1.8940001 -1.118 39
16.805 -1.018 -1.895 10
19.415001 -1.187 -1.902 14
23.035999 -1.421 -1.9170001 12
23.236 -1.4450001 -1.5930001 60
23.164 -1.455 -1.25 64
26.101999 -1.655 -1.029 4
16.058001 -1.056 -1.891 9
18.481001 -1.224 -1.902 12
21.775999 -1.454 -1.92 17
23.437 -1.5779999 -1.721 60
23.273001 -1.58 -1.369 70
24.806999 -1.699 -1.098 25
15.397 -1.0930001 -1.888 10
17.586 -1.257 -1.895 11
20.636 -1.4859999 -1.92 15
23.549 -1.709 -1.844 28
23.421 -1.712 -1.4910001 75
23.718 -1.748 -1.165 65
14.811 -1.13 -1.887 9
16.763 -1.288 -1.888 10
19.527 -1.51 -1.91 14
23.222 -1.808 -1.929 13
23.566 -1.848 -1.613 66
23.523001 -1.857 -1.267 58
14.273 -1.166 -1.886 11
16.073 -1.321 -1.885 9
18.635 -1.54 -1.909 13
21.961 -1.827 -1.926 17
23.83 -1.995 -1.74 48
23.617001 -1.9910001 -1.38 63
13.756 -1.2 -1.882 10
15.441 -1.353 -1.882 9
17.752001 -1.564 -1.9 11
20.795 -1.8430001 -1.919 15
23.92 -2.1329999 -1.8559999 18
23.988001 -2.152 -1.512 55
13.293 -1.233 -1.8789999 10
14.876 -1.386 -1.881 10
16.990999 -1.592 -1.896 10
19.791 -1.865 -1.9170001 14
23.562 -2.2320001 -1.9349999 18
23.976 -2.2850001 -1.619 68
12.86 -1.266 -1.877 10
14.377 -1.421 -1.883 11
16.316999 -1.62 -1.8940001 10
18.864 -1.883 -1.91 13
22.280001 -2.2360001 -1.928 18
24.344 -2.457 -1.752 56
12.486 -1.301 -1.878 11
13.889 -1.4529999 -1.881 10
15.672 -1.646 -1.888 10
17.987 -1.898 -1.9 12
21.214001 -2.2490001 -1.928 16
24.374001 -2.598 -1.859 29
12.138 -1.335 -1.878 11
13.437 -1.484 -1.878 10
15.153 -1.679 -1.891 11
17.289 -1.924 -1.9 11
20.146999 -2.2509999 -1.9170001 15
24.017 -2.697 -1.933 15
11.819 -1.369 -1.8789999 11
13.042 -1.515 -1.877 10
14.632 -1.707 -1.887 11
16.614 -1.946 -1.895 10
19.268999 -2.266 -1.913 14
22.84 -2.698 -1.932 19
11.509 -1.402 -1.878 11
12.667 -1.548 -1.877 11
14.191 -1.74 -1.8890001 11
15.995 -1.9680001 -1.891 9
18.454 -2.28 -1.908 12
21.722 -2.6949999 -1.927 17
11.245 -1.438 -1.882 12
12.332 -1.581 -1.877 11
13.736 -1.767 -1.8839999 10
15.454 -1.994 -1.8890001 9
17.677999 -2.29 -1.898 11
20.690001 -2.691 -1.9170001 15
10.987 -1.473 -1.8839999 11
12.011 -1.614 -1.877 11
13.348 -1.798 -1.8839999 11
14.965 -2.023 -1.888 10
17.062 -2.3139999 -1.899 11
19.816 -2.698 -1.913 14
10.744 -1.506 -1.885 11
11.728 -1.648 -1.8789999 12
12.975 -1.8279999 -1.882 11
14.516 -2.0510001 -1.888 11
16.409 -2.3269999 -1.89 10
19.032 -2.7090001 -1.911 13
10.508 -1.54 -1.885 12
11.458 -1.682 -1.88 11
12.649 -1.862 -1.883 11
14.12 -2.0840001 -1.89 11
15.885 -2.3510001 -1.8890001 9
18.257999 -2.7119999 -1.901 12
10.292 -1.573 -1.885 12
11.211 -1.717 -1.882 11
12.337 -1.8940001 -1.883 11
13.708 -2.1099999 -1.886 11
15.414 -2.378 -1.89 9
17.631001 -2.7290001 -1.9 11
10.081 -1.6059999 -1.8839999 11
10.971 -1.75 -1.882 13
12.055 -1.927 -1.8839999 11
13.359 -2.141 -1.886 11
14.973 -2.4059999 -1.8890001 11
17.049999 -2.7490001 -1.898 11
9.8959999 -1.641 -1.886 11
10.758 -1.7869999 -1.885 12
11.773 -1.9579999 -1.882 13
13.039 -2.174 -1.887 11
14.566 -2.434 -1.8890001 12
16.478001 -2.7620001 -1.892 10
9.7150002 -1.675 -1.887 11
10.548 -1.821 -1.885 11
11.546 -1.9960001 -1.887 12
12.735 -2.2060001 -1.887 11
14.198 -2.4649999 -1.89 11
15.989 -2.7839999 -1.8890001 10
9.5459995 -1.709 -1.887 10
10.344 -1.854 -1.8839999 11
11.301 -2.0280001 -1.885 11
12.45 -2.2390001 -1.887 12
13.854 -2.497 -1.89 11
15.549 -2.8099999 -1.888 11
9.3920002 -1.744 -1.8890001 10
10.15 -1.887 -1.883 12
11.082 -2.063 -1.885 10
12.174 -2.27 -1.885 12
13.521 -2.527 -1.888 11
15.16 -2.8399999 -1.8890001 11
9.2329998 -1.778 -1.888 11
9.9820004 -1.924 -1.885 11
10.885 -2.0999999 -1.887 11
11.943 -2.3069999 -1.887 11
13.239 -2.562 -1.891 11
14.788 -2.868 -1.8890001 12
9.0950003 -1.813 -1.8890001 10
9.8190002 -1.9579999 -1.886 11
10.692 -2.135 -1.887 11
11.716 -2.342 -1.887 12
12.979 -2.598 -1.893 11
14.461 -2.901 -1.89 11
8.9639997 -1.848 -1.89 10
9.665 -1.993 -1.886 11
10.522 -2.1719999 -1.8890001 12
11.501 -2.3770001 -1.887 11
12.697 -2.6289999 -1.89 11
14.139 -2.9330001 -1.8890001 10
8.842 -1.885 -1.892 11
9.526 -2.0309999 -1.888 10
10.353 -2.2090001 -1.89 12
11.297 -2.4130001 -1.887 11
12.45 -2.664 -1.888 11
13.868 -2.9719999 -1.892 11
8.7220001 -1.92 -1.892 10
9.3929996 -2.069 -1.8890001 10
10.183 -2.244 -1.8890001 11
11.138 -2.457 -1.892 11
12.251 -2.7060001 -1.893 11
13.569 -3.003 -1.8890001 11
8.6020002 -1.955 -1.892 10
9.2539997 -2.1029999 -1.888 10
10.027 -2.28 -1.887 11
10.956 -2.494 -1.891 11
12.025 -2.7409999 -1.89 11
13.328 -3.0420001 -1.891 10
8.5 -1.992 -1.893 10
9.132 -2.1400001 -1.888 10
9.8870001 -2.3180001 -1.888 11
10.779 -2.529 -1.8890001 11
11.844 -2.7820001 -1.892 11
13.105 -3.0840001 -1.893 10
8.3999996 -2.03 -1.8940001 10
9.0270004 -2.181 -1.891 10
9.7700005 -2.3610001 -1.891 11
10.631 -2.5710001 -1.891 10
11.654 -2.8210001 -1.891 12
12.904 -3.1289999 -1.895 11
8.3070002 -2.0669999 -1.895 11
8.927 -2.221 -1.893 10
9.6459999 -2.4000001 -1.892 11
10.478 -2.609 -1.89 10
11.485 -2.862 -1.892 11
12.666 -3.161 -1.891 11
8.2119999 -2.1029999 -1.895 10
8.8240004 -2.2590001 -1.893 10
9.5340004 -2.4419999 -1.893 11
10.356 -2.6530001 -1.892 10
11.328 -2.905 -1.892 11
12.493 -3.2079999 -1.893 10
8.1269999 -2.142 -1.896 10
8.7189999 -2.2969999 -1.892 10
9.4200001 -2.4809999 -1.893 10
10.234 -2.697 -1.8940001 11
11.183 -2.9489999 -1.8940001 10
12.302 -3.2479999 -1.892 10
8.0469999 -2.1800001 -1.896 10
8.625 -2.335 -1.892 9
9.3249998 -2.5239999 -1.895 11
10.106 -2.7360001 -1.892 11
11.043 -2.9920001 -1.8940001 11
12.151 -3.296 -1.893 11
7.9699998 -2.2190001 -1.896 10
8.5500002 -2.378 -1.8940001 10
9.2229996 -2.5639999 -1.8940001 10
10.007 -2.783 -1.895 10
10.911 -3.036 -1.893 10
12.016 -3.3469999 -1.897 10
7.8990002 -2.2579999 -1.897 10
8.4610004 -2.4170001 -1.893 10
9.1339998 -2.608 -1.895 10
9.8999996 -2.8269999 -1.895 11
10.796 -3.0840001 -1.895 10
11.866 -3.3929999 -1.896 9
7.8299999 -2.2969999 -1.897 10
8.3839998 -2.457 -1.893 10
9.0500002 -2.652 -1.896 10
9.7989998 -2.8710001 -1.895 10
10.678 -3.131 -1.8940001 10
11.727 -3.441 -1.895 10
7.7620001 -2.336 -1.897 10
8.3170004 -2.5009999 -1.895 10
8.9680004 -2.6949999 -1.896 10
9.7060003 -2.9170001 -1.895 10
10.575 -3.1789999 -1.895 10
11.609 -3.4920001 -1.896 11
7.7160001 -2.381 -1.901 10
8.257 -2.5450001 -1.897 10
8.8850002 -2.737 -1.895 10
9.6140003 -2.961 -1.8940001 9
10.47 -3.2260001 -1.8940001 10
11.501 -3.5469999 -1.897 9
7.6500001 -2.4189999 -1.899 10
8.1870003 -2.586 -1.895 10
8.8269997 -2.7869999 -1.898 10
9.5459995 -3.013 -1.896 11
10.4 -3.283 -1.897 10
11.396 -3.5999999 -1.897 9
7.5970001 -2.461 -1.899 10
8.1300001 -2.631 -1.896 10
8.7589998 -2.8329999 -1.898 11
9.4580002 -3.0580001 -1.8940001 10
10.306 -3.3329999 -1.896 9
11.307 -3.658 -1.899 9
7.5489998 -2.5050001 -1.9 10
8.0769997 -2.677 -1.897 10
8.7030001 -2.882 -1.899 9
9.3970003 -3.1099999 -1.895 10
10.239 -3.3889999 -1.898 10
11.199 -3.7079999 -1.896 9
7.507 -2.55 -1.902 10
8.033 -2.724 -1.899 9
8.6330004 -2.925 -1.896 10
9.3360004 -3.161 -1.896 9
10.163 -3.441 -1.898 9
11.115 -3.7650001 -1.895 9
7.4590001 -2.5910001 -1.901 9
7.9920001 -2.7720001 -1.901 9
8.592 -2.977 -1.899 10
9.2849998 -3.2160001 -1.898 9
10.105 -3.5 -1.899 9
11.059 -3.832 -1.899 9
7.421 -2.6370001 -1.902 10
7.9320002 -2.813 -1.897 9
8.552 -3.03 -1.901 9
9.2370005 -3.2709999 -1.899 10
10.042 -3.556 -1.898 8
10.988 -3.892 -1.898 9
7.382 -2.681 -1.902 9
7.9039998 -2.8670001 -1.901 9
8.5089998 -3.082 -1.901 10
9.1949997 -3.3280001 -1.901 10
10.005 -3.6199999 -1.902 9
10.93 -3.9560001 -1.898 9
7.3460002 -2.7249999 -1.901 9
7.868 -2.915 -1.901 9
8.467 -3.132 -1.901 9
9.151 -3.3829999 -1.9 9
9.9569998 -3.6789999 -1.902 9
10.877 -4.02 -1.899 9
7.3150001 -2.7720001 -1.902 9
7.835 -2.964 -1.902 8
8.434 -3.1860001 -1.902 9
9.1120005 -3.4389999 -1.901 10
9.9119997 -3.7390001 -1.902 9
10.834 -4.0879998 -1.899 8
7.2940001 -2.8210001 -1.904 9
7.8039999 -3.013 -1.901 9
8.4049997 -3.2409999 -1.903 9
9.0760002 -3.497 -1.901 9
9.8590002 -3.796 -1.899 9
10.812 -4.164 -1.903 9
7.2719998 -2.8710001 -1.906 9
7.7789998 -3.0650001 -1.902 9
8.3699999 -3.293 -1.902 9
9.0419998 -3.5550001 -1.901 9
9.8330002 -3.8629999 -1.901 8
10.776 -4.2340002 -1.903 8
7.2360001 -2.914 -1.903 8
7.7639999 -3.1210001 -1.905 9
8.3459997 -3.3499999 -1.902 9
9.0249996 -3.618 -1.902 9
9.8129997 -3.9330001 -1.902 8
10.754 -4.3099999 -1.904 8
7.2280002 -2.9690001 -1.906 9
7.7360001 -3.171 -1.903 9
8.3299999 -3.4089999 -1.904 9
9.0019999 -3.6800001 -1.902 9
9.7959995 -4.0019999 -1.903 8
10.572 -4.3189998 -1.876 8
7.21 -3.0190001 -1.906 9
7.7220001 -3.2260001 -1.904 9
8.3120003 -3.467 -1.904 9
8.9980001 -3.7490001 -1.905 8
9.7860003 -4.0749998 -1.905 8
10.531 -4.3839998 -1.8710001 13
7.1999998 -3.072 -1.908 9
7.7030001 -3.279 -1.903 9
8.3070002 -3.5309999 -1.906 9
8.9720001 -3.809 -1.903 9
9.7779999 -4.1479998 -1.906 9
10.479 -4.4450002 -1.864 15
7.184 -3.1229999 -1.9069999 9
7.6919999 -3.3369999 -1.904 9
8.2959995 -3.592 -1.9069999 9
8.967 -3.8770001 -1.904 9
9.7729998 -4.223 -1.906 8
10.546 -4.5549998 -1.877 12
7.1739998 -3.1760001 -1.9069999 9
7.6849999 -3.3940001 -1.905 9
8.283 -3.651 -1.905 9
8.9530001 -3.941 -1.902 8
9.7620001 -4.2940001 -1.905 8
10.705 -4.7069998 -1.905 8
7.1690001 -3.2309999 -1.908 9
7.677 -3.4519999 -1.904 9
8.2849998 -3.7179999 -1.9069999 9
8.9650002 -4.0170002 -1.905 8
9.7639999 -4.3709998 -1.904 8
10.713 -4.7940001 -1.905 8
7.1620002 -3.2850001 -1.908 9
7.6719999 -3.5090001 -1.904 9
8.2810001 -3.78 -1.906 9
8.9619999 -4.085 -1.904 8
9.7810001 -4.454 -1.9069999 8
10.734 -4.8860002 -1.906 8
7.158 -3.339 -1.9069999 9
7.6760001 -3.5710001 -1.905 9
8.2810001 -3.845 -1.906 9
8.9799995 -4.1630001 -1.906 8
9.7810001 -4.5289998 -1.905 9
10.775 -4.987 -1.91 8
7.165 -3.398 -1.909 8
7.677 -3.631 -1.904 9
8.2919998 -3.914 -1.9069999 9
8.9960003 -4.2389998 -1.908 8
9.8120003 -4.619 -1.9069999 8
10.792 -5.0770001 -1.909 8
7.1719999 -3.4579999 -1.91 8
7.6810002 -3.6930001 -1.904 9
8.3039999 -3.984 -1.9069999 9
9.0050001 -4.3130002 -1.9069999 8
9.8360004 -4.7049999 -1.908 8
10.816 -5.171 -1.908 8
7.177 -3.516 -1.91 9
7.6950002 -3.7590001 -1.905 9
8.323 -4.0570002 -1.908 8
9.0380001 -4.3969998 -1.909 8
9.8649998 -4.7940001 -1.908 8
10.861 -5.2750001 -1.909 8
7.1859999 -3.576 -1.91 9
7.7090001 -3.825 -1.905 8
8.3249998 -4.1220002 -1.905 9
9.0620003 -4.4780002 -1.909 8
9.8889999 -4.8800001 -1.9069999 8
10.916 -5.3829999 -1.911 8
7.1989999 -3.638 -1.911 9
7.7210002 -3.8900001 -1.905 8
8.3640003 -4.204 -1.909 9
9.0880003 -4.559 -1.909 8
9.9390001 -4.98 -1.908 7
10.988 -5.5009999 -1.914 7
7.2129998 -3.7 -1.911 9
7.743 -3.96 -1.906 9
8.382 -4.276 -1.908 8
9.1199999 -4.6430001 -1.909 8
9.9879999 -5.079 -1.91 7
11.046 -5.6110001 -1.915 7
7.2399998 -3.7690001 -1.914 9
7.7690001 -4.0310001 -1.9069999 9
8.4219999 -4.3590002 -1.91 8
9.1680002 -4.7360001 -1.911 8
10.051 -5.1849999 -1.913 7
11.11 -5.7270002 -1.915 7
7.257 -3.8329999 -1.913 8
7.7940001 -4.1030002 -1.9069999 8
8.4510002 -4.4369998 -1.91 9
9.2150002 -4.8280001 -1.9119999 8
10.095 -5.2820001 -1.911 7
11.201 -5.8559999 -1.918 7
7.2719998 -3.895 -1.911 8
7.823 -4.177 -1.9069999 8
8.4940004 -4.5219998 -1.9119999 8
9.2539997 -4.9159999 -1.911 8
10.171 -5.3959999 -1.913 7
11.289 -5.9829998 -1.919 7
7.3060002 -3.9660001 -1.914 8
7.8590002 -4.2529998 -1.909 8
8.5380001 -4.6079998 -1.9119999 8
9.3179998 -5.0180001 -1.913 7
10.253 -5.5120001 -1.9170001 7
11.381 -6.1129999 -1.92 6
7.3330002 -4.0349998 -1.914 8
7.8979998 -4.3309999 -1.909 9
8.5749998 -4.6890001 -1.911 8
9.3710003 -5.1129999 -1.9119999 8
10.32 -5.6220002 -1.915 7
11.491 -6.2529998 -1.9220001 6
7.3610001 -4.1040001 -1.913 8
7.9400001 -4.4109998 -1.91 9
8.6300001 -4.7810001 -1.9119999 7
9.4250002 -5.2080002 -1.911 7
10.403 -5.7399998 -1.916 7
11.611 -6.4000001 -1.925 6
7.4000001 -4.177 -1.914 8
7.9829998 -4.4910002 -1.91 8
8.6780005 -4.868 -1.911 7
9.4890003 -5.3099999 -1.91 7
10.492 -5.8610001 -1.9170001 7
11.72 -6.54 -1.925 6
7.4349999 -4.2490001 -1.914 8
8.033 -4.5739999 -1.911 9
8.7480001 -4.967 -1.914 7
9.5760002 -5.4239998 -1.913 7
10.595 -5.9910002 -1.918 7
11.835 -6.684 -1.924 6
7.473 -4.322 -1.913 8
8.0740004 -4.6529999 -1.909 7
8.8059998 -5.059 -1.9119999 7
9.6479998 -5.5289998 -1.9119999 7
10.715 -6.1300001 -1.9220001 6
11.99 -6.8509998 -1.928 6
7.5170002 -4.3979998 -1.913 8
8.1289997 -4.7389998 -1.909 7
8.8719997 -5.1560001 -1.9119999 8
9.757 -5.6570001 -1.9170001 7
10.836 -6.27 -1.924 7
12.129 -7.0100002 -1.928 7
7.5710001 -4.48 -1.914 8
8.2110004 -4.8410001 -1.915 7
8.9610004 -5.2670002 -1.915 7
9.8529997 -5.776 -1.918 7
10.96 -6.414 -1.926 6
12.286 -7.1799998 -1.928 7
7.6290002 -4.5650001 -1.916 7
8.2690001 -4.9289999 -1.913 7
9.0360003 -5.369 -1.915 7
9.9449997 -5.8940001 -1.916 7
11.092 -6.5609999 -1.926 6
12.423 -7.3379998 -1.924 6
7.678 -4.6430001 -1.915 8
8.3299999 -5.0180001 -1.911 7
9.1210003 -5.4770002 -1.915 8
10.052 -6.02 -1.916 7
11.241 -6.7189999 -1.928 6
12.598 -7.52 -1.923 7
7.737 -4.7280002 -1.914 7
8.408 -5.118 -1.913 7
9.2049999 -5.5840001 -1.914 7
10.183 -6.1609998 -1.92 7
11.407 -6.888 -1.932 6
12.791 -7.7129998 -1.924 7
7.8080001 -4.8189998 -1.916 7
8.4879999 -5.2179999 -1.913 7
9.302 -5.6989999 -1.914 7
10.309 -6.2989998 -1.92 7
11.553 -7.0440001 -1.931 6
13.017 -7.9250002 -1.928 7
7.8720002 -4.9050002 -1.915 7
8.5600004 -5.3119998 -1.911 7
9.4139996 -5.823 -1.916 7
10.451 -6.4460001 -1.923 5
11.733 -7.2210002 -1.933 6
13.225 -8.1269999 -1.927 7
7.9489999 -4.9990001 -1.916 7
8.6560001 -5.421 -1.913 8
9.5209999 -5.9429998 -1.916 7
10.612 -6.6059999 -1.927 5
11.886 -7.3829999 -1.929 7
13.463 -8.349 -1.927 7
8.0430002 -5.1040001 -1.92 7
8.7519999 -5.5310001 -1.913 6
9.6420002 -6.0710001 -1.916 7
10.783 -6.77 -1.932 5
12.1 -7.5809999 -1.933 7
13.737 -8.5930004 -1.9299999 8
8.1140003 -5.1929998 -1.918 7
8.8540001 -5.6430001 -1.914 6
9.7729998 -6.2059999 -1.918 7
10.95 -6.934 -1.933 6
12.268 -7.75 -1.928 7
13.993 -8.8260002 -1.929 9
8.1940002 -5.2870002 -1.916 7
8.948 -5.7490001 -1.9119999 6
9.9160004 -6.348 -1.92 7
11.106 -7.0890002 -1.931 6
12.471 -7.9419999 -1.925 8
14.305 -9.0950003 -1.933 9
8.302 -5.3979998 -1.92 6
9.0649996 -5.869 -1.9119999 6
10.057 -6.4879999 -1.92 7
11.304 -7.2709999 -1.9349999 6
12.741 -8.177 -1.931 8
14.627 -9.3719997 -1.933 9
8.3900003 -5.4970002 -1.918 6
9.1960001 -5.9990001 -1.915 7
10.239 -6.6550002 -1.926 6
11.49 -7.4460001 -1.933 6
13.006 -8.408 -1.933 8
15.004 -9.6829996 -1.939 8
8.4860001 -5.599 -1.916 7
9.3260002 -6.1259999 -1.915 7
10.418 -6.8189998 -1.9299999 6
11.682 -7.6230001 -1.931 7
13.261 -8.6330004 -1.931 9
15.33 -9.9630003 -1.934 9
8.6110001 -5.7199998 -1.919 6
9.4650002 -6.2600002 -1.916 7
10.603 -6.9860001 -1.933 5
11.917 -7.8280001 -1.934 7
13.57 -8.8920002 -1.9349999 9
15.755 -10.306 -1.939 8
8.7209997 -5.8299999 -1.918 6
9.6210003 -6.4029999 -1.919 7
10.793 -7.1560001 -1.934 6
12.14 -8.0240002 -1.933 7
13.869 -9.1440001 -1.934 9
16.173 -10.644 -1.939 8
8.8430004 -5.947 -1.918 6
9.7670002 -6.539 -1.9170001 7
10.994 -7.3330002 -1.9349999 6
12.368 -8.2220001 -1.9299999 7
14.206 -9.4219999 -1.936 10
16.646 -11.02 -1.941 7
8.9689999 -6.066 -1.9170001 7
9.948 -6.697 -1.9220001 7
11.196 -7.5079999 -1.936 6
12.635 -8.4460001 -1.931 8
14.584 -9.724 -1.939 10
17.149 -11.414 -1.942 6
9.118 -6.198 -1.919 6
10.145 -6.8649998 -1.927 6
11.407 -7.6890001 -1.934 6
12.89 -8.6610003 -1.926 8
14.982 -10.041 -1.942 9
17.732 -11.862 -1.949 5
9.2709999 -6.3330002 -1.921 7
10.339 -7.0300002 -1.929 5
11.644 -7.8860002 -1.9349999 7
13.243 -8.9399996 -1.934 9
15.398 -10.368 -1.942 9
18.299 -12.298 -1.947 6
9.4379997 -6.4759998 -1.923 7
10.546 -7.2020001 -1.931 6
11.882 -8.0830002 -1.934 7
13.53 -9.1739998 -1.929 9
15.823 -10.701 -1.9400001 8
18.922001 -12.772 -1.946 5
9.5869999 -6.605 -1.919 7
10.764 -7.381 -1.933 6
12.122 -8.2790003 -1.929 7
13.942 -9.4910002 -1.938 10
16.312 -11.075 -1.943 7
19.634001 -13.305 -1.949 5
9.7919998 -6.77 -1.926 7
10.987 -7.5609999 -1.934 6
12.436 -8.5240002 -1.9349999 8
14.276 -9.7530003 -1.933 10
16.885 -11.505 -1.949 6
20.408001 -13.879 -1.951 4
9.9890003 -6.9289999 -1.929 6
11.219 -7.7459998 -1.934 6
12.717 -8.7449999 -1.933 8
14.733 -10.097 -1.941 9
17.431 -11.915 -1.947 6
21.336 -14.555 -1.961 4
10.206 -7.0999999 -1.933 7
11.456 -7.9320002 -1.932 7
13.04 -8.993 -1.932 9
15.164 -10.422 -1.941 9
18.056999 -12.378 -1.949 4
22.26 -15.229 -1.961 4
10.44 -7.2820001 -1.938 6
11.697 -8.1190004 -1.928 7
13.415 -9.2740002 -1.938 9
15.616 -10.76 -1.939 8
18.83 -12.939 -1.962 5
23.129999 -15.862 -1.951 3
10.675 -7.461 -1.941 6
11.971 -8.3269997 -1.928 7
13.766 -9.5369997 -1.9349999 10
16.158001 -11.156 -1.944 6
19.476999 -13.411 -1.9529999 4
24.124001 -16.577 -1.939 3
10.899 -7.631 -1.939 6
12.273 -8.552 -1.929 8
14.178 -9.8389997 -1.939 10
16.737 -11.575 -1.949 5
20.42 -14.084 -1.969 4
25.365999 -17.459999 -1.9400001 3
11.158 -7.822 -1.9400001 6
12.592 -8.7860003 -1.9299999 8
14.648 -10.178 -1.9450001 10
17.389999 -12.042 -1.956 5
21.27 -14.689 -1.966 4
26.701 -18.400999 -1.936 4
11.415 -8.0100002 -1.939 7
12.936 -9.0340004 -1.9299999 9
15.095 -10.498 -1.943 10
17.979 -12.461 -1.95 5
22.243999 -15.375 -1.966 4
28.004999 -19.318001 -1.9170001 1
11.687 -8.2060003 -1.938 7
13.309 -9.2989998 -1.932 9
15.621 -10.87 -1.948 7
18.676001 -12.951 -1.95 5
23.177 -16.028 -1.956 3
29.931 -20.656 -1.929 1
11.977 -8.4099998 -1.936 7
13.683 -9.5620003 -1.929 9
16.121 -11.22 -1.943 6
19.447001 -13.488 -1.951 4
24.238001 -16.764999 -1.944 3
0 0 0 0
12.303 -8.6370001 -1.937 8
14.117 -9.8629999 -1.932 10
16.752001 -11.656 -1.951 6
20.368999 -14.124 -1.96 4
0 0 0 0
34.335999 -23.693001 -1.9299999 1
12.635 -8.8649998 -1.937 8
14.596 -10.192 -1.936 10
17.365 -12.075 -1.949 6
21.472 -14.879 -1.977 4
27.003 -18.66 -1.944 5
36.619999 -25.252001 -1.9069999 4
12.997 -9.1099997 -1.937 9
15.086 -10.523 -1.937 8
18.086 -12.564 -1.954 6
22.389 -15.499 -1.967 4
28.298 -19.535999 -1.919 1
40.182999 -27.681 -1.927 4
13.416 -9.3900003 -1.942 9
15.611 -10.874 -1.939 8
18.82 -13.055 -1.955 5
23.33 -16.128 -1.9529999 3
29.919001 -20.625999 -1.905 0
42.469002 -29.216 -1.859 1
13.82 -9.6569996 -1.9400001 9
16.172001 -11.246 -1.939 6
19.635 -13.597 -1.955 4
24.354 -16.806999 -1.934 2
0 0 0 0
53.499001 -36.737999 -2.1199999 3
14.29 -9.9630003 -1.9450001 10
16.837 -11.683 -1.946 7
20.701 -14.305 -1.973 4
25.833 -17.790001 -1.943 1
34.428001 -23.642 -1.901 1
53.530998 -36.682999 -1.892 7
14.774 -10.275 -1.946 10
17.475 -12.095 -1.9450001 5
21.604 -14.891 -1.967 4
0 0 0 0
36.709 -25.145 -1.873 4
57.257999 -39.138 -1.786 8
15.305 -10.613 -1.948 9
18.162001 -12.534 -1.943 5
22.518 -15.477 -1.954 4
28.931 -19.816 -1.9299999 1
40.130001 -27.41 -1.877 6
59.866001 -40.804001 -1.617 16
15.874 -10.973 -1.952 7
18.959 -13.042 -1.946 5
23.580999 -16.155001 -1.946 4
0 0 0 0
42.558998 -28.975 -1.812 3
60.585999 -41.160999 -1.3839999 11
16.434 -11.318 -1.949 7
19.819 -13.584 -1.948 4
24.672001 -16.841 -1.928 3
0 0 0 0
53.449001 -36.257 -2.0480001 7
60.862999 -41.200001 -1.133 67
17.159 -11.771 -1.959 6
20.892 -14.263 -1.962 4
0 0 0 0
35.258999 -23.891001 -1.901 1
53.595001 -36.213001 -1.826 23
60.978001 -41.112 -0.87800002 22
17.833 -12.179 -1.9579999 5
21.882 -14.874 -1.96 4
27.910999 -18.893999 -1.941 1
37.737 -25.458 -1.873 1
53.765999 -36.171001 -1.607 23
53.909 -36.192001 -0.55199999 50
18.611 -12.651 -1.96 5
22.837 -15.45 -1.946 3
0 0 0 0
40.132 -26.945999 -1.822 3
53.929001 -36.110001 -1.383 76
53.993 -36.077 -0.32600001 32
19.424 -13.137 -1.96 4
23.965 -16.131001 -1.937 3
32.254002 -21.622999 -1.966 1
0 0 0 0
54.060001 -36.014999 -1.161 46
70.539001 -46.896 -0.13500001 24
20.41 -13.728 -1.971 4
25.267 -16.915001 -1.934 3
0 0 0 0
53.505001 -35.553001 -1.974 8
0 0 0 0
70.678001 -46.736 0.162 15
21.409 -14.318 -1.973 4
0 0 0 0
36.081001 -23.92 -1.891 1
53.959999 -35.650002 -1.768 15
0 0 0 0
65.768997 -43.242001 0.41499999 14
22.497999 -14.954 -1.975 4
28.410999 -18.796 -1.9299999 1
37.612 -24.783001 -1.811 3
57.497002 -37.757999 -1.642 6
0 0 0 0
66.220001 -43.276001 0.69099998 26
23.462 -15.494 -1.957 4
0 0 0 0
41.966999 -27.475 -1.848 3
64.378998 -42.006001 -1.573 12
85.836998 -55.855 -0.42699999 20
65.134003 -42.292999 0.94199997 11
24.521999 -16.084999 -1.942 3
0 0 0 0
52.922001 -34.414001 -2.1070001 4
64.901001 -42.063999 -1.319 6
79.942001 -51.671001 -0.068999998 9
65.272003 -42.101002 1.205 14
0 0 0 0
0 0 0 0
52.928001 -34.175999 -1.891 10
74.889999 -48.194 -1.2180001 68
79.809998 -51.220001 0.25 11
72.299004 -46.303001 1.6210001 30
0 0 0 0
38.707001 -24.906 -1.975 6
56.812 -36.410999 -1.791 14
0 0 0 0
74.657997 -47.560001 0.53500003 12
72.556 -46.123001 1.919 23
0 0 0 0
38.708 -24.712 -1.813 8
58.044998 -36.910999 -1.591 6
90.280998 -57.220001 -0.73299998 21
72.600998 -45.889 0.81 16
72.675003 -45.839001 2.2079999 30
0 0 0 0
41.826 -26.488001 -1.786 5
0 0 0 0
78.831001 -49.562 -0.324 6
72.799004 -45.643002 1.095 21
72.691002 -45.479 2.4879999 31
33.09 -20.872999 -1.92 1
52.618 -33.041 -2.0339999 3
0 0 0 0
0 0 0 0
72.769997 -45.242001 1.383 35
60.808998 -37.723 2.3139999 3
0 0 0 0
52.620998 -32.752998 -1.823 8
50.761002 -31.472 -0.78299999 19
84.127998 -51.987 0.31200001 14
61.034 -37.613998 1.392 6
61.139 -37.599998 2.559 6
39.523998 -24.488001 -1.9680001 8
50.813 -31.341 -1.554 57
50.835999 -31.235001 -0.58399999 45
84.513 -51.752998 0.63499999 7
61.448002 -37.527 1.631 8
72.959 -44.462002 3.323 41
39.674 -24.349001 -1.817 8
50.928001 -31.117001 -1.358 79
0 0 0 0
62.831001 -38.115002 0.71499997 7
61.567001 -37.249001 1.8660001 34
73.556 -44.409 3.622 17
42.681 -25.938999 -1.784 1
51.804001 -31.343 -1.179 4
0 0 0 0
62.165001 -37.342999 0.94099998 23
0 0 0 0
74.174004 -44.346001 3.921 23
52.080002 -31.330999 -1.973 3
62.341 -37.34 -1.182 3
62.777 -37.456001 -0.0040000002 5
62.208 -36.994999 1.169 31
74.973 -44.466 2.8210001 17
0 0 0 0
51.631001 -30.740999 -1.755 6
62.633999 -37.126999 -0.94700003 67
62.758999 -37.056 0.228 13
62.408001 -36.729 1.4 29
75.661003 -44.410999 3.1129999 31
53.112999 -31.110001 3.181 11
51.625 -30.407 -1.558 8
0 0 0 0
63.276001 -36.963001 0.465 11
62.445999 -36.362999 1.625 40
52.929001 -30.738001 2.3659999 16
84.57 -49.013 5.3569999 17
58.369999 -34.002998 -1.546 4
0 0 0 0
63.442001 -36.654999 0.69099998 20
52.884998 -30.455999 1.561 20
62.479 -35.887001 3.006 16
52.567001 -30.129999 3.507 9
52.723 -30.365999 -1.199 11
52.741001 -30.243999 -0.222 55
52.812 -30.169001 0.75800002 49
52.736 -30.028999 1.7359999 23
62.618 -35.562 3.221 14
80.543999 -45.646 5.6370001 19
52.835999 -30.079 -1.013 77
111.289 -63.084 -0.075999998 21
64.362 -36.345001 1.147 12
94.033997 -52.929001 3.415 25
0 0 0 0
85.296997 -47.783001 6.2459998 19
82.661003 -46.505001 -1.296 19
82.980003 -46.478001 0.226 16
89.500999 -49.945 1.89 30
0 0 0 0
54.373001 -30.162001 3.1500001 7
75.650002 -41.875999 5.776 7
83.135002 -46.198002 -1.0140001 38
101.016 -55.895 0.61900002 23
83.024002 -45.765999 2.0320001 11
83.016998 -45.611 3.55 14
82.93 -45.439999 5.0679998 20
54.950001 -30.047001 4.3629999 6
56.185001 -30.830999 -0.49700001 4
90.228996 -49.303001 0.84799999 7
90.723 -49.384998 2.51 10
90.819 -49.282001 4.1680002 68
85.503998 -46.271999 5.4860001 18
57.130001 -30.851 4.7090001 27
56.191002 -30.441999 -0.30899999 17
90.470001 -48.805 1.1440001 17
90.257004 -48.506001 2.7839999 38
73.712997 -39.487 3.6140001 7
73.926003 -39.498001 4.967 32
48.692001 -25.957001 4.1550002 22
111.304 -59.507999 -0.257 35
90.758003 -48.319 1.431 19
74.103996 -39.303001 2.5109999 18
91.964996 -48.618999 4.7820001 11
86.153 -45.426998 6.0380001 12
48.388 -25.459 4.2680001 32
52.004002 -27.431999 0.044 23
74.382004 -39.071999 1.403 36
74.867996 -39.182999 2.7590001 9
74.999001 -39.124001 4.1170001 13
74.002998 -38.5 5.3979998 9
48.353001 -25.098 4.3979998 47
51.924999 -27.014 0.20200001 44
74.817001 -38.757 1.636 21
74.491997 -38.446999 2.9630001 12
85.073997 -43.765999 4.9120002 9
48.02 -24.636999 3.6359999 40
48.969002 -25.07 4.5869999 41
0 0 0 0
94.968002 -48.506001 2.3499999 20
96.259003 -48.98 4.1030002 32
83.085999 -42.144001 5.0240002 23
48.213001 -24.388 3.779 51
49.231998 -24.848 4.7410002 33
82.838997 -41.882 0.815 6
95.720001 -48.192001 2.641 20
76.051003 -38.145 3.4519999 7
96.570999 -48.275002 6.099 23
48.874001 -24.364 3.9579999 43
49.124001 -24.437 4.8530002 22
116.744 -58.158001 1.475 30
95.481003 -47.362 2.8970001 8
95.356003 -47.125999 4.579 21
96.191002 -47.382999 6.3260002 21
48.580002 -23.864 4.0570002 15
49.775002 -24.396 5.0380001 34
117.4 -57.608002 1.801 17
0 0 0 0
95.265999 -46.370998 4.8210001 31
51.702 -25.086 3.5280001 6
48.798 -23.611 4.1929998 40
49.925999 -24.105 5.1729999 4
123.014 -59.450001 2.211 14
95.335999 -45.876999 3.3859999 27
95.586998 -45.827999 5.0710001 30
51.088001 -24.413 3.609 18
50.995998 -24.304001 4.4990001 27
52.168999 -24.805 5.5229998 21
61.721001 -29.365 1.268 26
96.182999 -45.566002 3.6489999 15
51.903 -24.495001 2.8770001 6
51.008999 -23.993999 3.72 25
51.240002 -24.034 4.6360002 12
52.640999 -24.636999 5.6869998 35
61.841 -28.952999 1.4220001 8
96.496002 -44.984001 3.8970001 19
96.037003 -44.604 5.5469999 29
51.979 -24.061001 3.9089999 35
51.967999 -23.990999 4.8140001 9
52.311001 -24.093 5.7620001 42
62.203999 -28.649 1.576 39
52.129002 -23.908001 2.221 40
52.280998 -23.886 3.1340001 26
52.082001 -23.718 4.0250001 46
50.323002 -22.849001 4.7670002 48
52.528999 -23.797001 5.8909998 4
52.250999 -23.667 1.444 30
62.188 -28.046 2.7909999 35
97.219002 -43.673 6.0370002 32
52.492001 -23.504 4.1659999 14
50.654999 -22.615999 4.8979998 55
53.528 -23.841 6.1059999 34
63.148998 -28.115 1.8839999 28
63.120998 -27.983999 2.964 13
97.620003 -43.112 6.263 25
52.007999 -22.893999 4.2309999 7
51.078999 -22.422001 5.0349998 60
53.411999 -23.389 6.1900001 33
0 0 0 0
63.362999 -27.611 3.1029999 29
99.370003 -43.130001 6.5630002 23
52.104 -22.537001 4.335 7
51.16 -22.063999 5.1360002 35
53.02 -22.813 6.2350001 27
118.339 -50.872002 4.0120001 12
101.326 -43.368 5.158 9
120.491 -51.369999 8.1870003 12
51.401001 -21.837 4.368 28
50.926998 -21.573999 5.1989999 15
53.292 -22.525 6.3559999 36
119.855 -50.599998 4.2940001 17
0 0 0 0
121.162 -50.735001 8.4449997 17
51.483002 -21.483 4.4640002 47
51.299999 -21.346001 5.322 10
53.250999 -22.099001 6.4330001 36
119.586 -49.558998 4.4970002 17
120.938 -49.898998 6.5869999 17
121.923 -50.113998 8.698 23
51.088001 -20.924999 4.5100002 57
54.287998 -22.171 5.7129998 29
53.393002 -21.75 6.5289998 38
121.631 -49.462002 4.7789998 17
121.644 -49.248001 6.822 12
86.502998 -34.886002 6.3039999 8
51.311001 -20.621 4.605 20
0 0 0 0
53.688999 -21.457001 6.638 13
121.209 -48.352001 4.96 17
0 0 0 0
53.580002 -21.195999 3.9849999 30
53.292 -21.007999 4.8590002 28
52.991001 -20.827 5.724 5
0 0 0 0
53.32 -20.860001 2.2620001 72
0 0 0 0
85.177002 -33.041 6.447 19
85.435997 -33.022999 7.8969998 36
86.891998 -33.48 9.4910002 40
0 0 0 0
0 0 0 0
0 0 0 0
0 0 0 0
85.964996 -32.561001 8.0539999 29
87.652 -33.091 9.6750002 26
0 0 0 0
0 0 0 0
87.297997 -32.639999 5.3800001 6
85.674004 -31.900999 6.6989999 13
86.561996 -32.117001 8.2040005 42
88.057999 -32.566002 9.8140001 9
0 0 0 0
0 0 0 0
88.620003 -32.445999 5.5609999 18
89.522003 -32.639999 7.0939999 20
87.620003 -31.827 8.3929996 20
89.014 -32.227001 10.005 15
0 0 0 0
89.025002 -32.049999 4.2249999 20
0 0 0 0
84.476997 -30.141001 6.777 29
84.832001 -30.158001 8.2019997 36
89.542 -31.726 10.138 6
56.216 -19.860001 7.2979999 23
0 0 0 0
89.121002 -31.24 5.7719998 14
84.845001 -29.611 6.8800001 26
84.625999 -29.421 8.2519999 14
89.702003 -31.084999 10.224 18
56.063999 -19.370001 7.3169999 51
87.632004 -30.181 4.3239999 9
89.407997 -30.646999 5.8639998 20
75.160004 -25.652 6.1539998 4
86.636002 -29.459 8.5100002 18
56.895 -19.282 6.5219998 8
56.237999 -19.000999 7.3730001 31
88.572998 -29.82 4.4429998 46
74.628998 -25.01 4.9489999 4
74.524002 -24.865999 6.1529999 40
75.264 -25.011 7.4369998 12
56.146 -18.594999 6.4660001 21
56.112999 -18.525999 7.3839998 26
90.676003 -29.826 4.6090002 6
74.650002 -24.440001 4.9970002 17
74.418999 -24.256001 6.1849999 39
75.363998 -24.466 7.4879999 12
53.806999 -17.405001 6.223 23
53.238998 -17.165001 7.027 12
88.497002 -28.419001 4.5500002 11
74.848999 -23.919001 5.0510001 23
55.529999 -17.669001 4.6409998 2
55.757999 -17.669001 5.5619998 44
52.974998 -16.726 6.145 23
54.097 -17.027 7.1570001 34
99.033997 -31.039 5.138 11
55.616001 -17.344 3.7750001 6
55.529999 -17.242001 4.6599998 63
55.173 -17.059999 5.52 28
53.098 -16.358999 6.171 34
53.653 -16.476 7.1079998 43
89.301003 -27.302999 4.6690001 15
75.996002 -23.122999 5.184 6
55.959 -16.947001 4.7119999 15
56.397999 -17.011 5.6550002 11
53.587002 -16.099001 6.2379999 56
54.688999 -16.377001 7.2519999 31
0 0 0 0
79.518997 -23.587999 5.4429998 24
73.514 -21.704 6.204 28
73.387001 -21.577 7.368 37
53.494999 -15.665 6.2290001 52
54.321999 -15.855 7.2020001 59
76.358002 -22.181 4.0250001 6
73.813004 -21.330999 5.0599999 12
73.749001 -21.214001 6.2270002 17
73.555 -21.066 7.3839998 44
53.842999 -15.359 6.2680001 48
54.713001 -15.551 7.25 39
78.717003 -22.267 4.1560001 6
73.924004 -20.799 5.0669999 15
73.244003 -20.507 6.1810002 27
73.362999 -20.452999 7.3569999 36
54.285999 -15.072 6.3109999 12
54.137001 -14.978 7.1609998 17
100.608 -27.693001 5.3060002 21
75.504997 -20.676001 5.1690001 14
73.156998 -19.934 6.1630001 35
73.884003 -20.040001 7.3959999 32
54.423 -14.7 6.3140001 8
54.058998 -14.549 7.1360002 4
76.25 -20.41 4.0089998 10
79.990997 -21.294001 5.46 5
74.032997 -19.608999 6.2179999 13
73.728996 -19.441 7.3579998 40
75.417999 -19.801001 8.7229996 12
0 0 0 0
76.572998 -19.919001 4.0079999 10
79.878998 -20.664 5.4299998 5
74.110001 -19.070999 6.198 25
74.370003 -19.042 7.3920002 33
0 0 0 0
57.278 -14.546 7.5089998 29
115.602 -29.188999 6.0100002 41
76.974998 -19.326 5.2010002 8
75.129997 -18.767 6.2509999 6
74.639999 -18.554001 7.3829999 40
75.204002 -18.607 8.6219997 19
57.110001 -14.075 7.4520001 33
113.422 -27.787001 5.842 14
78.636002 -19.153999 5.2719998 11
76.515999 -18.541 6.322 13
75.511002 -18.205999 7.4219999 38
58.290001 -13.992 6.6459999 14
55.810001 -13.336 7.2449999 45
112.583 -26.74 5.7329998 25
78.780998 -18.601 5.2309999 4
76.707001 -18.011999 6.2859998 21
57.063 -13.333 5.5669999 17
57.699001 -13.417 6.5339999 24
55.575001 -12.867 7.1690001 62
113.517 -26.121 5.7059999 35
77.375 -17.697001 5.0840001 4
77.274002 -17.577999 6.2750001 20
57.821999 -13.084 5.5960002 4
55.331001 -12.457 6.2179999 27
55.234001 -12.382 7.0739999 59
117.024 -26.061001 5.789 37
79.897003 -17.683001 5.1820002 18
59.935001 -13.192 4.8140001 20
57.845001 -12.662 5.5440001 6
56.612999 -12.33 6.309 59
55.450001 -12.023 7.0479999 56
115.602 -24.902 5.6170001 18
58.832001 -12.593 3.7620001 3
58.728001 -12.496 4.6609998 2
57.113998 -12.085 5.4180002 48
57.536999 -12.114 6.3530002 37
56.098 -11.752 7.0679998 33
59.956001 -12.472 2.8529999 12
116.804 -24.141001 7.3470001 36
80.013 -16.436001 6.2639999 5
57.776001 -11.8 5.415 34
57.674999 -11.714 6.2979999 11
55.824001 -11.281 6.9660001 51
115.553 -23.181999 5.3699999 35
116.759 -23.275 7.21 38
60.671001 -12.018 4.677 5
0 0 0 0
56.428001 -11.056 6.0929999 37
55.848999 -10.885 6.8979998 54
115.386 -22.311001 5.2210002 42
115.62 -22.209999 6.994 38
117.118 -22.353001 8.8769999 33
0 0 0 0
58.706001 -11.075 6.2579999 39
57.602001 -10.808 7.033 25
114.9 -21.392 5.0500002 26
0 0 0 0
0 0 0 0
0 0 0 0
57.504002 -10.432 6.0450001 47
58.182999 -10.499 7.0159998 21
114.963 -20.579 4.8870001 48
115.851 -20.589001 6.6830001 10
0 0 0 0
0 0 0 0
57.298 -9.9879999 5.9349999 66
57.683998 -9.9960003 6.8649998 28
115.503 -19.846001 4.7319999 44
0 0 0 0
0 0 0 0
0 0 0 0
57.439999 -9.6020002 5.8540001 22
58.362 -9.6960001 6.8460002 29
114.461 -18.85 4.5 39
115.054 -18.802 6.263 33
0 0 0 0
0 0 0 0
60.714001 -9.7180004 6.0799999 26
0 0 0 0
114.443 -18.045 4.303 7
114.519 -17.914 6.033 39
116.696 -18.115999 7.915 39
0 0 0 0
61.213001 -9.368 6.0149999 31
59.035999 -8.9750004 6.7049999 27
67.621002 -10.189 2.4170001 34
66.990997 -10.011 3.4030001 3
115.075 -17.062 7.585 46
0 0 0 0
60.294998 -8.8100004 5.8080001 6
58.722 -8.5209999 6.5539999 31
67.444 -9.6929998 2.28 41
66.637001 -9.493 3.2520001 34
117.404 -16.594 7.5019999 26
0 0 0 0
60.938 -8.4799995 5.743 23
58.702999 -8.1120005 6.4289999 40
66.834999 -9.1440001 2.1210001 48
66.349998 -9 3.102 10
118.356 -15.918 7.316 19
60.939999 -8.1309996 4.6890001 19
59.459999 -7.8709998 5.4770002 4
58.021 -7.6220002 6.2280002 62
66.630997 -8.6599998 1.969 41
66.290001 -8.5360003 2.9530001 45
65.792 -8.3959999 3.9200001 4
61.237999 -7.75 4.5739999 24
59.222 -7.4330001 5.3200002 37
57.981998 -7.2189999 6.0900002 34
62.200001 -7.658 1.696 6
67.198997 -8.1940002 2.8380001 16
62.289001 -7.5240002 3.566 26
61.728001 -7.3889999 4.4640002 13
59.625 -7.0739999 5.2140002 6
58.153 -6.8439999 5.9689999 48
67.485001 -7.8499999 1.679 45
62.242001 -7.1669998 2.4790001 10
84.013 -9.5790005 4.6059999 33
83.749001 -9.4619999 5.8530002 25
61.796001 -6.9200001 5.2519999 6
57.896999 -6.4250002 5.7979999 64
68 -7.4569998 1.525 27
68.027 -7.3839998 2.5420001 38
83.804001 -9.0030003 4.3870001 39
70.75 -7.5240002 4.7670002 8
62.541 -6.5840001 5.1550002 6
58 -6.0500002 5.658 50
68.749001 -7.0830002 1.363 13
68.273003 -6.9559999 2.372 50
71.085999 -7.1659999 3.5339999 39
71.036003 -7.085 4.598 23
59.591999 -5.882 4.7550001 47
58.076 -5.677 5.5120001 8
72.042 -6.9510002 1.237 13
67.834999 -6.4699998 2.1760001 15
71.350998 -6.7270002 3.3559999 5
85.088997 -7.9359999 5.2789998 16
60.061001 -5.539 4.6290002 7
60.040001 -5.48 5.5339999 57
83.629997 -7.526 1.2029999 42
82.980003 -7.3779998 2.4300001 16
72.760002 -6.3870001 3.217 32
73.088997 -6.3410001 4.3270001 40
65.905998 -5.6500001 4.8920002 36
59.515999 -5.0430002 5.3140001 49
83.783997 -7.0009999 0.96499997 9
84.165001 -6.9390001 2.2219999 26
0 0 0 0
0 0 0 0
0 0 0 0
59.571999 -4.6690001 5.145 31
89.486 -6.9070001 0.764 19
84.287003 -6.4130001 1.973 32
95.628998 -7.178 3.6659999 23
96.978996 -7.178 5.1680002 12
68.724998 -5.0170002 4.6929998 12
60.972 -4.3930001 5.0809999 9
0 0 0 0
0 0 0 0
0 0 0 0
0 0 0 0
0 0 0 0
60.817001 -3.9949999 4.875 49
0 0 0 0
81.052002 -5.1459999 1.387 29
0 0 0 0
0 0 0 0
65.009003 -3.927 4.0250001 3
65.265999 -3.878 5.02 24
69.527 -4.0549998 -0.071000002 31
80.954002 -4.632 1.117 30
81.426003 -4.5749998 2.336 12
0 0 0 0
65.123001 -3.527 3.8139999 9
65.560997 -3.487 4.823 5
69.410004 -3.6159999 -0.30899999 58
80.935997 -4.1290002 0.83899999 31
80.978996 -4.0479999 2.0450001 39
0 0 0 0
66.540001 -3.1960001 3.6700001 5
64.799004 -3.049 4.5440001 28
32.66 -1.5 -0.25999999 7
65.846001 -2.957 0.45199999 3
65.747002 -2.8889999 1.432 42
65.473 -2.8110001 2.4030001 33
65.845001 -2.76 3.398 5
65.934998 -2.7 4.3899999 15
32.438 -1.294 -0.375 51
117.273 -4.559 0.38299999 61
81.771004 -3.0969999 1.484 21
0 0 0 0
0 0 0 0
64.929001 -2.266 4.0869999 28
32.243999 -1.091 -0.49399999 65
118.286 -3.888 -0.052999999 39
81.792999 -2.6070001 1.1799999 27
125.407 -3.8740001 3.681 11
125.991 -3.7650001 5.5760002 49
0 0 0 0
32.192001 -0.89700001 -0.61699998 60
96.166 -2.585 -0.41299999 18
0 0 0 0
124.405 -3.1059999 3.1760001 34
124.628 -2.987 5.04 38
125.058 -2.878 6.927 20
32.23 -0.70899999 -0.74299997 63
84.670998 -1.7819999 -0.69400001 5
131.819 -2.6459999 0.88300002 40
126.848 -2.424 2.743 29
123.506 -2.247 4.5180001 37
125.895 -2.171 6.4879999 21
32.394001 -0.52600002 -0.87699997 60
80.928001 -1.235 -0.986 6
90.570999 -1.2920001 0.244 8
68.093002 -0.90700001 1.199 3
67.850998 -0.84200001 2.21 32
67.691002 -0.77600002 3.217 10
32.617001 -0.34099999 -1.017 4
69.281998 -0.662 -1.127 14
69.280998 -0.597 -0.093000002 33
67.532997 -0.51499999 0.91399997 37
67.290001 -0.44999999 1.9170001 18
67.123001 -0.38600001 2.915 31
32.063 -0.153 -1.136 13
44.226002 -0.17200001 -0.90600002 32
74.152 -0.219 -0.41100001 64
84.291 -0.17299999 0.79299998 16
66.726997 -0.072999999 1.623 34
124.71 -0.02 4.8990002 34
26.156 0.02 -1.039 7
38.339001 0.064999998 -0.94999999 5
74.221001 0.19499999 -0.73100001 42
78.281998 0.27500001 0.40099999 6
126.352 0.565 2.5339999 21
125.732 0.67400002 4.4050002 21
25.584999 0.161 -1.1289999 39
38.912998 0.28 -1.135 10
0 0 0 0
76.416 0.68900001 0.057 41
126.152 1.249 1.9859999 15
126.46 1.368 3.8829999 37
0 0 0 0
39.234001 0.495 -1.319 15
67.502998 0.91000003 -1.257 4
76.100998 1.098 -0.27900001 45
113.76 1.74 1.288 32
126.305 2.0469999 3.3210001 22
22.256001 0.38 -1.184 58
35.036999 0.63 -1.3380001 1
39.834 0.75099999 -0.92400002 4
73.689003 1.4529999 -0.602 42
76.639 1.58 0.52200001 6
126.02 2.7160001 2.743 48
21.805 0.48800001 -1.262 59
25.924 0.60299999 -1.11 25
26.343 0.63499999 -0.73299998 1
73.653 1.842 -0.94300002 56
76.575996 1.983 0.167 17
129.521 3.4649999 2.2290001 17
21.667999 0.59799999 -1.357 73
24.379 0.69400001 -1.16 62
26.021 0.76200002 -0.84600002 63
26.24 0.79100001 -0.458 46
69.216003 2.1500001 -0.17200001 9
69.230003 2.2090001 0.86799997 22
21.681 0.70999998 -1.4630001 62
22.006001 0.73900002 -1.153 51
25.841999 0.889 -0.96399999 66
25.909 0.91299999 -0.57599998 53
26.370001 0.95099998 -0.189 29
78.530998 2.9030001 0.61400002 3
21.742001 0.82200003 -1.575 67
21.608999 0.83399999 -1.238 57
25.662001 1.013 -1.084 66
25.702999 1.035 -0.69700003 59
25.844 1.063 -0.31200001 60
78.144997 3.2809999 0.233 29
21.677 0.92799997 -1.6799999 55
21.570999 0.94 -1.344 53
24.712999 1.097 -1.166 73
25.615999 1.16 -0.82200003 46
25.598 1.1799999 -0.43599999 56
26.024 1.222 -0.050000001 44
21.599001 1.031 -1.785 48
21.506001 1.043 -1.449 57
21.882999 1.0779999 -1.143 47
25.393 1.272 -0.94199997 57
25.424999 1.294 -0.55800003 55
25.632999 1.326 -0.176 59
21.419001 1.125 -1.881 14
21.431 1.142 -1.5549999 66
21.514999 1.163 -1.234 58
25.337999 1.3890001 -1.068 56
25.422001 1.415 -0.68699998 45
25.459999 1.438 -0.303 55
20.497999 1.174 -1.909 16
21.41 1.243 -1.6670001 63
21.360001 1.256 -1.337 62
24.337 1.45 -1.153 38
25.186001 1.521 -0.81199998 61
25.284 1.5470001 -0.43200001 60
19.309999 1.197 -1.903 13
21.481001 1.348 -1.788 47
21.343 1.354 -1.449 57
21.847 1.403 -1.151 18
25.080999 1.631 -0.94 67
25.132 1.655 -0.56099999 60
18.247999 1.215 -1.898 12
21.221001 1.428 -1.881 21
21.313 1.45 -1.563 65
21.334999 1.4680001 -1.239 54
25.025 1.742 -1.072 67
25.042 1.762 -0.69199997 56
17.211 1.225 -1.888 11
20.094 1.444 -1.8940001 15
21.295 1.546 -1.6799999 57
21.207001 1.5549999 -1.348 68
24.073999 1.784 -1.163 74
25.107 1.88 -0.83099997 51
16.296 1.233 -1.88 10
18.952999 1.446 -1.893 13
21.285999 1.6390001 -1.7970001 45
21.188 1.647 -1.4630001 59
21.349001 1.675 -1.148 29
24.896 1.972 -0.958 66
15.445 1.235 -1.87 9
17.816999 1.437 -1.881 11
20.959999 1.705 -1.8890001 16
21.187 1.738 -1.582 68
21.127001 1.749 -1.2539999 59
24.736 2.066 -1.09 56
14.68 1.237 -1.863 11
16.833 1.429 -1.874 10
19.775999 1.692 -1.895 14
21.146999 1.825 -1.7 57
21.235001 1.848 -1.381 50
23.288 2.0439999 -1.1569999 59
13.965 1.2359999 -1.8559999 11
15.916 1.419 -1.867 9
18.615 1.671 -1.893 12
21.120001 1.91 -1.819 28
21.08 1.921 -1.4910001 55
21.229 1.95 -1.175 55
13.341 1.235 -1.853 12
15.098 1.4069999 -1.86 11
17.431 1.636 -1.874 11
20.584999 1.946 -1.8940001 16
21.076 2.007 -1.613 56
20.959 2.01 -1.281 63
12.77 1.235 -1.852 12
14.337 1.3940001 -1.852 12
16.489 1.614 -1.873 10
19.320999 1.904 -1.893 14
21.139999 2.0969999 -1.742 49
20.927999 2.0910001 -1.402 62
12.21 1.229 -1.847 12
13.639 1.381 -1.847 12
15.58 1.586 -1.863 9
18.122 1.8559999 -1.883 12
20.952999 2.1589999 -1.851 15
20.964001 2.175 -1.527 66
11.718 1.224 -1.845 12
13.043 1.37 -1.845 13
14.792 1.562 -1.859 11
17.017 1.808 -1.8710001 10
20.086 2.1470001 -1.895 15
21.002001 2.2579999 -1.654 61
11.269 1.22 -1.846 12
12.473 1.357 -1.8430001 12
14.049 1.536 -1.852 11
16.056 1.765 -1.863 9
18.853001 2.0840001 -1.891 13
20.957001 2.3299999 -1.776 47
10.848 1.215 -1.846 12
11.944 1.3430001 -1.84 12
13.384 1.512 -1.848 13
15.193 1.726 -1.857 11
17.625999 2.013 -1.877 11
20.635 2.369 -1.874 15
10.452 1.209 -1.847 12
11.453 1.329 -1.8380001 13
12.794 1.492 -1.848 13
14.397 1.686 -1.85 11
16.525 1.946 -1.863 10
19.49 2.3069999 -1.891 14
10.079 1.201 -1.847 12
11.022 1.319 -1.841 13
12.198 1.465 -1.84 11
13.693 1.652 -1.847 11
15.633 1.8940001 -1.86 9
18.211 2.2179999 -1.88 12
9.7329998 1.193 -1.848 12
10.61 1.3049999 -1.841 13
11.686 1.443 -1.839 13
13.046 1.618 -1.8430001 13
14.793 1.8430001 -1.854 11
17.082001 2.138 -1.87 11
9.3830004 1.182 -1.845 12
10.222 1.2920001 -1.842 12
11.226 1.423 -1.839 13
12.469 1.587 -1.841 12
14.032 1.793 -1.847 11
16.080999 2.0639999 -1.862 9
9.0869999 1.174 -1.848 11
9.8559999 1.277 -1.842 12
10.805 1.405 -1.842 13
11.908 1.554 -1.837 12
13.355 1.749 -1.845 13
15.157 1.994 -1.852 10
8.7869997 1.164 -1.848 12
9.5209999 1.2640001 -1.844 11
10.396 1.3839999 -1.842 12
11.416 1.526 -1.837 12
12.7 1.7029999 -1.8380001 12
14.356 1.933 -1.847 11
8.4980001 1.152 -1.846 11
9.1870003 1.248 -1.842 11
10.015 1.364 -1.842 12
10.978 1.5 -1.839 13
12.135 1.664 -1.835 12
13.606 1.872 -1.84 12
8.2410002 1.142 -1.848 10
8.8839998 1.234 -1.8430001 12
9.6639996 1.345 -1.8430001 12
10.546 1.472 -1.837 12
11.621 1.627 -1.835 13
12.96 1.821 -1.837 14
7.9980001 1.131 -1.85 11
8.5979996 1.219 -1.8430001 11
9.3190002 1.324 -1.841 11
10.178 1.449 -1.842 12
11.164 1.594 -1.836 12
12.372 1.773 -1.834 12
7.7620001 1.12 -1.85 10
8.3269997 1.2029999 -1.8430001 11
9.0139999 1.3049999 -1.8430001 12
9.7869997 1.421 -1.8380001 12
10.731 1.562 -1.8380001 12
11.826 1.727 -1.832 12
7.5300002 1.107 -1.849 11
8.0740004 1.189 -1.844 11
