# .PCD v0.7 - Point Cloud Data file format
VERSION 0.7
FIELDS x y z intensity
SIZE 4 4 4 4
TYPE F F F F
COUNT 1 1 1 1
WIDTH 1924
HEIGHT 1
VIEWPOINT 0 0 0 1 0 0 0
POINTS 1924
DATA ascii
11.958 -1.864 -1.91 12
13.537 -2.0940001 -1.914 13
15.624 -2.401 -1.927 9
18.525999 -2.8269999 -1.952 13
22.513 -3.415 -1.973 18
11.104 -1.6950001 -1.911 12
12.446 -1.885 -1.913 12
14.165 -2.1289999 -1.92 11
16.431 -2.4519999 -1.932 10
19.552 -2.8989999 -1.95 14
23.853001 -3.5150001 -1.957 20
11.508 -1.705 -1.911 12
12.949 -1.903 -1.914 13
14.776 -2.155 -1.918 12
17.320999 -2.5079999 -1.937 11
20.892 -3.0039999 -1.965 16
25.639999 -3.6630001 -1.96 11
11.949 -1.716 -1.914 12
13.468 -1.918 -1.913 12
15.491 -2.1889999 -1.9220001 10
18.360001 -2.575 -1.95 12
22.233 -3.096 -1.969 18
27.591 -3.8169999 -1.959 14
12.4 -1.723 -1.914 12
14.037 -1.9349999 -1.914 11
16.309999 -2.2290001 -1.932 10
19.409 -2.6329999 -1.954 14
23.594 -3.177 -1.961 20
28.193001 -3.7709999 -1.851 28
12.925 -1.735 -1.921 11
14.657 -1.951 -1.916 12
17.177 -2.2679999 -1.939 11
20.641001 -2.7030001 -1.966 15
25.104 -3.2639999 -1.952 10
28.408001 -3.6659999 -1.714 56
13.412 -1.737 -1.9170001 12
15.337 -1.969 -1.919 10
18.097 -2.303 -1.944 12
21.881001 -2.7620001 -1.967 17
27.236 -3.411 -1.973 9
28.264 -3.5139999 -1.558 72
13.965 -1.74 -1.919 11
16.076 -1.985 -1.923 9
19.124001 -2.3410001 -1.951 13
23.292 -2.8269999 -1.97 20
28.277 -3.404 -1.9 28
28.319 -3.3829999 -1.414 77
14.543 -1.7410001 -1.919 12
16.893999 -2.0039999 -1.931 10
20.261 -2.381 -1.96 15
24.736 -2.8800001 -1.962 15
23.943001 -2.7650001 -1.4859999 0
28.495001 -3.2639999 -1.279 62
15.184 -1.742 -1.921 12
17.804001 -2.0220001 -1.9400001 12
21.523001 -2.4219999 -1.97 17
23.938999 -2.6689999 -1.777 0
23.785 -2.6289999 -1.3559999 63
0 0 0 0
15.905 -1.744 -1.928 9
18.709 -2.0309999 -1.942 13
22.853001 -2.4560001 -1.975 19
23.716 -2.5239999 -1.64 15
23.636 -2.4920001 -1.229 70
32.382 -3.3840001 -1.133 38
16.679001 -1.744 -1.936 10
19.754999 -2.0420001 -1.949 14
23.639 -2.4189999 -1.924 14
23.563 -2.3859999 -1.512 58
23.634001 -2.3710001 -1.114 14
35.189999 -3.497 -1.0599999 9
17.52 -1.7410001 -1.944 11
20.871 -2.05 -1.954 16
23.620001 -2.2950001 -1.806 25
23.493999 -2.2579999 -1.3940001 63
28.965 -2.7539999 -1.226 63
41.528999 -3.9100001 -1.054 10
18.351999 -1.726 -1.9450001 13
22.089001 -2.053 -1.96 18
23.346001 -2.145 -1.6720001 62
23.198999 -2.108 -1.267 72
30.49 -2.7409999 -1.148 37
42.375 -3.77 -0.88099998 36
19.372 -1.72 -1.959 14
23.110001 -2.027 -1.941 15
23.202999 -2.0090001 -1.552 59
23.354 -1.998 -1.166 57
32.155998 -2.72 -1.063 38
42.719002 -3.573 -0.69400001 8
20.375 -1.699 -1.962 15
23.264 -1.915 -1.844 49
22.978001 -1.867 -1.431 74
24.033001 -1.929 -1.091 15
0 0 0 0
43.007999 -3.3670001 -0.50800002 14
21.48 -1.674 -1.9680001 17
23.205999 -1.783 -1.732 62
22.801001 -1.728 -1.316 69
29.195 -2.1819999 -1.193 69
41.472 -3.0580001 -0.99900001 1
71.128998 -5.1789999 -0.52700001 90
22.546 -1.633 -1.962 18
22.851 -1.631 -1.603 71
22.851999 -1.6059999 -1.217 62
29.650999 -2.053 -1.082 31
43.625 -2.977 -0.86199999 30
43.752998 -2.944 -0.13600001 42
22.827999 -1.526 -1.8839999 37
22.768999 -1.497 -1.4960001 60
23.469999 -1.5190001 -1.148 58
30.698 -1.956 -0.98900002 53
43.962002 -2.756 -0.68300003 60
44.049 -2.72 0.045000002 10
22.931999 -1.404 -1.7920001 57
22.563 -1.357 -1.385 60
24.458 -1.4450001 -1.092 14
30.563999 -1.775 -0.85600001 49
44.215 -2.523 -0.50400001 8
0 0 0 0
22.410999 -1.245 -1.656 71
22.320999 -1.216 -1.276 75
30.738001 -1.641 -1.245 23
30.497999 -1.597 -0.72899997 56
58.731998 -3.017 -0.43099999 88
88.481003 -4.4569998 0.81099999 50
22.26 -1.108 -1.552 68
22.474001 -1.095 -1.192 68
30.698999 -1.4630001 -1.119 34
30.605 -1.428 -0.61000001 51
44.921001 -2.0510001 -0.153 41
97.813004 -4.3709998 1.275 22
22.118999 -0.97399998 -1.4529999 77
23.326 -1.003 -1.145 76
30.459999 -1.277 -0.991 49
30.774 -1.258 -0.49399999 5
45.198002 -1.802 0.017999999 5
97.240997 -3.779 1.638 7
21.988001 -0.83899999 -1.3559999 75
24.344999 -0.903 -1.1 30
30.472 -1.099 -0.87400001 76
45.313999 -1.587 -0.55400002 5
0 0 0 0
79.865997 -2.6340001 1.643 40
21.923 -0.70599997 -1.267 65
25.271 -0.787 -1.044 1
30.955 -0.93199998 -0.77100003 52
68.334999 -1.988 -0.58200002 50
79.846001 -2.2379999 0.62900001 27
79.625 -2.154 1.927 37
22.223 -0.58200002 -1.2 71
32.061001 -0.80500001 -1.205 37
31.181 -0.75 -0.66100001 70
68.234001 -1.574 -0.333 64
79.778999 -1.758 0.91299999 27
79.968002 -1.683 2.2179999 35
23.171 -0.46799999 -1.1670001 74
31.290001 -0.59799999 -1.064 36
31.122 -0.56300002 -0.551 67
68.569 -1.17 -0.094999999 28
81.07 -1.303 1.206 10
64.757004 -0.97100002 2.0190001 37
24.266001 -0.34200001 -1.136 43
30.878 -0.403 -0.94300002 63
31.158001 -0.37400001 -0.44400001 69
64.589996 -0.70899999 0.13 58
64.676003 -0.64200002 1.182 3
116.094 -1.028 4.0089998 23
25.087 -0.198 -1.087 22
30.825001 -0.211 -0.83499998 82
31.295 -0.18099999 -0.33899999 31
0 0 0 0
80.709999 -0.30199999 1.7410001 41
0 0 0 0
25.736 -0.044 -1.03 0
30.889999 -0.021 -0.73500001 76
84.697998 0.027000001 -0.64700001 7
0 0 0 0
0 0 0 0
123.725 0.43000001 5.0599999 35
31.249001 0.142 -1.149 35
31.065001 0.17299999 -0.64099997 65
94.671997 0.62699997 -0.42300001 21
0 0 0 0
123.372 1.071 3.4300001 89
122.973 1.2029999 5.4070001 39
31.052 0.33700001 -1.045 60
31.292999 0.37099999 -0.54900002 54
89.708 1.156 -0.12899999 34
0 0 0 0
122.354 1.835 3.766 37
66.819 1.073 3.1329999 5
31.396999 0.53799999 -0.963 29
71.407997 1.299 -1.041 12
83.033997 1.598 0.123 9
0 0 0 0
66.335999 1.4170001 2.2320001 45
66.289001 1.487 3.2969999 73
35.877998 0.847 -0.995 5
66.056999 1.628 -0.77200001 49
66.042999 1.697 0.28600001 96
65.783997 1.757 1.34 13
65.625999 1.8200001 2.3889999 35
123.729 3.5639999 6.4910002 35
36.768002 1.104 -0.917 2
68.040001 2.1140001 -0.60900003 8
128.99699 4.1420002 0.91000003 12
123.409 4.0929999 2.8469999 11
123.14 4.21 4.8119998 38
124.032 4.375 6.835 30
43.292 1.582 -0.963 27
72.871002 2.7379999 -0.458 65
143.10201 5.52 1.382 150
125.09 4.9520001 3.2060001 20
123.684 5.0289998 5.1490002 11
125.266 5.2290001 7.2189999 20
66.089996 2.848 -1.3 10
74.905998 3.302 -0.28099999 45
112.35 5.0700002 1.369 32
125.238 5.7789998 3.5220001 17
126.23 5.96 5.566 16
126.317 6.1020002 7.5890002 21
70.969002 3.5239999 -1.222 10
72.504997 3.6719999 -0.096000001 12
124.345 6.427 1.812 9
125.252 6.6110001 3.8239999 34
124.684 6.7150002 5.7950001 16
125.803 6.908 7.8530002 36
72.295998 4.0679998 -1.075 64
75.245003 4.3140001 0.075999998 25
128.259 7.487 2.1670001 12
124.863 7.415 4.0939999 32
124.554 7.5310001 6.0669999 30
126.715 7.796 8.191 16
25.268 1.591 -0.31799999 0
67.817001 4.3390002 0.219 57
67.816002 4.4089999 1.294 39
68.127998 4.5009999 2.382 15
67.718002 4.5469999 3.4449999 19
0 0 0 0
24.99 1.743 -0.26100001 57
76.890999 5.4369998 0.41 20
126.443 9.0769997 2.6800001 12
67.192001 4.8909998 2.4890001 7
68.060997 5.0279999 3.602 6
0 0 0 0
24.695 1.888 -0.208 64
0 0 0 0
126.521 9.9280005 2.9300001 12
126.648 10.072 4.9380002 21
68.042999 5.4850001 3.7320001 6
65.955002 5.388 4.665 4
24.487 2.039 -0.15899999 66
135.27901 11.399 1.249 10
125.683 10.725 3.148 44
0 0 0 0
0 0 0 0
66.252998 5.8670001 4.8080001 26
24.362 2.1960001 -0.114 70
149.326 13.606 1.646 13
133.91499 12.339 3.589 13
131.661 12.276 5.612 13
74.453003 7.0190001 4.3509998 10
66.091003 6.3049998 4.9109998 15
24.243 2.3510001 -0.072999999 72
128.192 12.564 1.6289999 29
130.09599 12.884 3.7030001 38
133.418 13.354 5.9039998 13
74.160004 7.5029998 4.454 36
64.805 6.6300001 4.9190001 62
24.184999 2.5139999 -0.034000002 71
128.701 13.502 1.836 56
129.69099 13.737 3.891 22
0 0 0 0
73.871002 7.9819999 4.5500002 42
65.194 7.119 5.0479999 45
24.145 2.6789999 0.001 63
128.22501 14.352 2.0179999 30
129.757 14.654 4.0819998 17
0 0 0 0
74.467003 8.566 4.691 42
0 0 0 0
24.155001 2.849 0.034000002 70
127.554 15.17 2.1800001 38
128.241 15.375 4.2059999 42
129.002 15.601 6.2620001 17
65.764999 8.0249996 4.23 10
65.487999 8.066 5.2480001 30
24.195 3.0250001 0.064000003 65
127.119 16.02 2.3310001 35
128.93201 16.371 4.388 22
94.666 12.119 4.711 22
74.649002 9.6379995 4.8920002 17
65.422997 8.5209999 5.322 45
24.264 3.2049999 0.092 61
127.59 16.976999 2.4820001 38
76.086998 10.206 2.675 40
75.171997 10.158 3.825 11
73.950996 10.074 4.9289999 13
65.899002 9.0489998 5.4330001 54
24.347 3.391 0.117 66
75.950996 10.649 1.5549999 34
75.601997 10.675 2.733 20
80.068001 11.389 4.1529999 37
73.220001 10.494 4.954 55
65.636002 9.4820004 5.4770002 4
24.421 3.5769999 0.14 52
85.671997 12.629 1.832 32
85.278999 12.65 3.1600001 91
74.260002 11.096 3.9189999 12
73.374001 11.04 5.0279999 40
71.903 10.901 6.0630002 47
24.504 3.766 0.16 35
85.32 13.189 1.893 150
75.780998 11.788 2.869 7
81.764 12.803 4.3800001 14
72.779999 11.472 5.0450001 15
72.122002 11.45 6.138 46
24.735001 3.9779999 0.17900001 8
108.964 17.624001 2.4909999 96
90.146004 14.667 3.473 8
109.448 17.915001 5.9349999 28
71.850998 11.841 5.0300002 16
72.463997 12.019 6.2150002 41
43.334999 7.2839999 0.33899999 61
0 0 0 0
108.064 18.364 4.2259998 15
109.412 18.704 5.9970002 24
73.010002 12.56 5.151 10
71.634003 12.402 6.1849999 48
33.525002 5.8800001 0.278 42
147.88699 26.063 3.5369999 16
107.972 19.131001 4.2729998 22
75.862 13.518 4.1929998 10
75.033997 13.448 5.3299999 39
73.892998 13.328 6.4159999 36
32.693001 5.9720001 0.28200001 39
33.66 6.1760001 0.81599998 21
109.373 20.165001 4.3660002 26
75.184998 13.937 4.1820002 21
75.435997 14.061 5.3839998 36
79.907997 14.986 6.9660001 13
32.209999 6.1160002 0.285 55
32.918999 6.2789998 0.80500001 41
122.074 23.403999 4.9029999 28
116.331 22.413 6.5009999 10
88.207001 17.089001 6.3189998 22
79.302002 15.454 6.934 20
31.865 6.2870002 0.28600001 57
32.25 6.388 0.79400003 55
33.597 6.6859999 1.353 25
0 0 0 0
89.07 17.910999 6.3940001 33
80.865997 16.35 7.0830002 7
31.552999 6.4580002 0.28400001 58
31.919001 6.559 0.78600001 54
32.888 6.7880001 1.326 41
0 0 0 0
89.224998 18.593 6.4070001 34
0 0 0 0
31.295 6.6350002 0.278 56
31.591 6.7249999 0.77600002 58
32.393002 6.9229999 1.304 40
0 0 0 0
0 0 0 0
0 0 0 0
31.083 6.8210001 0.27000001 55
31.371 6.9089999 0.76300001 61
31.99 7.072 1.281 55
33.402 7.4169998 1.864 1
0 0 0 0
0 0 0 0
30.896 7.0100002 0.259 59
31.195999 7.1020002 0.75 52
31.721001 7.2490001 1.261 53
32.912998 7.552 1.826 10
2.589 0.59600002 0.184 0
0 0 0 0
23.195 5.4369998 0.184 26
19.985001 4.6989999 0.472 54
19.957001 4.7090001 0.78500003 73
32.546001 7.7090001 1.793 29
0 0 0 0
0 0 0 0
22.856001 5.527 0.169 48
19.851999 4.8140001 0.458 70
19.808001 4.8200002 0.76899999 72
19.780001 4.8299999 1.08 14
0 0 0 0
0 0 0 0
19.799999 4.9349999 0.133 101
19.719 4.928 0.442 71
19.674 4.9320002 0.75099999 63
19.659 4.9450002 1.061 13
0 0 0 0
0 0 0 0
22.426001 5.757 0.134 50
19.587999 5.0409999 0.42500001 64
19.577999 5.0539999 0.73299998 90
31.719 8.217 1.6900001 38
0 0 0 0
0 0 0 0
22.254 5.8800001 0.113 57
22.806 6.0419998 0.47600001 48
30.665001 8.1459999 1.124 57
31.481001 8.3900003 1.652 44
111.487 29.823 7.619 34
0 0 0 0
22.172001 6.0250001 0.090999998 47
22.599001 6.1550002 0.44999999 52
30.540001 8.3400002 1.09 54
31.233999 8.5559998 1.609 38
111.05 30.524 7.4879999 27
0 0 0 0
22.073 6.1630001 0.067000002 37
22.424999 6.276 0.42199999 47
30.42 8.5349998 1.054 59
31.052999 8.7390003 1.568 47
92.632004 26.157 6.152 15
115.83 32.831001 9.54 8
21.913 6.2870002 0.039999999 50
22.291 6.4070001 0.39300001 44
30.299999 8.7309999 1.015 61
30.875 8.9219999 1.524 41
87.343002 25.320999 5.7030001 41
86.942001 25.291 7.0669999 10
21.945999 6.461 0.011 35
22.358999 6.5960002 0.366 41
22.761 6.7290001 0.73400003 9
30.759001 9.1190004 1.4809999 46
88.021004 26.174999 5.6420002 21
83.949997 25.051001 6.7220001 32
21.773001 6.5749998 -0.018999999 53
22.143 6.6999998 0.33000001 45
22.857 6.9299998 0.70499998 20
30.593 9.3000002 1.432 47
31.854 9.7119999 1.999 2
83.342003 25.492001 6.5669999 24
21.698999 6.7179999 -0.052000001 54
22.02 6.829 0.296 49
22.764999 7.073 0.66900003 31
30.525 9.507 1.3839999 51
31.858 9.9510002 1.955 7
80.748001 25.301001 6.2509999 28
21.608999 6.8540001 -0.086999997 51
21.947001 6.9710002 0.26100001 52
22.614 7.1960001 0.62900001 26
30.379999 9.6890001 1.331 55
31.479 10.065 1.8839999 16
79.541 25.511999 6.0370002 27
21.639999 7.026 -0.124 41
21.870001 7.1100001 0.222 56
22.690001 7.3899999 0.59299999 20
30.318001 9.8940001 1.278 54
31.445999 10.288 1.83 39
79.388 26.051001 5.8969998 18
21.622999 7.1849999 -0.16500001 38
21.955 7.303 0.183 39
22.547001 7.513 0.54900002 28
30.256001 10.102 1.222 53
31.306 10.478 1.768 40
79.397003 26.646 5.7639999 12
21.594 7.3379998 -0.207 41
21.867001 7.4390001 0.14 46
22.455 7.652 0.50400001 30
30.195 10.308 1.164 42
31.136999 10.655 1.701 38
79.614998 27.315001 5.6360002 25
21.566999 7.494 -0.25099999 46
21.870001 7.605 0.096000001 41
22.431 7.8099999 0.45899999 37
30.271 10.558 1.107 36
31.070999 10.861 1.638 39
79.299004 27.788 5.4640002 30
21.818001 7.744 -0.301 34
21.839001 7.7589998 0.048999999 41
22.509001 8.007 0.414 27
30.211 10.763 1.044 36
30.886999 11.026 1.566 38
79.379997 28.409 5.3109999 20
21.587 7.8260002 -0.347 51
21.847 7.9239998 0.001 41
22.561001 8.1920004 0.36500001 11
30.122 10.955 0.97500002 55
30.93 11.272 1.503 37
82.234001 30.039 5.3319998 23
21.787001 8.0640001 -0.40200001 35
21.937 8.1230001 -0.048999999 41
22.638 8.3909998 0.31400001 7
30.112 11.176 0.90700001 51
30.879999 11.482 1.431 39
82.309998 30.671 5.1550002 13
21.796 8.2320004 -0.456 34
22.059999 8.335 -0.104 40
29.881001 11.3 0.34299999 51
30.188 11.43 0.83700001 47
30.889999 11.714 1.36 38
87.811996 33.372002 5.2989998 9
21.864 8.4230003 -0.514 35
22.334 8.6070004 -0.162 34
29.945999 11.547 0.27000001 54
30.24 11.674 0.76499999 40
30.959 11.97 1.288 39
86.242996 33.412998 4.9980001 19
22.193001 8.7159996 -0.58099997 33
30.098 11.821 -0.29699999 44
30.15 11.848 0.19400001 50
30.299999 11.919 0.68900001 48
31.107 12.255 1.216 40
84.747002 33.453999 4.704 11
30.566999 12.234 -0.88499999 38
30.289 12.123 -0.382 50
30.204 12.094 0.112 51
30.403 12.185 0.611 35
31.334999 12.574 1.1440001 41
84.505997 33.972 4.473 21
30.739 12.531 -0.97899997 29
30.533001 12.447 -0.47099999 38
30.461 12.422 0.028999999 48
30.653 12.512 0.53200001 38
31.693001 12.951 1.072 39
84.058998 34.407001 4.2249999 18
24.222 10.057 -0.84500003 1
30.882999 12.819 -0.56800002 39
30.73 12.759 -0.057999998 39
30.966 12.866 0.44999999 35
86.124001 35.82 2.675 8
83.291 34.695 3.9590001 19
24.264999 10.255 -0.92000002 9
31.927999 13.488 -0.68300003 42
31.136999 13.155 -0.152 33
31.978001 13.518 0.37099999 43
0 0 0 0
0 0 0 0
24.237 10.421 -0.99599999 19
23.389999 10.053 -0.57200003 4
41.074001 17.650999 -0.324 42
113.797 48.924999 0.986 15
113.676 48.916 2.868 20
94.734001 40.818001 3.9579999 10
23.212999 10.153 -1.03 24
22.954 10.035 -0.63599998 42
23.195 10.139 -0.257 33
94.510002 41.319 0.52499998 52
94.555 41.369999 2.095 10
99.153999 43.433998 3.8429999 8
0 0 0 0
22.726999 10.101 -0.70499998 37
22.995001 10.217 -0.33000001 23
23.176001 10.298 0.052999999 27
107.177 47.660999 2.0369999 25
0 0 0 0
20.275 9.1669998 -1.038 19
22.466 10.149 -0.77399999 36
22.502001 10.16 -0.398 42
22.732 10.266 -0.022 40
23.309 10.531 0.36700001 3
103.446 46.785 3.3570001 13
19.098 8.7749996 -1.046 48
22.384001 10.274 -0.84899998 45
22.316999 10.237 -0.47099999 32
22.462 10.303 -0.097000003 34
22.849001 10.483 0.28400001 38
99.317001 45.606998 2.8970001 15
18.361 8.5690002 -1.071 58
22.297001 10.394 -0.92500001 32
22.181 10.333 -0.546 31
22.296 10.383 -0.17299999 24
22.566999 10.512 0.20299999 36
23.367001 10.893 0.60299999 2
18.082001 8.5690002 -1.123 45
22.129999 10.475 -0.99900001 41
21.957001 10.384 -0.62 44
22.077 10.437 -0.25 28
22.239 10.515 0.123 39
22.92 10.843 0.51300001 22
18.023001 8.6689997 -1.188 45
21.514 10.334 -1.052 32
21.843 10.482 -0.69700003 48
22.004999 10.556 -0.32800001 26
22.049 10.577 0.044 38
22.518 10.807 0.42500001 35
18.028999 8.8009996 -1.2589999 47
19.853001 9.6750002 -1.046 44
21.921 10.672 -0.78100002 25
21.964001 10.687 -0.40900001 21
21.979 10.693 -0.037 27
22.195 10.803 0.33899999 36
18.038 8.9309998 -1.331 45
18.639999 9.2150002 -1.0549999 33
21.768 10.747 -0.85799998 35
21.797001 10.754 -0.48800001 21
21.811001 10.758 -0.117 36
22.042 10.874 0.257 36
18.009001 9.0419998 -1.4 47
18.08 9.0609999 -1.094 49
21.941999 10.982 -0.95099998 23
21.653 10.83 -0.56800002 46
21.705 10.851 -0.198 39
21.9 10.95 0.17299999 34
18.145 9.2370005 -1.487 37
18.028 9.1599998 -1.165 44
21.371 10.842 -1.013 32
21.643 10.968 -0.653 34
21.708 10.996 -0.28299999 35
21.721001 11.004 0.088 41
18.052999 9.3149996 -1.556 45
17.955999 9.2440004 -1.234 49
20.483 10.528 -1.053 27
21.837 11.211 -0.745 29
21.559999 11.062 -0.36500001 38
21.622 11.093 0.0040000002 40
18.157 9.4919996 -1.642 38
17.975 9.375 -1.311 44
18.275 9.5139999 -1.015 17
21.544001 11.202 -0.82300001 36
21.531 11.186 -0.44999999 29
21.552 11.195 -0.079000004 39
18.076 9.5690002 -1.7130001 26
17.959999 9.4849997 -1.386 47
18.065001 9.5220003 -1.079 44
21.554001 11.345 -0.912 35
21.745001 11.437 -0.54299998 22
21.499001 11.303 -0.16500001 39
17.93 9.6110001 -1.778 9
18.006001 9.6269999 -1.4680001 46
17.954 9.5799999 -1.149 52
21.298 11.347 -0.991 41
21.396999 11.389 -0.62400001 40
21.464001 11.419 -0.252 37
17.518999 9.5059996 -1.816 14
18.083 9.7860003 -1.554 41
17.973 9.7049999 -1.228 45
20.722 11.17 -1.052 43
21.381001 11.513 -0.71200001 42
21.481001 11.56 -0.34200001 29
16.782 9.2139997 -1.816 13
18.025 9.868 -1.63 37
17.945999 9.802 -1.3049999 45
0 0 0 0
21.417999 11.664 -0.80500001 44
21.431999 11.663 -0.43200001 40
16.077 8.9300003 -1.814 12
18.049 9.9949999 -1.714 19
18.01 9.9490004 -1.39 46
18.062 9.9589996 -1.074 46
21.464001 11.819 -0.89899999 43
21.43 11.789 -0.52200001 40
15.422 8.6630001 -1.812 11
17.877001 10.01 -1.779 10
18.042 10.076 -1.473 39
17.966 10.013 -1.148 52
21.309 11.859 -0.98500001 34
21.457001 11.93 -0.61500001 42
14.804 8.408 -1.8099999 10
17.323999 9.8059998 -1.8049999 14
17.988001 10.154 -1.551 42
17.924999 10.096 -1.226 49
20.681 11.628 -1.048 43
21.399 12.018 -0.70700002 40
14.209 8.1549997 -1.8049999 9
16.545 9.4639997 -1.801 13
18.132999 10.342 -1.646 39
17.969999 10.224 -1.3099999 54
0 0 0 0
21.464001 12.176 -0.80400002 39
13.707 7.9489999 -1.807 9
15.842 9.1540003 -1.8 12
18.032 10.388 -1.721 15
18.104 10.402 -1.403 36
18.030001 10.34 -1.075 38
21.483999 12.302 -0.89899999 44
13.188 7.7249999 -1.802 8
15.212 8.8760004 -1.799 11
17.834 10.373 -1.785 15
18.386999 10.666 -1.5089999 45
17.975 10.405 -1.153 45
21.594999 12.481 -1 33
12.682 7.5 -1.796 8
14.59 8.5939999 -1.796 10
17.174 10.082 -1.801 14
18.212 10.662 -1.58 46
17.975 10.499 -1.235 46
20.319 11.85 -1.0319999 40
12.278 7.3299999 -1.799 10
14.008 8.3280001 -1.793 9
16.400999 9.717 -1.798 13
18.108 10.697 -1.656 33
17.986 10.599 -1.319 44
18.777 11.046 -1.04 44
11.876 7.1550002 -1.799 10
13.486 8.0900002 -1.7920001 9
15.724 9.3979998 -1.8 12
18.007 10.729 -1.732 15
18.025999 10.713 -1.406 46
17.997 10.676 -1.08 53
11.48 6.9780002 -1.7970001 9
13.002 7.868 -1.7920001 8
15.071 9.085 -1.798 11
17.740999 10.659 -1.79 15
18.315001 10.975 -1.515 42
17.951 10.735 -1.161 49
11.112 6.8109999 -1.796 10
12.529 7.6440001 -1.789 8
14.478 8.7980003 -1.798 10
16.951 10.266 -1.7920001 14
18.118 10.942 -1.5829999 33
17.997999 10.846 -1.247 46
10.779 6.6609998 -1.796 10
12.118 7.4530001 -1.791 10
13.908 8.5179996 -1.795 9
16.218 9.8979998 -1.7920001 12
18.079 11.001 -1.666 29
18.025999 10.944 -1.3329999 35
10.469 6.52 -1.798 11
11.723 7.2649999 -1.79 10
13.383 8.2580004 -1.7920001 9
15.57 9.5719995 -1.795 11
17.990999 11.026 -1.743 13
18.059 11.04 -1.419 41
10.169 6.381 -1.798 10
11.365 7.0949998 -1.7920001 9
12.909 8.0229998 -1.7920001 8
14.877 9.2089996 -1.7869999 10
17.58 10.847 -1.786 15
18.052 11.11 -1.503 37
9.8760004 6.2410002 -1.796 10
10.997 6.9130001 -1.789 10
12.458 7.7950001 -1.79 7
14.342 8.9379997 -1.791 10
16.82 10.446 -1.789 14
18.132999 11.23 -1.595 38
9.6079998 6.1129999 -1.796 10
10.694 6.7670002 -1.793 11
12.061 7.5949998 -1.7920001 9
13.797 8.6529999 -1.79 9
16.047001 10.029 -1.783 12
18.089001 11.272 -1.675 21
9.3509998 5.9879999 -1.796 11
10.393 6.619 -1.795 10
11.672 7.3969998 -1.7920001 9
13.263 8.368 -1.786 9
15.404 9.6829996 -1.786 11
17.959 11.255 -1.749 9
9.0979996 5.8629999 -1.794 12
10.093 6.467 -1.793 10
11.302 7.204 -1.791 9
12.822 8.1359997 -1.7869999 8
14.85 9.3870001 -1.791 11
17.402 10.964 -1.776 15
8.8940001 5.7649999 -1.799 12
9.8009996 6.3140001 -1.79 10
10.956 7.0209999 -1.789 10
12.401 7.9109998 -1.789 8
14.26 9.0600004 -1.789 10
16.688999 10.568 -1.7819999 13
8.6789999 5.6560001 -1.799 12
9.5450001 6.1830001 -1.791 11
10.646 6.8579998 -1.79 11
12.014 7.7030001 -1.791 9
13.733 8.7679996 -1.788 9
15.978 10.166 -1.781 12
8.4680004 5.5469999 -1.799 11
9.2969999 6.052 -1.7920001 12
10.373 6.7150002 -1.796 10
11.632 7.493 -1.79 9
13.21 8.4729996 -1.7819999 9
15.375 9.8249998 -1.7869999 11
8.2860003 5.454 -1.802 11
9.0609999 5.9260001 -1.791 12
10.077 6.553 -1.794 10
11.256 7.2820001 -1.7869999 9
12.765 8.2209997 -1.783 8
14.726 9.448 -1.78 10
8.1049995 5.3590002 -1.804 11
8.8520002 5.8140001 -1.793 12
9.8039999 6.401 -1.793 11
10.929 7.099 -1.7869999 10
12.38 8.0039997 -1.7869999 9
14.204 9.1470003 -1.783 10
7.9219999 5.2589998 -1.803 11
8.6549997 5.7069998 -1.796 12
9.5389996 6.2519999 -1.791 11
10.63 6.9289999 -1.789 11
11.988 7.7779999 -1.788 10
13.702 8.8540001 -1.784 9
7.7620001 5.1719999 -1.8049999 12
8.4580002 5.5970001 -1.796 12
9.3120003 6.1240001 -1.793 11
10.348 6.7680001 -1.791 11
11.623 7.5640001 -1.788 10
13.23 8.5740004 -1.784 9
7.605 5.085 -1.806 11
8.2729998 5.493 -1.7970001 11
9.0839996 5.993 -1.793 12
10.096 6.6220002 -1.794 11
11.283 7.3639998 -1.7869999 9
12.787 8.309 -1.7819999 8
7.4559999 5.0009999 -1.807 11
8.099 5.3920002 -1.7970001 11
8.8780003 5.8720002 -1.793 12
9.8299999 6.4640002 -1.7920001 10
10.954 7.1659999 -1.785 10
12.392 8.0699997 -1.783 9
7.3070002 4.9130001 -1.806 11
7.9289999 5.2919998 -1.7970001 11
8.6969995 5.7659998 -1.7970001 12
9.5740004 6.3099999 -1.789 11
10.67 6.994 -1.7869999 10
12.036 7.8530002 -1.785 10
7.1739998 4.835 -1.807 11
7.7789998 5.2030001 -1.8 12
8.5030003 5.6490002 -1.796 12
9.3579998 6.178 -1.791 11
10.411 6.836 -1.79 11
11.693 7.6409998 -1.7869999 10
7.04 4.7540002 -1.806 11
7.631 5.1129999 -1.801 12
8.3310003 5.5430002 -1.798 11
9.1470003 6.0479999 -1.793 12
10.166 6.684 -1.793 10
11.378 7.4439998 -1.789 9
6.9330001 4.6890001 -1.811 11
7.4899998 5.026 -1.802 12
8.1639996 5.4390001 -1.798 11
8.9510002 5.9250002 -1.794 13
9.9020004 6.5159998 -1.79 10
11.042 7.23 -1.784 10
6.809 4.6100001 -1.8099999 10
7.3569999 4.941 -1.803 11
8.0179996 5.3449998 -1.802 11
8.7659998 5.8060002 -1.795 12
9.6730003 6.369 -1.79 10
10.773 7.0560002 -1.786 10
6.7030001 4.5419998 -1.811 10
7.2210002 4.8530002 -1.801 11
7.862 5.2449999 -1.801 12
8.5959997 5.6950002 -1.7970001 12
9.4619999 6.2309999 -1.791 11
10.526 6.895 -1.79 12
6.5999999 4.474 -1.813 10
7.105 4.776 -1.803 11
7.7259998 5.1539998 -1.802 12
8.4189997 5.5780001 -1.795 12
9.2539997 6.0929999 -1.791 12
10.281 6.7329998 -1.79 11
6.5139999 4.415 -1.817 10
6.9910002 4.6989999 -1.804 11
7.5929999 5.0640001 -1.803 12
8.2639999 5.473 -1.7970001 11
9.0699997 5.9689999 -1.793 12
10.047 6.5749998 -1.791 10
6.421 4.3499999 -1.819 10
6.8920002 4.6300001 -1.807 11
7.4710002 4.9790001 -1.8049999 12
8.1260004 5.3769999 -1.8 12
8.8889999 5.8439999 -1.793 12
9.8129997 6.415 -1.788 11
6.3280001 4.2839999 -1.818 10
6.7940001 4.5599999 -1.809 10
7.3509998 4.8940001 -1.806 11
7.987 5.2779999 -1.801 11
8.7180004 5.724 -1.793 12
9.6149998 6.276 -1.79 11
6.256 4.2309999 -1.823 10
6.6950002 4.487 -1.8099999 10
7.2319999 4.8070002 -1.8049999 11
7.848 5.178 -1.8 11
8.5570002 5.6090002 -1.793 11
9.4099998 6.131 -1.788 11
6.1820002 4.1739998 -1.826 10
6.6129999 4.4250002 -1.814 11
7.125 4.7280002 -1.806 11
7.7220001 5.085 -1.8 12
8.4250002 5.5110002 -1.7970001 13
9.2329998 6.0029998 -1.789 12
6.1100001 4.1170001 -1.8279999 10
6.527 4.3579998 -1.814 10
7.0320001 4.6550002 -1.809 11
7.6069999 4.9980001 -1.802 12
8.2810001 5.4029999 -1.7970001 11
9.0740004 5.8839998 -1.7920001 13
6.0289998 4.053 -1.826 9
6.4499998 4.2950001 -1.817 10
6.9419999 4.5840001 -1.811 11
7.5040002 4.9169998 -1.8049999 12
8.1540003 5.3049998 -1.799 12
8.9130001 5.7620001 -1.7920001 13
5.921 3.9690001 -1.8150001 10
6.3759999 4.2340002 -1.819 10
6.8540001 4.5120001 -1.813 11
7.3990002 4.8330002 -1.806 11
8.0319996 5.2090001 -1.801 12
8.7690001 5.6500001 -1.794 12
5.8639998 3.918 -1.818 10
6.3070002 4.1739998 -1.821 10
6.7649999 4.4390001 -1.813 11
7.3010001 4.7519999 -1.808 11
7.9229999 5.1199999 -1.804 12
8.6239996 5.5359998 -1.794 13
5.8379998 3.8870001 -1.83 9
6.2399998 4.1149998 -1.823 10
6.6929998 4.375 -1.816 10
7.2059999 4.6719999 -1.808 11
7.8060002 5.0240002 -1.803 12
8.4949999 5.4310002 -1.795 12
5.7389998 3.806 -1.818 10
6.1820002 4.0599999 -1.826 10
6.6139998 4.3049998 -1.816 11
7.1149998 4.5929999 -1.808 11
7.7030001 4.9359999 -1.804 11
8.3809996 5.3340001 -1.798 12
5.6890001 3.757 -1.8200001 9
6.1240001 4.0040002 -1.829 10
6.553 4.2459998 -1.8200001 10
7.039 4.5229998 -1.811 12
7.6110001 4.8530002 -1.806 12
8.2609997 5.2319999 -1.798 12
5.6370001 3.7049999 -1.821 11
6.02 3.9170001 -1.816 11
6.467 4.1700001 -1.8150001 11
6.9679999 4.4549999 -1.814 11
7.5159998 4.7680001 -1.806 12
8.1599998 5.1409998 -1.801 12
5.585 3.651 -1.8200001 11
5.967 3.862 -1.817 10
6.4299998 4.1230001 -1.824 10
6.8969998 4.3850002 -1.8150001 11
7.4380002 4.6929998 -1.809 12
8.0620003 5.0500002 -1.803 12
5.5500002 3.608 -1.824 10
5.908 3.802 -1.816 11
6.3790002 4.0669999 -1.827 10
6.8249998 4.3150001 -1.8150001 11
7.3600001 4.6160002 -1.811 12
7.9569998 4.9549999 -1.801 12
5.506 3.559 -1.825 10
5.8579998 3.7479999 -1.816 11
6.2950001 3.9890001 -1.8200001 11
6.7740002 4.256 -1.8200001 11
7.2839999 4.54 -1.811 12
7.8740001 4.8730001 -1.804 12
5.4640002 3.5090001 -1.825 10
5.8130002 3.6949999 -1.817 10
6.2399998 3.9289999 -1.8200001 11
6.7140002 4.191 -1.821 11
7.2069998 4.4619999 -1.811 11
7.7930002 4.79 -1.806 12
5.4239998 3.46 -1.824 10
5.776 3.6470001 -1.819 11
6.2020001 3.878 -1.824 12
6.6550002 4.125 -1.821 11
7.1440001 4.3920002 -1.813 11
7.7129998 4.7069998 -1.806 11
5.3899999 3.414 -1.826 10
5.7340002 3.5940001 -1.8200001 11
6.152 3.819 -1.824 10
6.6129999 4.0689998 -1.825 11
7.0910001 4.3270001 -1.816 11
7.6490002 4.632 -1.809 12
5.3590002 3.369 -1.827 10
5.6999998 3.546 -1.821 12
6.1009998 3.7590001 -1.822 11
6.5669999 4.0089998 -1.827 11
7.0370002 4.2600002 -1.818 11
7.5809999 4.5549998 -1.8099999 12
5.3330002 3.326 -1.829 10
5.6659999 3.497 -1.822 11
6.0689998 3.7090001 -1.825 11
6.4899998 3.9300001 -1.819 11
6.9949999 4.2010002 -1.822 11
7.5159998 4.4790001 -1.811 12
5.302 3.28 -1.8279999 10
5.631 3.4460001 -1.821 10
6.026 3.652 -1.824 12
6.4489999 3.872 -1.821 12
6.9400001 4.132 -1.821 11
7.4640002 4.4099998 -1.814 12
5.2810001 3.2390001 -1.83 11
5.605 3.401 -1.823 11
5.9879999 3.5969999 -1.823 11
6.414 3.8169999 -1.823 12
6.902 4.073 -1.824 11
7.402 4.3340001 -1.813 11
5.257 3.1949999 -1.83 10
5.5749998 3.352 -1.822 10
5.9489999 3.5409999 -1.822 11
6.3850002 3.7650001 -1.826 11
6.8390002 3.9990001 -1.8200001 13
7.3530002 4.2659998 -1.814 11
5.2379999 3.1530001 -1.832 10
5.5549998 3.3080001 -1.825 11
5.9239998 3.493 -1.824 11
6.342 3.704 -1.823 11
6.8200002 3.9489999 -1.826 11
7.3150001 4.2030001 -1.817 11
5.2160001 3.1099999 -1.831 10
5.5320001 3.2620001 -1.825 11
5.9039998 3.447 -1.826 11
6.3140001 3.651 -1.825 12
6.7659998 3.8789999 -1.822 12
7.2670002 4.1329999 -1.816 11
5.197 3.0669999 -1.831 10
5.5170002 3.22 -1.827 10
5.8779998 3.3959999 -1.826 11
6.29 3.5999999 -1.827 12
6.7210002 3.8139999 -1.8200001 11
7.2340002 4.072 -1.819 11
5.1869998 3.029 -1.8329999 11
5.494 3.1730001 -1.826 11
5.8649998 3.3529999 -1.829 10
6.2600002 3.5450001 -1.826 10
6.6890001 3.7539999 -1.8200001 13
7.204 4.0110002 -1.821 11
5.1669998 2.984 -1.831 10
5.4780002 3.1300001 -1.826 11
5.842 3.303 -1.827 11
6.2410002 3.4960001 -1.827 12
6.6669998 3.701 -1.821 12
7.1760001 3.951 -1.823 11
5.165 2.95 -1.835 10
5.4679999 3.089 -1.8279999 11
5.8319998 3.2609999 -1.831 11
6.2129998 3.4400001 -1.825 11
6.6469998 3.648 -1.823 13
7.1539998 3.8940001 -1.825 11
5.1560001 2.911 -1.836 10
5.454 3.0450001 -1.8279999 10
5.8179998 3.214 -1.831 11
6.204 3.395 -1.829 12
6.6420002 3.602 -1.8279999 11
7.1350002 3.8380001 -1.827 11
5.1469998 2.8710001 -1.836 10
5.448 3.0050001 -1.829 10
5.8060002 3.1689999 -1.831 12
6.1900001 3.346 -1.829 11
6.6090002 3.5409999 -1.824 12
7.112 3.7780001 -1.8279999 11
5.1389999 2.832 -1.836 9
5.4429998 2.9649999 -1.831 11
5.7950001 3.1240001 -1.831 12
6.1820002 3.3010001 -1.831 11
6.5949998 3.49 -1.825 12
7.0939999 3.7219999 -1.8279999 11
5.1370001 2.7950001 -1.836 10
5.4460001 2.9300001 -1.834 11
5.79 3.082 -1.832 12
6.1659999 3.25 -1.829 11
6.592 3.444 -1.8279999 12
7.0479999 3.651 -1.821 12
5.1350002 2.757 -1.837 10
5.4419999 2.8900001 -1.835 11
5.7820001 3.0380001 -1.832 11
6.1659999 3.2079999 -1.832 11
6.5840001 3.3940001 -1.829 12
7.0430002 3.5999999 -1.823 11
5.1329999 2.7190001 -1.837 10
5.441 2.8499999 -1.835 11
5.7820001 2.9979999 -1.834 11
6.1560001 3.1600001 -1.831 11
6.586 3.349 -1.832 12
7.0320001 3.546 -1.823 11
5.1440001 2.688 -1.841 9
5.4429998 2.813 -1.836 12
5.7789998 2.954 -1.8329999 11
6.1599998 3.118 -1.8329999 12
6.5830002 3.302 -1.8329999 12
7.0339999 3.4979999 -1.826 11
5.1399999 2.6489999 -1.839 10
5.447 2.7750001 -1.837 10
5.7870002 2.918 -1.836 11
6.1599998 3.075 -1.834 12
6.5809999 3.2550001 -1.8329999 12
7.0279999 3.4460001 -1.826 12
5.1479998 2.615 -1.84 9
5.4429998 2.734 -1.835 11
5.7839999 2.8740001 -1.835 12
6.1539998 3.0280001 -1.832 12
6.5770001 3.2060001 -1.832 11
7.0240002 3.3940001 -1.826 13
5.1560001 2.5810001 -1.842 10
5.447 2.6949999 -1.835 10
5.79 2.835 -1.835 12
6.1539998 2.983 -1.831 12
6.5780001 3.158 -1.832 12
7.0279999 3.345 -1.826 12
5.1599998 2.5439999 -1.841 10
5.467 2.664 -1.839 11
5.7989998 2.796 -1.837 11
6.1750002 2.947 -1.836 11
6.5939999 3.118 -1.835 12
7.0359998 3.2980001 -1.827 12
5.1680002 2.5079999 -1.84 9
5.4780002 2.628 -1.84 11
5.8099999 2.7579999 -1.837 12
6.184 2.9059999 -1.836 11
6.5910001 3.0680001 -1.832 12
7.052 3.2539999 -1.83 14
5.1810002 2.4749999 -1.841 9
5.4879999 2.592 -1.84 10
5.8249998 2.7219999 -1.839 11
6.184 2.8599999 -1.8329999 12
6.6149998 3.03 -1.836 13
7.0549998 3.204 -1.8279999 12
5.1919999 2.4400001 -1.841 11
5.4990001 2.5550001 -1.84 10
5.8400002 2.684 -1.84 11
6.2150002 2.8280001 -1.839 12
6.6290002 2.9879999 -1.837 12
7.0749998 3.1600001 -1.83 12
5.2059999 2.4070001 -1.842 11
5.5009999 2.5139999 -1.836 10
5.8579998 2.648 -1.841 11
6.2150002 2.7809999 -1.835 11
6.6469998 2.9460001 -1.8380001 12
7.0900002 3.1140001 -1.83 13
5.2270002 2.375 -1.844 10
5.5320001 2.4860001 -1.841 11
5.868 2.608 -1.839 10
6.2399998 2.7449999 -1.837 11
6.6609998 2.902 -1.837 12
7.1090002 3.069 -1.83 11
5.2360001 2.339 -1.841 11
5.553 2.4519999 -1.842 10
5.8889999 2.572 -1.84 11
6.2639999 2.7079999 -1.8380001 12
6.677 2.858 -1.836 12
7.1339998 3.026 -1.831 13
5.2709999 2.313 -1.847 11
5.5710001 2.4170001 -1.842 11
5.9159999 2.5380001 -1.842 11
6.29 2.671 -1.839 12
6.711 2.822 -1.8380001 13
7.1539998 2.9809999 -1.83 12
5.2880001 2.279 -1.846 11
5.5960002 2.3840001 -1.844 10
5.9400001 2.503 -1.842 11
6.3210001 2.6359999 -1.842 12
6.7340002 2.7809999 -1.8380001 12
7.191 2.9419999 -1.832 13
5.3039999 2.244 -1.844 10
5.6149998 2.348 -1.842 11
5.9619999 2.4660001 -1.842 11
6.3299999 2.5910001 -1.837 12
6.7659998 2.743 -1.839 12
7.2249999 2.902 -1.8329999 12
5.3309999 2.214 -1.845 10
5.6459999 2.3169999 -1.844 11
6 2.4349999 -1.845 11
6.3850002 2.5650001 -1.844 12
6.803 2.7060001 -1.84 13
7.27 2.865 -1.836 12
5.3600001 2.1830001 -1.846 10
5.6729999 2.2839999 -1.844 11
6.0310001 2.401 -1.845 12
6.4130001 2.527 -1.8430001 12
6.835 2.6659999 -1.84 13
7.3140001 2.826 -1.8380001 13
5.3889999 2.1530001 -1.847 11
5.7080002 2.253 -1.846 12
6.072 2.3699999 -1.848 11
6.4380002 2.487 -1.84 12
6.882 2.632 -1.842 12
7.3559999 2.7869999 -1.8380001 13
5.415 2.1199999 -1.846 10
5.73 2.217 -1.8430001 11
6.0939999 2.332 -1.845 11
6.4689999 2.4489999 -1.839 12
6.927 2.5969999 -1.8430001 12
7.3860002 2.743 -1.834 13
5.4489999 2.0910001 -1.846 10
5.7610002 2.1849999 -1.842 11
6.138 2.302 -1.847 12
6.5149999 2.4170001 -1.841 13
6.967 2.559 -1.8430001 13
7.4489999 2.711 -1.8380001 14
5.4840002 2.062 -1.848 10
5.8070002 2.1570001 -1.846 11
6.1750002 2.2690001 -1.847 11
6.5689998 2.388 -1.845 13
7.006 2.5220001 -1.841 13
7.5019999 2.674 -1.839 14
5.526 2.0350001 -1.85 11
5.8460002 2.1270001 -1.846 11
6.2179999 2.237 -1.848 12
6.612 2.3540001 -1.844 12
7.066 2.49 -1.844 13
7.5710001 2.642 -1.842 13
5.5669999 2.006 -1.852 11
5.8909998 2.098 -1.848 12
6.2659998 2.2060001 -1.849 13
6.6560001 2.319 -1.8430001 12
7.1209998 2.4560001 -1.844 13
7.6139998 2.5999999 -1.8380001 12
5.6059999 1.977 -1.852 11
5.9239998 2.0639999 -1.845 11
6.3010001 2.171 -1.846 12
6.7220001 2.2909999 -1.847 13
7.1599998 2.415 -1.84 13
7.678 2.5650001 -1.839 13
5.638 1.944 -1.849 10
5.9720001 2.036 -1.846 11
6.3590002 2.1429999 -1.848 12
6.7709999 2.257 -1.846 12
7.2410002 2.3889999 -1.845 13
7.7610002 2.5350001 -1.842 13
5.6849999 1.9170001 -1.85 10
6.0250001 2.0079999 -1.848 11
6.4109998 2.112 -1.849 13
6.8309999 2.2260001 -1.846 13
7.3010001 2.3540001 -1.845 13
7.8119998 2.494 -1.837 12
5.7360001 1.89 -1.852 10
6.073 1.977 -1.847 11
6.4699998 2.0829999 -1.85 12
6.9029999 2.197 -1.85 11
7.381 2.325 -1.848 13
7.9089999 2.467 -1.8430001 13
5.7839999 1.8609999 -1.852 11
6.1240001 1.947 -1.847 12
6.5170002 2.0480001 -1.847 11
6.9759998 2.1689999 -1.852 13
7.4569998 2.2939999 -1.848 13
7.9829998 2.431 -1.841 13
5.849 1.8380001 -1.857 11
6.1830001 1.92 -1.849 11
6.5890002 2.0220001 -1.85 11
7.0339999 2.1340001 -1.849 13
7.5279999 2.26 -1.847 12
8.0780001 2.401 -1.8430001 15
5.8979998 1.808 -1.8559999 10
6.244 1.891 -1.849 11
6.6500001 1.9910001 -1.849 12
7.1090002 2.105 -1.851 13
7.612 2.23 -1.848 13
8.1719999 2.3699999 -1.8430001 13
5.947 1.779 -1.853 12
6.3080001 1.864 -1.85 12
6.717 1.962 -1.849 11
7.1890001 2.076 -1.852 13
7.7049999 2.201 -1.85 13
8.2950001 2.345 -1.85 13
6.0079999 1.752 -1.855 11
6.368 1.834 -1.849 11
6.7950001 1.934 -1.851 12
7.2729998 2.0469999 -1.853 15
7.7849998 2.168 -1.848 14
8.3950005 2.3139999 -1.849 12
6.073 1.726 -1.8559999 11
6.4419999 1.808 -1.851 11
6.8790002 1.908 -1.854 12
7.3590002 2.0179999 -1.853 14
7.9050002 2.1440001 -1.854 14
8.4969997 2.2809999 -1.847 14
6.1329999 1.697 -1.855 11
6.5100002 1.779 -1.851 11
6.9629998 1.881 -1.855 12
7.4460001 1.988 -1.853 12
8 2.1129999 -1.852 14
8.6149998 2.2520001 -1.848 12
6.1989999 1.67 -1.854 11
6.592 1.7539999 -1.853 11
7.04 1.851 -1.853 13
7.5430002 1.961 -1.854 12
8.1140003 2.086 -1.854 12
8.7550001 2.227 -1.852 14
6.2740002 1.645 -1.8559999 11
6.6700001 1.727 -1.853 11
7.1389999 1.826 -1.857 12
7.6529999 1.9349999 -1.857 14
8.2379999 2.0599999 -1.857 13
8.868 2.1930001 -1.849 13
6.349 1.619 -1.8559999 12
6.7360001 1.696 -1.849 11
7.2280002 1.798 -1.8559999 13
7.7709999 1.911 -1.86 11
8.3559999 2.0309999 -1.857 13
9.0080004 2.1659999 -1.85 13
6.4380002 1.596 -1.86 12
6.8369999 1.674 -1.853 11
7.3270001 1.772 -1.857 13
7.868 1.88 -1.858 12
8.4809999 2.003 -1.857 13
9.151 2.138 -1.849 13
6.5050001 1.567 -1.857 12
6.9419999 1.651 -1.857 11
7.4260001 1.745 -1.857 13
7.9990001 1.857 -1.8609999 12
8.6169996 1.977 -1.858 13
9.3140001 2.1129999 -1.852 13
6.6030002 1.544 -1.86 12
7.0320001 1.623 -1.8559999 11
7.546 1.72 -1.859 11
8.1280003 1.831 -1.863 12
8.7589998 1.949 -1.858 13
9.4779997 2.086 -1.852 14
6.6849999 1.517 -1.859 11
7.171 1.6059999 -1.867 10
7.677 1.697 -1.864 13
8.2370005 1.8 -1.859 12
8.8999996 1.9220001 -1.857 13
9.6549997 2.0610001 -1.852 14
6.7859998 1.493 -1.8609999 11
7.243 1.573 -1.858 11
7.7859998 1.669 -1.862 12
8.382 1.775 -1.8609999 12
9.0509996 1.8940001 -1.8559999 13
9.8319998 2.0339999 -1.851 14
6.881 1.467 -1.86 12
7.388 1.554 -1.867 10
7.9159999 1.643 -1.863 11
8.5209999 1.748 -1.86 12
9.2209997 1.868 -1.8559999 13
10.029 2.0090001 -1.852 13
6.9959998 1.444 -1.863 11
7.5110002 1.529 -1.868 11
8.0609999 1.62 -1.8660001 12
8.6809998 1.723 -1.8609999 12
9.3999996 1.8430001 -1.857 13
10.24 1.984 -1.852 13
7.1009998 1.418 -1.863 11
7.631 1.503 -1.868 11
8.1890001 1.592 -1.863 11
8.8450003 1.698 -1.862 13
9.5869999 1.818 -1.8559999 13
10.463 1.96 -1.852 14
7.2340002 1.396 -1.868 12
7.7589998 1.477 -1.868 11
8.3479996 1.568 -1.865 12
9.0089998 1.671 -1.86 12
9.7930002 1.794 -1.857 14
10.695 1.936 -1.851 13
7.355 1.3710001 -1.868 12
7.8860002 1.45 -1.8660001 11
8.5 1.5420001 -1.865 12
9.1899996 1.646 -1.8609999 12
10.002 1.7690001 -1.857 13
10.97 1.9170001 -1.855 13
7.5089998 1.351 -1.875 10
8.0240002 1.425 -1.865 11
8.6639996 1.517 -1.865 12
9.3859997 1.623 -1.862 13
10.237 1.747 -1.859 13
11.263 1.899 -1.859 13
7.6409998 1.327 -1.876 11
8.1759996 1.4 -1.8660001 11
8.8389997 1.493 -1.8660001 12
9.5889997 1.599 -1.862 14
10.473 1.724 -1.859 12
11.565 1.88 -1.862 14
7.744 1.2970001 -1.868 12
8.3299999 1.375 -1.865 12
9.0190001 1.4680001 -1.865 13
9.8000002 1.574 -1.8609999 13
10.718 1.699 -1.857 13
11.879 1.859 -1.862 15
7.9229999 1.278 -1.875 11
8.5030003 1.351 -1.8660001 12
9.2150002 1.444 -1.8660001 13
10.019 1.549 -1.86 12
11.019 1.682 -1.862 13
12.207 1.839 -1.862 14
8.0679998 1.252 -1.873 11
8.6800003 1.327 -1.8660001 11
9.4060001 1.418 -1.863 12
10.267 1.526 -1.86 13
11.332 1.6619999 -1.865 14
12.614 1.826 -1.869 12
8.224 1.227 -1.872 11
8.8660002 1.303 -1.8660001 11
9.6400003 1.396 -1.8660001 12
10.537 1.505 -1.862 13
11.658 1.642 -1.867 14
13.025 1.811 -1.873 12
8.3979998 1.2029999 -1.873 12
9.0710001 1.279 -1.867 12
9.8809996 1.373 -1.867 13
10.833 1.484 -1.865 13
11.999 1.6210001 -1.867 14
13.478 1.796 -1.876 14
8.5760002 1.177 -1.8710001 11
9.2779999 1.2539999 -1.8660001 12
10.13 1.349 -1.8660001 12
11.114 1.459 -1.862 13
12.394 1.604 -1.8710001 13
13.975 1.784 -1.881 12
8.7740002 1.153 -1.873 12
9.5089998 1.2309999 -1.868 11
10.394 1.325 -1.8660001 12
11.479 1.443 -1.87 13
12.814 1.587 -1.875 13
14.502 1.771 -1.885 12
8.9840002 1.13 -1.874 12
9.7440004 1.206 -1.867 11
10.674 1.302 -1.8660001 13
11.841 1.4220001 -1.872 14
13.279 1.571 -1.88 13
15.119 1.7640001 -1.893 11
9.1949997 1.105 -1.873 12
9.9969997 1.182 -1.8660001 11
10.995 1.279 -1.868 13
12.231 1.401 -1.874 13
13.783 1.556 -1.8839999 13
15.771 1.755 -1.898 11
9.4300003 1.08 -1.874 12
10.272 1.158 -1.867 12
11.338 1.257 -1.87 13
12.659 1.383 -1.877 13
14.331 1.541 -1.8890001 13
16.493 1.748 -1.904 10
9.6750002 1.056 -1.874 12
10.58 1.135 -1.87 12
11.7 1.2359999 -1.872 14
13.13 1.365 -1.882 13
14.944 1.529 -1.896 11
17.302999 1.743 -1.9119999 11
9.9359999 1.031 -1.873 11
10.891 1.1109999 -1.869 12
12.112 1.215 -1.876 13
13.647 1.347 -1.887 13
15.632 1.5190001 -1.905 9
18.164 1.738 -1.916 12
10.213 1.006 -1.873 12
11.238 1.0880001 -1.8710001 13
12.544 1.194 -1.878 13
14.179 1.327 -1.888 11
16.333 1.505 -1.9069999 10
19.134001 1.735 -1.921 13
10.52 0.98199999 -1.874 12
11.605 1.064 -1.872 13
13.026 1.174 -1.8839999 13
14.812 1.313 -1.896 11
17.117001 1.492 -1.91 11
20.101999 1.724 -1.915 13
10.84 0.95700002 -1.874 13
12.024 1.043 -1.877 13
13.556 1.155 -1.8890001 12
15.509 1.298 -1.904 11
18.047001 1.485 -1.919 12
20.362 1.647 -1.8329999 34
11.197 0.93300003 -1.876 13
12.449 1.018 -1.877 13
14.122 1.1339999 -1.893 11
16.27 1.283 -1.911 9
19.025 1.474 -1.9220001 13
20.395 1.553 -1.727 59
11.571 0.90799999 -1.876 11
12.944 0.99599999 -1.881 13
14.754 1.114 -1.899 11
17.099001 1.268 -1.9170001 10
20.171 1.469 -1.931 14
20.466999 1.464 -1.624 62
12.006 0.884 -1.881 12
13.502 0.97500002 -1.89 12
15.47 1.096 -1.9069999 11
18.028999 1.253 -1.924 12
20.485001 1.397 -1.849 30
20.416 1.367 -1.5089999 62
12.469 0.86000001 -1.885 12
14.086 0.95200002 -1.893 12
16.256001 1.077 -1.915 9
19.091 1.2410001 -1.934 13
20.591999 1.313 -1.747 51
20.42 1.277 -1.398 70
12.977 0.83600003 -1.89 11
14.72 0.92799997 -1.897 11
17.091999 1.056 -1.918 10
20.219999 1.224 -1.9349999 15
20.492001 1.216 -1.625 68
20.455999 1.1900001 -1.2869999 70
13.548 0.81099999 -1.897 12
15.441 0.90499997 -1.903 10
18.073999 1.0369999 -1.926 12
20.632 1.159 -1.858 31
20.518 1.1289999 -1.511 66
20.874001 1.125 -1.1950001 55
14.133 0.78399998 -1.898 12
16.261999 0.88200003 -1.9119999 9
19.212999 1.02 -1.9400001 13
20.844 1.082 -1.76 58
20.591 1.046 -1.398 69
22.892 1.138 -1.1799999 58
14.811 0.75700003 -1.904 11
17.129999 0.85600001 -1.916 10
20.315001 0.99199998 -1.934 15
20.732 0.99000001 -1.631 66
20.641001 0.96399999 -1.284 60
24.607 1.123 -1.127 18
15.599 0.73100001 -1.913 9
18.143999 0.82999998 -1.923 12
20.795 0.93000001 -1.859 25
20.650999 0.90200001 -1.5039999 62
20.983 0.89499998 -1.183 51
34.014 1.416 -1.357 5
16.440001 0.70300001 -1.92 10
19.326 0.80599999 -1.9349999 13
20.906 0.85100001 -1.747 45
20.733 0.82300001 -1.3890001 73
23.882 0.92500001 -1.206 66
30.85 1.166 -1.052 1
17.332001 0.67299998 -1.924 11
20.448999 0.773 -1.929 15
20.802 0.76599997 -1.6160001 68
20.759001 0.745 -1.27 69
24.735001 0.86500001 -1.105 26
37.055 1.263 -1.048 9
18.443001 0.64499998 -1.938 12
20.958 0.713 -1.854 35
20.85 0.69 -1.498 66
21.552999 0.69400001 -1.192 25
30.773001 0.963 -1.194 25
43.104 1.313 -0.96399999 27
19.612 0.61299998 -1.946 14
21.028999 0.63800001 -1.7359999 62
21.096001 0.62 -1.39 54
24.084 0.68699998 -1.187 63
30.750999 0.852 -1.0089999 5
66.028 1.776 -1.0779999 44
20.771999 0.57200003 -1.936 15
21.032 0.56099999 -1.609 70
20.983999 0.542 -1.256 69
25.214001 0.63 -1.091 23
35.723 0.86500001 -0.95599997 2
80.832001 1.895 -0.82999998 4
21.115 0.50599998 -1.84 48
21.004 0.486 -1.479 71
21.391001 0.47799999 -1.151 17
31.361 0.67699999 -1.1670001 15
42.939999 0.89399999 -0.88700002 7
89.206001 1.7920001 -0.36700001 47
21.098 0.43200001 -1.7079999 65
20.974001 0.41299999 -1.348 74
24.429001 0.463 -1.164 70
31.332001 0.57099998 -0.97299999 43
70.719002 1.2410001 -1.026 5
89.491997 1.506 0.186 8
21.047001 0.359 -1.574 73
21.208 0.347 -1.232 62
25.530001 0.40000001 -1.059 13
31.134001 0.46700001 -0.773 71
89.828003 1.2869999 -0.74000001 15
0 0 0 0
21.077 0.29100001 -1.4450001 70
0 0 0 0
31.055 0.38699999 -1.0930001 48
31.195 0.368 -0.57700002 65
90.255997 1.012 -0.17299999 33
0 0 0 0
21.174999 0.22499999 -1.319 61
24.732 0.248 -1.128 46
30.948 0.29100001 -0.89600003 71
31.316999 0.27599999 -0.38600001 15
117.28 0.96600002 0.51300001 8
123.336 0.94599998 2.5929999 15
21.718 0.164 -1.216 63
31.663 0.221 -1.243 36
30.974001 0.199 -0.699 70
95.064003 0.56 -0.56300002 17
123.769 0.66299999 1.331 27
123.671 0.59500003 3.3989999 29
23.753 0.109 -1.179 62
30.892 0.126 -1.017 71
31.129999 0.111 -0.505 56
116.985 0.359 0.055 36
80.550003 0.207 1.3839999 16
0 0 0 0
25.165001 0.044 -1.0880001 15
30.849001 0.039000001 -0.81800002 82
31.389 0.025 -0.30599999 8
0 0 0 0
80.732002 -0.0080000004 1.914 8
124.603 -0.066 5.0380001 15
30.899 -0.029999999 -1.137 58
30.926001 -0.043000001 -0.62099999 64
94.778 -0.17399999 -0.317 9
80.254997 -0.18099999 1.076 25
0 0 0 0
0 0 0 0
30.816 -0.11 -0.93699998 77
31.132999 -0.124 -0.42500001 65
0 0 0 0
80.574997 -0.38299999 1.608 37
0 0 0 0
63.852001 -0.34900001 3.4230001 38
30.836 -0.189 -0.736 76
0 0 0 0
80.133003 -0.54699999 0.778 4
80.982002 -0.57800001 2.145 23
64.028999 -0.47799999 2.7780001 13
65.202003 -0.50700003 3.9300001 15
31.023001 -0.266 -0.53600001 76
64.556 -0.57300001 -0.034000002 74
64.586998 -0.59200001 1.052 56
64.359001 -0.60699999 2.1340001 29
64.615997 -0.62800002 3.237 26
64.842003 -0.64700001 4.3460002 22
31.306999 -0.34200001 -0.333 20
64.600998 -0.72100002 0.39500001 65
64.494003 -0.73400003 1.479 42
64.230003 -0.74599999 2.5580001 31
65.188004 -0.77200001 3.7 19
0 0 0 0
64.507004 -0.84500003 -0.266 4
64.650002 -0.86000001 0.82200003 4
64.703003 -0.875 1.918 28
64.198997 -0.88 2.99 24
63.452 -0.88 4.0300002 51
61.136002 -0.85900003 4.9239998 22
80.759003 -1.228 0.20299999 15
79.567001 -1.223 1.5420001 21
0 0 0 0
63.771999 -0.99800003 3.3970001 6
63.898998 -1.008 4.4889998 32
60.398998 -0.96100003 5.2750001 31
79.698997 -1.37 0.73299998 31
79.934998 -1.383 2.0829999 43
0 0 0 0
65.123001 -1.141 3.911 19
61.124001 -1.076 4.7140002 12
59.978001 -1.061 5.6539998 47
79.959999 -1.526 1.276 19
0 0 0 0
64.181999 -1.234 3.204 11
64.436996 -1.242 4.3150001 59
60.557999 -1.17 5.092 39
59.848 -1.158 6.059 56
79.730003 -1.664 1.814 43
0 0 0 0
64.388 -1.347 3.655 21
64.301003 -1.346 4.75 14
59.959 -1.2539999 5.4559999 69
60.591 -1.267 6.559 35
80.530998 -1.8150001 2.3770001 15
0 0 0 0
64.321999 -1.446 4.0890002 12
60.443001 -1.3559999 4.8790002 3
59.868 -1.341 5.8660002 67
60.661999 -1.355 6.9910002 67
0 0 0 0
0 0 0 0
64.267998 -1.539 4.5279999 8
60.514999 -1.444 5.3039999 26
59.721001 -1.419 6.2639999 49
60.863998 -1.4400001 7.441 65
0 0 0 0
64.042999 -1.627 3.8510001 3
64.183998 -1.622 4.96 37
60.356998 -1.517 5.7049999 48
61.132999 -1.528 6.8379998 33
61.539001 -1.53 7.9559999 31
0 0 0 0
64.077003 -1.711 4.2979999 13
64.278 -1.705 5.4159999 14
59.985001 -1.58 6.092 55
60.832001 -1.591 7.2329998 68
0 0 0 0
0 0 0 0
64.202003 -1.789 4.7480001 25
60.480999 -1.673 5.5180001 21
60.014999 -1.646 6.513 50
61.641998 -1.677 7.7659998 52
0 0 0 0
63.976002 -1.868 4.0799999 10
59.737 -1.728 4.836 23
59.453999 -1.705 5.8400002 46
61.240002 -1.74 7.0840001 40
61.666 -1.735 8.2139997 9
0 0 0 0
59.679001 -1.803 4.2220001 4
66.828003 -1.998 5.8790002 22
59.419998 -1.758 6.257 68
61.360001 -1.796 7.533 59
0 0 0 0
0 0 0 0
59.689999 -1.8559999 4.6409998 57
59.675999 -1.835 5.6700001 29
58.893002 -1.79 6.6170001 25
61.612999 -1.85 8.0019999 52
0 0 0 0
0 0 0 0
59.639999 -1.901 5.0500002 11
59.077 -1.859 6.0219998 84
61.554001 -1.914 7.3509998 53
64.448997 -1.977 8.8299999 10
0 0 0 0
0 0 0 0
59.842999 -1.948 5.4860001 22
59.005001 -1.8940001 6.4310002 63
61.612999 -1.95 7.7930002 58
0 0 0 0
0 0 0 0
0 0 0 0
59.157001 -1.959 5.8379998 53
58.952 -1.923 6.8410001 18
61.674999 -1.982 8.2399998 7
0 0 0 0
0 0 0 0
0 0 0 0
58.929001 -1.977 6.2270002 96
61.646999 -2.0350001 7.5910001 31
0 0 0 0
0 0 0 0
0 0 0 0
0 0 0 0
58.905998 -1.9960001 6.6350002 34
61.637001 -2.052 8.0220003 8
0 0 0 0
0 0 0 0
0 0 0 0
0 0 0 0
0 0 0 0
64.306999 -2.1530001 8.8299999 5
0 0 0 0
0 0 0 0
0 0 0 0
0 0 0 0
61.602001 -2.109 7.8119998 2
0 0 0 0
0 0 0 0
0 0 0 0
0 0 0 0
0 0 0 0
64.279999 -2.201 8.6040001 37
0 0 0 0
0 0 0 0
0 0 0 0
0 0 0 0
0 0 0 0
0 0 0 0
0 0 0 0
0 0 0 0
0 0 0 0
0 0 0 0
0 0 0 0
0 0 0 0
0 0 0 0
0 0 0 0
0 0 0 0
0 0 0 0
0 0 0 0
0 0 0 0
0 0 0 0
0 0 0 0
0 0 0 0
0 0 0 0
0 0 0 0
0 0 0 0
0 0 0 0
0 0 0 0
0 0 0 0
0 0 0 0
0 0 0 0
0 0 0 0
0 0 0 0
0 0 0 0
0 0 0 0
0 0 0 0
0 0 0 0
0 0 0 0
0 0 0 0
0 0 0 0
0 0 0 0
0 0 0 0
0 0 0 0
0 0 0 0
0 0 0 0
0 0 0 0
0 0 0 0
0 0 0 0
0 0 0 0
0 0 0 0
0 0 0 0
0 0 0 0
0 0 0 0
0 0 0 0
0 0 0 0
0 0 0 0
0 0 0 0
0 0 0 0
0 0 0 0
0 0 0 0
0 0 0 0
0 0 0 0
0 0 0 0
0 0 0 0
0 0 0 0
0 0 0 0
0 0 0 0
0 0 0 0
0 0 0 0
0 0 0 0
0 0 0 0
0 0 0 0
0 0 0 0
0 0 0 0
0 0 0 0
0 0 0 0
0 0 0 0
0 0 0 0
0 0 0 0
0 0 0 0
0 0 0 0
0 0 0 0
0 0 0 0
0 0 0 0
0 0 0 0
0 0 0 0
0 0 0 0
0 0 0 0
0 0 0 0
0 0 0 0
0 0 0 0
0 0 0 0
0 0 0 0
0 0 0 0
0 0 0 0
0 0 0 0
0 0 0 0
0 0 0 0
0 0 0 0
0 0 0 0
0 0 0 0
0 0 0 0
0 0 0 0
0 0 0 0
0 0 0 0
0 0 0 0
0 0 0 0
0 0 0 0
0 0 0 0
0 0 0 0
0 0 0 0
0 0 0 0
0 0 0 0
0 0 0 0
0 0 0 0
0 0 0 0
0 0 0 0
0 0 0 0
0 0 0 0
0 0 0 0
0 0 0 0
0 0 0 0
0 0 0 0
0 0 0 0
0 0 0 0
0 0 0 0
0 0 0 0
0 0 0 0
0 0 0 0
0 0 0 0
0 0 0 0
0 0 0 0
0 0 0 0
0 0 0 0
0 0 0 0
0 0 0 0
0 0 0 0
0 0 0 0
0 0 0 0
0 0 0 0
0 0 0 0
0 0 0 0
0 0 0 0
0 0 0 0
0 0 0 0
0 0 0 0
0 0 0 0
0 0 0 0
0 0 0 0
0 0 0 0
0 0 0 0
0 0 0 0
0 0 0 0
0 0 0 0
0 0 0 0
0 0 0 0
0 0 0 0
0 0 0 0
0 0 0 0
0 0 0 0
0 0 0 0
0 0 0 0
0 0 0 0
0 0 0 0
0 0 0 0
0 0 0 0
0 0 0 0
0 0 0 0
0 0 0 0
0 0 0 0
0 0 0 0
0 0 0 0
0 0 0 0
0 0 0 0
0 0 0 0
0 0 0 0
0 0 0 0
0 0 0 0
0 0 0 0
0 0 0 0
0 0 0 0
0 0 0 0
0 0 0 0
0 0 0 0
0 0 0 0
0 0 0 0
0 0 0 0
0 0 0 0
0 0 0 0
0 0 0 0
0 0 0 0
0 0 0 0
0 0 0 0
0 0 0 0
0 0 0 0
0 0 0 0
0 0 0 0
0 0 0 0
0 0 0 0
0 0 0 0
0 0 0 0
0 0 0 0
0 0 0 0
0 0 0 0
