# .PCD v0.7 - Point Cloud Data file format
VERSION 0.7
FIELDS x y z intensity
SIZE 4 4 4 4
TYPE F F F F
COUNT 1 1 1 1
WIDTH 1838
HEIGHT 1
VIEWPOINT 0 0 0 1 0 0 0
POINTS 1838
DATA ascii
8.5340004 -5.2329998 -1.942 7
9.4879999 -5.7690001 -1.954 7
10.591 -6.3899999 -1.957 6
11.922 -7.1430001 -1.955 7
13.663 -8.1350002 -1.96 8
7.9569998 -4.8920002 -1.942 7
8.7559996 -5.335 -1.9450001 7
9.7449999 -5.888 -1.955 7
10.903 -6.5370002 -1.9579999 6
12.333 -7.3439999 -1.9579999 7
14.201 -8.4049997 -1.964 9
8.1520004 -4.9790001 -1.944 7
8.9770002 -5.4330001 -1.9450001 7
10.016 -6.0120001 -1.957 7
11.215 -6.6810002 -1.955 6
12.736 -7.5349998 -1.957 8
14.756 -8.677 -1.967 10
8.3549995 -5.0669999 -1.946 7
9.2229996 -5.5440001 -1.949 7
10.304 -6.1420002 -1.9579999 6
11.542 -6.829 -1.951 6
13.214 -7.7649999 -1.962 8
15.35 -8.9650002 -1.9680001 11
8.5600004 -5.152 -1.9450001 7
9.4750004 -5.6529999 -1.95 7
10.593 -6.2690001 -1.956 6
11.935 -7.0100002 -1.955 6
13.69 -7.9879999 -1.9630001 9
15.983 -9.2690001 -1.9680001 9
8.7790003 -5.244 -1.947 7
9.7449999 -5.77 -1.9529999 6
10.921 -6.415 -1.959 4
12.318 -7.1820002 -1.9529999 7
14.219 -8.2360001 -1.965 9
16.732 -9.6330004 -1.977 8
9.0220003 -5.3460002 -1.951 7
10.017 -5.8839998 -1.9529999 7
11.225 -6.5419998 -1.9529999 6
12.781 -7.3940001 -1.96 7
14.763 -8.4840002 -1.964 10
17.462 -9.9759998 -1.973 9
9.257 -5.4400001 -1.95 7
10.31 -6.007 -1.954 6
11.603 -6.7069998 -1.957 6
13.233 -7.5939999 -1.961 8
15.35 -8.7510004 -1.964 9
18.339001 -10.394 -1.9809999 7
9.526 -5.5489998 -1.954 6
10.614 -6.131 -1.954 6
11.964 -6.8569999 -1.955 7
13.688 -7.789 -1.9579999 9
16.027 -9.0609999 -1.969 10
19.219999 -10.803 -1.9809999 6
9.802 -5.6599998 -1.957 7
10.922 -6.2540002 -1.9529999 6
12.368 -7.027 -1.956 7
14.237 -8.0319996 -1.9630001 9
16.754 -9.3900003 -1.975 8
20.26 -11.29 -1.988 6
10.072 -5.763 -1.957 7
11.25 -6.3829999 -1.952 6
12.79 -7.2010002 -1.956 7
14.775 -8.2600002 -1.961 9
17.558001 -9.7530003 -1.9809999 8
21.247 -11.735 -1.978 5
10.369 -5.875 -1.9579999 7
11.615 -6.527 -1.9529999 6
13.255 -7.3920002 -1.9579999 8
15.371 -8.5129995 -1.962 11
18.368999 -10.109 -1.98 8
22.313999 -12.211 -1.9680001 5
10.679 -5.9920001 -1.9579999 7
11.989 -6.671 -1.952 6
13.743 -7.5900002 -1.959 9
16.042999 -8.7989998 -1.966 10
19.290001 -10.514 -1.983 6
23.471001 -12.721 -1.955 4
10.998 -6.1090002 -1.957 7
12.384 -6.822 -1.95 7
14.278 -7.8060002 -1.962 9
16.813 -9.1300001 -1.976 9
20.274 -10.941 -1.985 6
24.863001 -13.343 -1.951 4
11.333 -6.2290001 -1.957 7
12.81 -6.9840002 -1.951 7
14.83 -8.026 -1.9630001 10
17.613001 -9.467 -1.982 9
21.287001 -11.372 -1.979 5
26.544001 -14.102 -1.956 3
11.692 -6.3579998 -1.957 6
13.26 -7.1529999 -1.9529999 8
15.435 -8.2650003 -1.966 9
18.344999 -9.757 -1.975 8
22.493999 -11.89 -1.983 5
28.309999 -14.883 -1.951 5
12.075 -6.493 -1.957 6
13.755 -7.3369999 -1.954 8
16.070999 -8.5109997 -1.966 10
19.281 -10.143 -1.9809999 6
23.521 -12.298 -1.961 5
30.164 -15.686 -1.936 2
12.467 -6.6279998 -1.956 7
14.254 -7.5190001 -1.9529999 9
16.757 -8.7749996 -1.966 11
20.252001 -10.535 -1.982 6
24.860001 -12.854 -1.954 4
0 0 0 0
12.887 -6.7709999 -1.956 7
14.805 -7.7189999 -1.954 10
17.555 -9.0869999 -1.974 11
21.299 -10.953 -1.982 5
26.264 -13.426 -1.941 4
34.654999 -17.620001 -1.902 2
13.33 -6.9200001 -1.956 8
15.387 -7.927 -1.956 10
18.379999 -9.4020004 -1.978 9
22.402 -11.385 -1.98 5
28.149 -14.221 -1.951 4
0 0 0 0
13.813 -7.0830002 -1.9579999 8
16.02 -8.1520004 -1.9579999 11
19.266001 -9.7349997 -1.9809999 7
23.448 -11.773 -1.9630001 4
29.790001 -14.869 -1.928 3
43.285 -21.490999 -1.988 2
14.311 -7.2480001 -1.9579999 9
16.660999 -8.3739996 -1.956 12
20.208 -10.086 -1.983 7
24.653999 -12.225 -1.951 5
31.617001 -15.586 -1.904 6
43.316002 -21.24 -1.7970001 6
14.867 -7.4320002 -1.962 10
9.882 -4.9029999 -1.113 13
21.194 -10.443 -1.982 6
10.28 -5.033 -0.76599997 0
0 0 0 0
50.727001 -24.559999 -1.885 4
9.8669996 -4.868 -1.255 48
9.8640003 -4.8299999 -1.0650001 2
9.5869999 -4.6620002 -0.852 3
27.667 -13.37 -1.939 4
36.808998 -17.686001 -1.893 1
54.48 -26.039 -1.79 13
9.7880001 -4.7639999 -1.198 40
9.5979996 -4.6370001 -0.99199998 45
9.5389996 -4.5780001 -0.80500001 66
29.41 -14.023 -1.933 3
9.6759996 -4.5869999 -0.456 2
55.931999 -26.379 -1.603 10
9.7250004 -4.6690001 -1.146 49
9.6000004 -4.5749998 -0.949 61
9.5310001 -4.5110002 -0.76300001 67
9.6960001 -4.5599999 -0.59500003 36
9.6800003 -4.526 -0.41499999 3
61.146999 -28.445 -1.497 4
9.6560001 -4.5700002 -1.0930001 32
9.5190001 -4.4720001 -0.898 59
9.5550003 -4.4590001 -0.72299999 60
9.6780005 -4.4879999 -0.55199999 17
9.7259998 -4.4850001 -0.37599999 0
68.977997 -31.643 -1.403 7
9.5340004 -4.447 -1.0369999 48
9.5290003 -4.4130001 -0.85799998 67
9.6110001 -4.421 -0.68599999 64
9.7130003 -4.4400001 -0.514 5
50.539001 -22.971001 -1.747 4
0 0 0 0
9.5439997 -4.3870001 -0.99599999 52
9.5609999 -4.3629999 -0.81900001 67
9.7270002 -4.408 -0.65399998 38
10.038 -4.5219998 -0.49000001 6
54.396 -24.363001 -1.663 10
0 0 0 0
9.5629997 -4.3299999 -0.95599997 45
9.5649996 -4.2989998 -0.77899998 6
9.7670002 -4.3600001 -0.616 38
10.103 -4.4829998 -0.45199999 3
57.433998 -25.34 -1.531 9
0 0 0 0
9.5450001 -4.2540002 -0.91399997 1
9.6470003 -4.2690001 -0.74599999 55
10.125 -4.4510002 -0.597 2
45.942001 -20.073999 -1.877 3
61.105999 -26.549 -1.391 5
0 0 0 0
9.6280003 -4.223 -0.88200003 40
9.7130003 -4.2309999 -0.71200001 64
0 0 0 0
50.345001 -21.650999 -1.862 5
0 0 0 0
0 0 0 0
9.6990004 -4.1869998 -0.84899998 50
10.164 -4.3559999 -0.704 7
36.827 -15.682 -1.886 1
44.402 -18.790001 -1.476 2
0 0 0 0
0 0 0 0
10.156 -4.3119998 -0.84899998 55
29.403 -12.398 -1.926 6
39.958 -16.737 -1.897 1
44.546001 -18.545 -1.316 15
62.076 -25.698 -0.72600001 65
51.297001 -21.129999 0.30899999 3
10.566 -4.4109998 -0.84200001 0
30.927999 -12.821 -1.909 4
44.636002 -18.382 -1.954 3
44.683998 -18.292 -1.16 11
51.282001 -20.875 -0.41999999 63
51.425999 -20.826 0.48699999 5
26.065001 -10.697 -1.98 5
32.521999 -13.253 -1.887 3
44.601002 -18.056999 -1.793 10
44.618 -17.954 -1.001 77
44.726002 -17.899 -0.215 9
102.303 -40.722 1.3099999 38
27.131001 -10.94 -1.961 5
0 0 0 0
44.810001 -17.825001 -1.646 49
44.685001 -17.667 -0.85100001 44
103.747 -40.792999 -0.154 28
102.603 -40.137001 1.646 16
28.384001 -11.24 -1.951 5
0 0 0 0
44.898998 -17.539 -1.495 17
0 0 0 0
109.764 -42.382999 0.19400001 18
73.614998 -28.282 1.413 33
29.851 -11.607 -1.947 6
40.167 -15.508 -1.91 2
55.380001 -21.240999 -1.66 22
53.938 -20.561001 -0.676 10
73.293999 -27.783001 0.36000001 11
73.501999 -27.718 1.6390001 36
31.5 -12.017 -1.947 5
0 0 0 0
53.966999 -20.312 -1.4450001 22
55.650002 -20.816999 -0.51999998 16
73.261002 -27.247999 0.58499998 33
73.763 -27.292 1.867 40
32.528999 -12.173 -1.904 4
43.847 -16.291 -1.798 1
54.145 -19.987 -1.28 20
55.632999 -20.413 -0.352 18
71.147003 -25.958 0.77999997 28
73.952003 -26.841 2.086 33
35.605 -13.065 -1.97 1
49.673 -18.097 -1.886 2
55.429001 -20.061001 -1.1440001 64
55.798 -20.073 -0.189 11
74.408997 -26.615999 1.028 21
74.402 -26.478001 2.3039999 30
0 0 0 0
49.821999 -17.791 -1.7410001 2
55.636002 -19.738001 -0.986 58
60.929001 -21.483 -0.032000002 44
52.481998 -18.402 0.87 27
52.216999 -18.212999 1.7589999 94
39.422001 -13.892 -1.943 2
51.891998 -18.157 -1.664 14
52.209999 -18.149 -0.77899998 82
61.201 -21.139999 0.132 53
51.790001 -17.787001 0.99599999 17
121.645 -41.562 4.4109998 12
0 0 0 0
56.113998 -19.223 -1.643 28
70.211998 -23.893 -0.85500002 13
61.498001 -20.799999 0.29699999 78
105.843 -35.592999 2.312 12
0 0 0 0
0 0 0 0
56.521 -18.948 -1.503 25
63.053001 -20.997 -0.60299999 46
63.140999 -20.898001 0.465 32
0 0 0 0
0 0 0 0
0 0 0 0
57.122002 -18.736 -1.3710001 20
63.306999 -20.625 -0.447 5
63.444 -20.539 0.62400001 18
0 0 0 0
0 0 0 0
52.098999 -16.820999 -1.999 2
57.630001 -18.476 -1.239 12
63.618999 -20.261 -0.296 7
0 0 0 0
0 0 0 0
88.193001 -27.597 4.0339999 23
50.691002 -15.999 -1.822 2
57.734001 -18.089001 -1.104 14
118.263 -36.803001 -0.27500001 11
0 0 0 0
87.467003 -26.889 2.7249999 18
89.120003 -27.245001 4.2670002 6
51.139999 -15.761 -1.719 2
61.955002 -18.958 -1.046 20
62.469002 -18.985001 -0.0089999996 35
0 0 0 0
87.543999 -26.278999 2.9059999 6
0 0 0 0
52.921001 -15.92 -1.659 6
59.966999 -17.91 -0.88099998 5
62.789001 -18.622999 0.123 43
87.794998 -25.875 1.631 31
87.459999 -25.624001 3.076 21
86.615997 -25.233 4.4840002 17
56.508999 -16.587999 -1.652 29
63.028 -18.365 -0.796 54
63.129002 -18.266001 0.249 49
88.195999 -25.348 1.808 23
88.012001 -25.143999 3.26 20
88.009003 -24.997999 4.7160001 8
57.311001 -16.398001 -1.5599999 30
0 0 0 0
63.412998 -17.882 0.37 54
88.541 -24.802 1.979 32
87.286003 -24.302 3.3889999 15
86.652 -23.986 4.7930002 13
57.506001 -16.027 -1.452 30
88.317001 -24.429001 -0.77999997 17
0 0 0 0
88.234001 -24.069 2.1240001 12
113.159 -30.679001 4.5819998 37
89.761002 -24.191999 5.1090002 6
54.599998 -14.811 -1.281 15
54.548 -14.687 -0.38499999 65
54.528 -14.576 0.50800002 41
54.527 -14.479 1.401 44
54.508999 -14.379 2.2920001 48
113.404 -29.737 6.6259999 18
54.611 -14.409 -1.188 44
60.589001 -15.863 -0.32800001 2
61.147999 -15.893 0.667 2
99.876999 -25.785 2.7190001 10
88.575996 -22.714001 3.855 19
0 0 0 0
58.182999 -14.914 -1.1720001 11
59.990002 -15.26 -0.23199999 29
60.556999 -15.291 0.75 7
79.974998 -20.056 2.2909999 22
101.163 -25.202 4.5440001 14
75.308998 -18.641001 4.6059999 8
58.289001 -14.512 -1.09 6
59.813 -14.773 -0.148 34
60.126999 -14.742 0.82499999 16
79.518997 -19.358999 2.381 38
101.295 -24.493999 4.6760001 11
78.948997 -18.973 4.9229999 16
60.534 -14.625 -1.048 3
59.810001 -14.334 -0.068000004 39
60.497002 -14.391 0.90700001 8
80.403999 -18.985001 2.503 25
75.986 -17.819 3.5940001 8
87.842003 -20.466 5.5749998 28
64.369003 -15.074 -1.034 44
60.294998 -14.006 0.0020000001 59
79.691002 -18.368 1.286 22
75.907997 -17.367001 2.448 17
76.710999 -17.424 3.7079999 6
74.581001 -16.832001 4.8060002 12
64.285004 -14.576 -0.95899999 50
60.195 -13.536 0.067000002 42
61.064999 -13.623 1.049 5
0 0 0 0
101.469 -22.312 5.0009999 14
76.439003 -16.698 4.9949999 4
60.666 -13.31 -0.84200001 7
60.445999 -13.15 0.127 44
76.038002 -16.406 1.376 43
76.197998 -16.315001 2.598 16
115.798 -24.618 5.802 31
75.343002 -15.91 4.9809999 7
63.845001 -13.536 -0.82800001 57
60.728001 -12.765 0.18000001 27
111.416 -23.228001 2.108 9
76.488998 -15.818 2.6659999 4
113.293 -23.254999 5.7589998 13
75.873001 -15.463 5.0689998 4
63.848999 -13.061 -0.77600002 32
0 0 0 0
110.902 -22.305 2.177 45
115.253 -22.993999 4.0960002 31
112.671 -22.312 5.7969999 17
77.442001 -15.22 5.217 12
63.687 -12.559 -0.73100001 38
0 0 0 0
109.9 -21.301001 2.221 20
111.389 -21.412001 4.0190001 45
111.775 -21.316999 5.8080001 32
77.672997 -14.706 5.2690001 6
63.542 -12.067 -0.69199997 31
88.318001 -16.622999 0.43200001 21
112.083 -20.910999 2.3210001 41
111.086 -20.546 4.0560002 39
112.513 -20.642 5.8899999 43
75.903 -13.821 5.1750002 15
63.448002 -11.584 -0.662 28
87.123001 -15.758 0.46200001 28
111.848 -20.048 2.3570001 33
111.895 -19.882999 4.125 30
78.407997 -13.82 4.1279998 15
75.833 -13.26 5.191 11
63.018002 -11.042 -0.63599998 22
88.859001 -15.425 0.49700001 17
57.707001 -9.9250002 1.2309999 31
57.432999 -9.7889996 2.1289999 15
116.419 -19.674 6.1500001 30
77.82 -13.043 5.3379998 17
57.689999 -9.6899996 -0.56800002 8
57.647999 -9.5880003 0.33500001 71
58.144001 -9.5760002 1.248 19
58.348 -9.5209999 2.1689999 30
114.741 -18.558001 6.0689998 43
59.005001 -9.4650002 4.0489998 7
31.247999 -5.02 -0.30399999 1
70.539001 -11.217 0.41499999 13
99.299004 -15.631 2.1359999 50
113.631 -17.718 4.224 36
113.961 -17.612 6.0229998 44
115.572 -17.702999 7.9219999 23
28.837999 -4.421 -0.28099999 91
69.853996 -10.597 0.40599999 24
99.999001 -15.016 2.1429999 37
113.272 -16.847 4.197 26
115.362 -17 6.079 31
115.6 -16.879 7.902 33
64.255997 -9.3879995 -0.634 29
69.612999 -10.061 0.39500001 14
90.116997 -12.892 1.915 14
90.199997 -12.772 3.323 8
113.978 -15.986 5.9780002 9
0 0 0 0
35.984001 -4.9980001 -0.36399999 42
69.606003 -9.5629997 0.37599999 3
99.720001 -13.551 2.089 44
100.759 -13.547 3.678 10
114.227 -15.2 5.9489999 42
0 0 0 0
69.910004 -9.21 -0.73000002 13
69.794998 -9.0880003 0.35100001 42
99.728996 -12.844 2.049 36
113.563 -14.469 4.0970001 22
115.277 -14.525 5.948 26
0 0 0 0
37.646 -4.6900001 -0.41100001 40
98.431999 -12.114 0.447 21
98.397003 -11.971 1.97 25
113.691 -13.667 4.0380001 35
114.475 -13.612 5.842 26
113.646 -13.36 7.5630002 13
38.306999 -4.4970002 -0.44 37
85.452003 -9.908 0.33500001 13
98.074997 -11.236 1.9 42
113.034 -12.793 3.9389999 31
113.761 -12.723 5.7259998 28
115.559 -12.78 7.6079998 13
38.888 -4.2909999 -0.47299999 5
97.907997 -10.662 0.315 7
97.971001 -10.535 1.827 38
66.253998 -7.033 2.2579999 3
66.373001 -6.9549999 3.2869999 3
115.77 -11.984 7.526 22
39.334999 -4.0599999 -0.51099998 10
38.924 -3.961 0.092 54
39.308998 -3.948 0.699 6
66.096001 -6.552 2.194 16
65.080002 -6.3660002 3.165 43
113.928 -11 7.3010001 33
39.507999 -3.802 -0.54900002 1
93.468002 -8.8629999 0.13600001 21
83.897003 -7.8410001 1.41 13
64.994003 -5.9840002 2.0929999 38
66.791 -6.066 3.1800001 12
116.121 -10.401 7.3200002 29
40.419998 -3.6059999 -0.60399997 26
40.566002 -3.562 0.015 31
65.669998 -5.6799998 1.034 26
65.630997 -5.5879998 2.0420001 35
64.627998 -5.4219999 3.0050001 29
113.947 -9.4139996 7.052 9
40.895 -3.359 -0.65799999 22
93.580002 -7.5640001 -0.072999999 30
66.264 -5.2670002 0.96399999 19
65.287003 -5.1079998 1.952 37
65.528 -5.0440001 2.9660001 53
60.138 -4.5549998 3.6470001 40
40.855 -3.073 -0.70899999 1
60.41 -4.4650002 -0.124 80
60.384998 -4.3839998 0.80000001 72
60.353001 -4.3070002 1.725 65
60.419998 -4.2329998 2.654 40
82.462997 -5.677 4.8889999 31
41.740002 -2.849 -0.78200001 30
41.818001 -2.8010001 -0.14399999 51
81.171997 -5.3319998 0.96100003 4
66.232002 -4.27 1.799 64
65.981003 -4.1719999 2.803 23
60.606998 -3.7590001 3.5050001 17
42.162998 -2.589 -0.852 32
42.236 -2.5380001 -0.20900001 31
81.153 -4.7740002 0.83700001 20
66.352997 -3.823 1.7 33
66.730003 -3.763 2.7309999 47
69.195999 -3.823 3.8929999 18
42.606998 -2.326 -0.92900002 3
70.377998 -3.753 -0.46200001 89
0 0 0 0
66.836998 -3.401 1.603 3
66.549004 -3.306 2.6140001 8
69.178001 -3.3540001 3.777 18
30.17 -1.441 -0.70999998 1
43.004002 -1.998 -0.35699999 49
116.34 -5.2659998 0.80900002 24
71.174004 -3.135 1.582 5
70.792999 -3.0369999 2.6559999 40
82.636002 -3.448 4.3639998 21
29.868999 -1.223 -0.75800002 50
43.347 -1.721 -0.43900001 44
113.108 -4.3590002 0.57800001 9
81.429001 -3.0369999 1.6569999 15
82.786003 -2.99 2.9489999 5
71.142998 -2.487 3.622 3
29.665001 -1.012 -0.81099999 53
47.891998 -1.576 -0.57999998 87
111.95 -3.5510001 0.34999999 25
83.011002 -2.5320001 1.524 16
94.584 -2.779 3.181 20
93.087997 -2.628 4.552 6
29.587 -0.81 -0.87 60
30.1 -0.78799999 -0.426 2
0 0 0 0
97.031998 -2.3150001 1.58 25
0 0 0 0
93.977997 -2.0320001 4.3990002 21
29.608 -0.611 -0.935 55
29.934999 -0.583 -0.49000001 23
44.505001 -0.815 -0.050999999 25
79.371002 -1.363 1.118 4
0 0 0 0
94.093002 -1.408 4.1960001 11
29.75 -0.41499999 -1.008 55
30.034 -0.384 -0.56099999 27
67.666 -0.792 -0.233 50
79.403 -0.83999997 0.935 29
79.142998 -0.74900001 2.138 28
0 0 0 0
30.99 -0.226 -1.125 34
30.458 -0.18700001 -0.64300001 56
67.414001 -0.34200001 -0.39500001 66
78.936996 -0.31400001 0.73900002 12
78.897003 -0.227 1.9400001 36
0 0 0 0
31.208 -0.022 -1.211 35
30.163 0.0099999998 -0.71200001 71
30.629 0.044 -0.25600001 6
79.827003 0.206 0.54500002 15
78.807999 0.28799999 1.739 16
63.931 0.30000001 2.385 30
24.525999 0.14300001 -1.017 0
30.025 0.206 -0.787 70
30.431999 0.243 -0.33500001 44
63.757 0.574 0.26899999 53
63.825001 0.64300001 1.242 18
0 0 0 0
24.205999 0.29800001 -1.0700001 21
29.999001 0.40000001 -0.86900002 76
30.285 0.43599999 -0.41499999 67
0 0 0 0
79.477997 1.311 1.33 33
0 0 0 0
23.643 0.44299999 -1.112 59
30.035 0.59399998 -0.95499998 68
30.218 0.62699997 -0.5 60
94.091003 2.0469999 -0.121 11
0 0 0 0
122.817 2.9260001 3.5829999 30
22.844 0.574 -1.142 56
30.226 0.78899997 -1.05 42
30.240999 0.81999999 -0.58899999 58
93.647003 2.635 -0.39700001 16
0 0 0 0
121.924 3.674 3.2 33
0 0 0 0
0 0 0 0
30.327 1.012 -0.68199998 61
88.801003 3.0510001 -0.64300001 5
132.72 4.6919999 1.061 97
121.545 4.414 2.826 38
20.466 0.773 -1.151 35
24.48 0.94800001 -1.002 3
41.789001 1.656 -1.072 26
79.052002 3.21 -0.82099998 4
82.265999 3.421 0.40000001 17
65.353996 2.7820001 1.314 5
20.246 0.88999999 -1.205 49
24.209 1.087 -1.0700001 39
30.194 1.386 -0.87400001 0
65.171997 3.053 -0.88999999 35
65.179001 3.1159999 0.104 24
124.766 6.0819998 2.1059999 11
20.028999 1.006 -1.26 59
23.700001 1.211 -1.128 59
29.985001 1.559 -0.96700001 13
67.694 3.5829999 -1.149 30
67.352997 3.6259999 -0.112 28
133.957 7.3390002 1.8200001 28
19.93 1.125 -1.324 68
22.993999 1.317 -1.174 67
36.48 2.122 -1.304 9
42.466999 2.5079999 -0.86799997 21
72.093002 4.322 -0.37 49
111.388 6.783 1.1289999 7
19.881001 1.243 -1.393 53
20.534 1.302 -1.123 24
33.202999 2.1340001 -1.307 6
37.216 2.425 -0.89399999 4
74.200996 4.9060001 -0.648 56
74.388 4.9840002 0.48899999 16
19.854 1.364 -1.466 57
20.049999 1.392 -1.171 56
31.233999 2.1949999 -1.3430001 6
37.634998 2.677 -1.041 10
71.630997 5.1589999 -0.88300002 6
74.054001 5.4000001 0.219 46
19.700001 1.47 -1.529 66
19.851 1.497 -1.234 66
23.268999 1.773 -1.0880001 5
38.007999 2.9300001 -1.194 11
71.220001 5.5489998 -1.143 29
71.263 5.618 -0.052999999 26
19.659 1.585 -1.603 66
19.601999 1.595 -1.296 69
22.83 1.876 -1.1569999 67
24.041 1.994 -0.847 57
24.181999 2.026 -0.47999999 32
66.914001 5.664 -0.30399999 62
19.687 1.7029999 -1.686 60
19.584 1.71 -1.374 57
0 0 0 0
23.756001 2.1110001 -0.93199998 60
23.851 2.1389999 -0.56900001 50
24.209999 2.191 -0.206 15
19.697001 1.821 -1.7690001 52
19.532 1.8200001 -1.451 62
19.736 1.854 -1.16 68
23.586 2.233 -1.022 60
23.580999 2.2509999 -0.65799999 57
23.750999 2.286 -0.29699999 56
19.528999 1.92 -1.8380001 30
19.497 1.9299999 -1.531 56
19.448999 1.939 -1.225 60
23.212999 2.332 -1.103 62
23.504 2.378 -0.75300002 49
23.483 2.3940001 -0.38999999 56
19.236 2.0020001 -1.8940001 13
19.497999 2.0409999 -1.615 60
19.391001 2.043 -1.304 49
22.367001 2.372 -1.1569999 63
23.368 2.4960001 -0.847 49
23.327999 2.5090001 -0.48500001 55
18.503 2.03 -1.904 13
19.4 2.1400001 -1.692 52
19.306999 2.1429999 -1.383 63
20.857 2.329 -1.17 73
23.153999 2.6029999 -0.93900001 59
23.223 2.6270001 -0.58200002 49
17.673 2.039 -1.9 11
19.365 2.2449999 -1.777 41
19.250999 2.243 -1.465 57
19.461 2.2809999 -1.178 55
23.124001 2.7260001 -1.039 51
23.114 2.7409999 -0.68099999 49
16.923 2.0469999 -1.898 10
19.215 2.335 -1.853 20
19.208 2.345 -1.55 64
19.167999 2.352 -1.247 56
22.476999 2.773 -1.112 50
22.976999 2.8510001 -0.77999997 50
16.159 2.0450001 -1.89 9
18.693001 2.375 -1.891 13
19.281 2.461 -1.647 64
19.111 2.45 -1.332 60
21.400999 2.7579999 -1.159 59
22.833 2.957 -0.88 62
15.492 2.0450001 -1.888 9
17.797001 2.359 -1.887 12
19.167999 2.55 -1.729 55
19.073 2.5480001 -1.421 58
19.379 2.6010001 -1.14 48
22.785999 3.073 -0.98500001 63
14.832 2.039 -1.882 10
17.035999 2.349 -1.891 10
19.089001 2.642 -1.816 35
19.063999 2.6489999 -1.513 52
19.025 2.655 -1.211 56
22.495001 3.1530001 -1.08 59
14.222 2.0320001 -1.878 11
16.239 2.326 -1.8839999 10
18.813 2.7030001 -1.883 13
19.013 2.743 -1.603 59
18.945 2.743 -1.298 59
21.775 3.1659999 -1.151 56
13.636 2.02 -1.8710001 10
15.489 2.3010001 -1.877 9
17.974001 2.677 -1.891 12
18.974001 2.835 -1.6950001 51
19.087 2.8629999 -1.404 47
19.892 2.9949999 -1.15 67
13.085 2.007 -1.865 12
14.828 2.28 -1.875 11
17.101 2.6359999 -1.887 11
18.962999 2.931 -1.791 37
18.896 2.9300001 -1.485 52
18.966999 2.9519999 -1.191 53
12.609 2 -1.865 12
14.189 2.2539999 -1.868 10
16.309 2.5969999 -1.885 10
18.743 2.9920001 -1.867 12
18.853001 3.0179999 -1.5779999 52
18.792999 3.0179999 -1.275 58
12.135 1.9859999 -1.8609999 11
13.604 2.23 -1.865 11
15.536 2.5510001 -1.878 9
17.988001 2.96 -1.886 12
18.962999 3.1289999 -1.6849999 52
18.731001 3.099 -1.367 56
11.698 1.972 -1.858 11
13.053 2.204 -1.86 12
14.828 2.5079999 -1.873 9
17.115999 2.901 -1.885 11
18.860001 3.204 -1.776 36
18.737 3.191 -1.465 55
11.278 1.9579999 -1.855 12
12.535 2.178 -1.8559999 12
14.174 2.4660001 -1.868 10
16.295 2.8399999 -1.883 10
18.648001 3.257 -1.8559999 10
18.771 3.2869999 -1.568 50
10.892 1.944 -1.854 13
12.063 2.155 -1.855 12
13.542 2.421 -1.86 10
15.477 2.7720001 -1.874 9
17.924999 3.2160001 -1.881 12
18.804001 3.381 -1.6720001 56
10.543 1.933 -1.857 12
11.592 2.1259999 -1.849 13
12.991 2.385 -1.858 12
14.731 2.7079999 -1.867 9
17.028999 3.135 -1.882 11
18.733999 3.457 -1.77 36
10.163 1.9119999 -1.85 12
11.193 2.1059999 -1.851 14
12.472 2.348 -1.857 13
14.035 2.645 -1.859 10
16.128 3.0439999 -1.873 9
18.538 3.5050001 -1.854 16
9.8269997 1.895 -1.849 12
10.781 2.0799999 -1.848 13
11.972 2.3099999 -1.852 12
13.433 2.5940001 -1.857 11
15.316 2.96 -1.8660001 9
17.759001 3.4389999 -1.877 12
9.5279999 1.882 -1.851 11
10.416 2.0569999 -1.848 12
11.509 2.273 -1.849 12
12.858 2.5409999 -1.854 11
14.601 2.8889999 -1.865 10
16.834 3.3340001 -1.876 11
9.2270002 1.865 -1.85 12
10.043 2.029 -1.8430001 12
11.072 2.237 -1.846 14
12.343 2.4949999 -1.853 12
13.905 2.812 -1.858 10
15.953 3.23 -1.8710001 9
8.9610004 1.852 -1.853 12
9.7159996 2.006 -1.844 11
10.668 2.2019999 -1.844 13
11.832 2.4430001 -1.848 11
13.264 2.74 -1.851 11
15.14 3.1300001 -1.864 8
8.6850004 1.8329999 -1.852 11
9.4130001 1.985 -1.846 12
10.31 2.1730001 -1.847 12
11.367 2.3959999 -1.844 13
12.713 2.6800001 -1.851 11
14.4 3.0380001 -1.859 10
8.4399996 1.818 -1.855 11
9.1210003 1.9630001 -1.846 12
9.9379997 2.138 -1.842 11
10.957 2.3559999 -1.845 13
12.185 2.6199999 -1.848 11
13.725 2.9530001 -1.855 10
8.1969995 1.801 -1.855 11
8.8549995 1.943 -1.85 12
9.6219997 2.1099999 -1.845 11
10.559 2.3139999 -1.845 13
11.678 2.559 -1.844 11
13.094 2.8699999 -1.849 10
7.9780002 1.7869999 -1.859 11
8.5839996 1.919 -1.849 11
9.3179998 2.0810001 -1.846 12
10.172 2.27 -1.841 12
11.219 2.503 -1.841 12
12.538 2.7980001 -1.847 12
7.7670002 1.772 -1.862 11
8.3290005 1.897 -1.849 11
9.0179996 2.0510001 -1.845 12
9.8219995 2.2309999 -1.84 11
10.823 2.457 -1.844 12
12.002 2.7249999 -1.8430001 11
7.5489998 1.753 -1.8609999 10
8.1009998 1.877 -1.853 11
8.7449999 2.0239999 -1.847 11
9.5100002 2.198 -1.8430001 12
10.408 2.404 -1.839 12
11.53 2.6619999 -1.842 12
7.348 1.735 -1.862 10
7.869 1.855 -1.853 11
8.4980001 1.999 -1.851 11
9.1969995 2.161 -1.8430001 12
10.041 2.3570001 -1.839 12
11.071 2.598 -1.84 13
7.1589999 1.719 -1.864 10
7.6609998 1.835 -1.857 11
8.2320004 1.9680001 -1.848 11
8.9130001 2.128 -1.845 12
9.6920004 2.312 -1.839 12
10.656 2.54 -1.839 13
6.9400001 1.694 -1.8559999 11
7.4660001 1.817 -1.8609999 11
8.0089998 1.9450001 -1.853 11
8.6490002 2.0969999 -1.848 11
9.3769999 2.27 -1.84 12
10.268 2.484 -1.8380001 13
6.7620001 1.675 -1.8559999 11
7.2589998 1.794 -1.86 10
7.7979999 1.9220001 -1.857 11
8.3889999 2.0639999 -1.849 11
9.0699997 2.2279999 -1.84 11
9.8879995 2.427 -1.835 12
6.5900002 1.6569999 -1.857 12
7.0349998 1.7640001 -1.852 11
7.572 1.893 -1.8559999 10
8.1370001 2.0309999 -1.849 11
8.8059998 2.194 -1.845 12
9.5600004 2.3789999 -1.837 11
6.4310002 1.641 -1.859 10
6.8520002 1.743 -1.853 11
7.3790002 1.8710001 -1.86 10
7.9200001 2.0039999 -1.854 11
8.5270004 2.154 -1.845 11
9.2460003 2.332 -1.8380001 12
6.2680001 1.622 -1.858 10
6.6669998 1.719 -1.851 10
7.158 1.84 -1.855 10
7.6929998 1.972 -1.854 11
8.2770004 2.118 -1.847 11
8.9580002 2.2880001 -1.841 12
6.1160002 1.604 -1.859 10
6.4920001 1.696 -1.85 11
6.9650002 1.814 -1.855 11
7.461 1.938 -1.851 12
8.0480003 2.085 -1.851 11
8.6820002 2.2460001 -1.8430001 11
5.967 1.585 -1.858 10
6.336 1.676 -1.852 11
6.7690001 1.785 -1.851 11
7.289 1.916 -1.859 10
7.8169999 2.05 -1.852 11
8.4209995 2.204 -1.845 11
5.8249998 1.567 -1.858 10
6.1789999 1.655 -1.851 11
6.5999999 1.761 -1.852 11
7.0809999 1.883 -1.8559999 11
7.6059999 2.0179999 -1.854 11
8.1759996 2.164 -1.847 11
5.6880002 1.548 -1.857 10
6.0289998 1.6339999 -1.852 11
6.4400001 1.738 -1.854 11
6.8699999 1.848 -1.85 11
7.3699999 1.977 -1.849 11
7.9450002 2.1259999 -1.849 11
5.5539999 1.529 -1.857 10
5.8930001 1.615 -1.854 10
6.276 1.7130001 -1.854 10
6.704 1.823 -1.853 11
7.1830001 1.948 -1.853 11
7.7249999 2.089 -1.851 11
5.428 1.511 -1.8559999 11
5.7490001 1.5930001 -1.852 10
6.125 1.6900001 -1.854 10
6.526 1.793 -1.851 10
6.9829998 1.913 -1.85 11
7.5229998 2.0550001 -1.855 10
5.309 1.494 -1.857 10
5.6230001 1.574 -1.854 10
5.9759998 1.666 -1.853 10
6.3709998 1.7690001 -1.853 11
6.796 1.88 -1.849 11
7.2779999 2.007 -1.845 12
5.1950002 1.477 -1.858 10
5.4840002 1.551 -1.85 11
5.8400002 1.6440001 -1.855 11
6.2090001 1.74 -1.851 10
6.6199999 1.849 -1.848 11
7.0869999 1.973 -1.846 11
5.0799999 1.459 -1.857 11
5.3709998 1.534 -1.853 11
5.7069998 1.622 -1.855 10
6.066 1.716 -1.853 10
6.4650002 1.822 -1.851 11
6.8990002 1.937 -1.846 11
4.9770002 1.443 -1.859 11
5.2589998 1.516 -1.855 11
5.5830002 1.601 -1.857 11
5.9200001 1.6900001 -1.852 11
6.3140001 1.794 -1.853 10
6.7189999 1.903 -1.845 11
4.8649998 1.423 -1.8559999 11
5.1399999 1.494 -1.853 11
5.4520001 1.576 -1.854 11
5.7870002 1.665 -1.853 11
6.1570001 1.7640001 -1.852 10
6.5560002 1.8710001 -1.847 11
4.7680001 1.4069999 -1.8559999 10
5.0419998 1.479 -1.857 11
5.3330002 1.5549999 -1.854 10
5.651 1.6390001 -1.851 11
6.0100002 1.735 -1.851 10
6.3979998 1.84 -1.848 11
4.6690001 1.3890001 -1.8559999 10
4.9349999 1.459 -1.857 11
5.2090001 1.531 -1.851 11
5.5289998 1.6160001 -1.853 10
5.8720002 1.7079999 -1.851 10
6.2470002 1.8099999 -1.849 10
4.586 1.375 -1.86 10
4.8400002 1.442 -1.859 12
5.1160002 1.515 -1.857 11
5.402 1.591 -1.851 11
5.7350001 1.6799999 -1.851 11
6.0869999 1.776 -1.845 10
4.4949999 1.359 -1.86 10
4.7309999 1.42 -1.855 11
5.0029998 1.492 -1.855 12
5.283 1.566 -1.85 10
5.6079998 1.654 -1.851 11
5.9499998 1.747 -1.847 10
4.4120002 1.3430001 -1.862 10
4.6399999 1.402 -1.8559999 12
4.908 1.473 -1.858 12
5.1760001 1.545 -1.851 10
5.4850001 1.628 -1.85 10
5.8179998 1.7180001 -1.847 11
4.323 1.325 -1.86 9
4.546 1.383 -1.855 11
4.8070002 1.4529999 -1.857 11
5.0780001 1.525 -1.854 11
5.3610001 1.601 -1.847 12
5.678 1.687 -1.8430001 11
4.2490001 1.311 -1.863 10
4.4619999 1.3660001 -1.8559999 10
4.7069998 1.431 -1.854 12
4.9809999 1.5039999 -1.857 12
5.2579999 1.579 -1.851 12
5.553 1.658 -1.8430001 11
4.1729999 1.296 -1.864 10
4.3829999 1.35 -1.858 11
4.619 1.4119999 -1.8559999 11
4.8769999 1.4809999 -1.855 11
5.152 1.5549999 -1.852 11
5.4349999 1.631 -1.842 11
4.0890002 1.277 -1.86 10
4.3080001 1.334 -1.86 11
4.5279999 1.392 -1.854 11
4.7779999 1.4579999 -1.853 11
5.0510001 1.5319999 -1.852 11
5.3060002 1.6 -1.837 11
4.0170002 1.262 -1.8609999 9
4.2280002 1.316 -1.86 11
4.4520001 1.375 -1.858 11
4.6890001 1.438 -1.854 12
4.96 1.511 -1.855 12
5.2329998 1.585 -1.849 11
3.938 1.243 -1.8559999 9
4.1529999 1.299 -1.86 11
4.375 1.358 -1.86 10
4.5999999 1.4170001 -1.853 11
4.8610001 1.487 -1.853 12
5.1300001 1.559 -1.849 10
3.8670001 1.227 -1.854 8
4.0780001 1.2819999 -1.859 10
4.2950001 1.3380001 -1.858 11
4.5149999 1.396 -1.853 11
4.7690001 1.464 -1.853 11
5.039 1.5369999 -1.852 11
3.803 1.212 -1.855 9
4.0089998 1.265 -1.859 11
4.2150002 1.319 -1.8559999 11
4.4390001 1.378 -1.854 11
4.6729999 1.4400001 -1.85 11
4.9429998 1.512 -1.851 11
3.744 1.198 -1.858 9
3.937 1.247 -1.857 10
4.1529999 1.304 -1.8609999 11
4.3699999 1.3609999 -1.858 10
4.592 1.419 -1.851 11
4.855 1.49 -1.853 11
3.6830001 1.183 -1.857 9
3.8729999 1.2309999 -1.857 10
4.0749998 1.283 -1.857 10
4.2930002 1.341 -1.857 10
4.5100002 1.397 -1.85 11
4.757 1.4630001 -1.848 11
3.625 1.169 -1.858 9
3.806 1.214 -1.8559999 9
4.0050001 1.265 -1.8559999 10
4.2179999 1.321 -1.8559999 10
4.4359999 1.378 -1.852 11
4.6799998 1.442 -1.851 11
3.5669999 1.154 -1.858 9
3.7390001 1.196 -1.853 9
3.9460001 1.25 -1.859 10
4.1550002 1.304 -1.859 10
4.368 1.359 -1.855 10
4.5939999 1.418 -1.849 11
3.5150001 1.14 -1.86 9
3.6930001 1.1849999 -1.859 9
3.8759999 1.23 -1.855 9
4.086 1.285 -1.858 10
4.296 1.339 -1.855 10
4.52 1.398 -1.851 10
3.464 1.126 -1.8609999 8
3.628 1.166 -1.855 9
3.812 1.212 -1.853 10
4.0180001 1.265 -1.8559999 11
4.2270002 1.319 -1.855 10
4.4460001 1.376 -1.851 10
3.4059999 1.11 -1.857 9
3.5810001 1.153 -1.858 9
3.753 1.1950001 -1.853 10
3.954 1.247 -1.855 10
4.158 1.299 -1.854 10
4.3829999 1.357 -1.855 10
3.3570001 1.096 -1.857 8
3.5309999 1.1390001 -1.86 9
3.7079999 1.182 -1.858 10
3.888 1.227 -1.853 9
4.1009998 1.2819999 -1.857 10
4.3099999 1.335 -1.852 10
3.313 1.0829999 -1.859 8
3.4779999 1.123 -1.858 9
3.651 1.165 -1.8559999 9
3.829 1.209 -1.851 9
4.0370002 1.262 -1.8559999 10
4.2550001 1.318 -1.857 10
3.2679999 1.069 -1.86 7
3.431 1.108 -1.859 9
3.5969999 1.148 -1.855 9
3.7709999 1.191 -1.85 9
3.977 1.243 -1.855 10
4.1810002 1.294 -1.853 10
3.2179999 1.054 -1.857 8
3.3789999 1.092 -1.857 9
3.552 1.1339999 -1.858 9
3.7249999 1.176 -1.853 9
3.921 1.225 -1.855 10
4.1279998 1.277 -1.8559999 10
3.1760001 1.04 -1.857 8
3.336 1.0779999 -1.857 9
3.5050001 1.118 -1.858 9
3.6700001 1.1569999 -1.851 9
3.862 1.205 -1.853 9
4.0689998 1.257 -1.8559999 9
3.1259999 1.024 -1.852 8
3.29 1.063 -1.8559999 9
3.4560001 1.102 -1.8559999 9
3.6340001 1.145 -1.858 9
3.8080001 1.187 -1.852 9
4.0110002 1.237 -1.855 10
3.0969999 1.0140001 -1.858 7
3.2509999 1.049 -1.857 9
3.421 1.09 -1.8609999 9
3.586 1.1289999 -1.857 9
3.7509999 1.1670001 -1.848 10
3.951 1.216 -1.851 10
3.0639999 1.003 -1.862 7
3.2119999 1.036 -1.858 8
3.3729999 1.073 -1.858 9
3.539 1.112 -1.8559999 9
3.7060001 1.151 -1.85 9
3.904 1.199 -1.853 9
3.0220001 0.98799998 -1.858 7
3.1670001 1.02 -1.854 8
3.3310001 1.058 -1.858 9
3.5009999 1.098 -1.859 9
3.6600001 1.1339999 -1.849 9
3.8499999 1.179 -1.851 9
2.984 0.97399998 -1.8559999 7
3.1359999 1.008 -1.858 8
3.2939999 1.044 -1.858 9
3.4530001 1.08 -1.855 9
3.6240001 1.119 -1.853 9
3.8039999 1.1619999 -1.851 9
1.5700001 0.51099998 -0.98799998 0
3.098 0.99400002 -1.857 8
3.2520001 1.028 -1.8559999 8
3.4130001 1.064 -1.855 9
3.5840001 1.103 -1.854 9
3.757 1.143 -1.85 9
0 0 0 0
3.0669999 0.98100001 -1.858 7
3.2249999 1.016 -1.8609999 8
3.3829999 1.051 -1.859 9
3.5439999 1.087 -1.854 8
3.721 1.128 -1.853 9
1.51 0.49000001 -0.97100002 2
3.029 0.96600002 -1.855 8
3.1819999 0.99900001 -1.855 8
3.348 1.036 -1.859 8
3.5079999 1.072 -1.855 9
3.6760001 1.109 -1.851 8
1.48 0.47799999 -0.96100003 5
3.006 0.95499998 -1.86 7
3.152 0.986 -1.857 8
3.306 1.0190001 -1.855 8
3.467 1.054 -1.853 9
3.641 1.0930001 -1.853 8
0 0 0 0
2.9760001 0.94199997 -1.859 7
3.1170001 0.97100002 -1.855 8
3.2720001 1.0039999 -1.855 8
3.4319999 1.039 -1.853 9
3.605 1.077 -1.854 8
0 0 0 0
0 0 0 0
3.0899999 0.958 -1.857 8
3.2420001 0.99000001 -1.8559999 8
3.4059999 1.025 -1.857 9
3.5710001 1.061 -1.855 8
0 0 0 0
1.645 0.51599997 -1.048 4
3.0610001 0.94400001 -1.857 8
3.2160001 0.977 -1.859 8
3.368 1.008 -1.854 8
3.5350001 1.044 -1.854 8
0 0 0 0
0 0 0 0
3.0309999 0.93000001 -1.855 8
3.187 0.96200001 -1.859 8
3.3429999 0.99400002 -1.857 9
3.5050001 1.028 -1.855 8
0 0 0 0
0 0 0 0
3.01 0.91799998 -1.858 8
3.152 0.94599998 -1.854 8
3.316 0.98000002 -1.858 9
3.471 1.011 -1.853 8
0 0 0 0
0 0 0 0
2.9809999 0.903 -1.855 7
3.131 0.93300003 -1.857 8
3.2869999 0.96399999 -1.857 9
3.437 0.99400002 -1.85 8
0 0 0 0
0 0 0 0
1.518 0.45699999 -0.95200002 0
3.109 0.92000002 -1.858 7
3.263 0.94999999 -1.858 8
3.415 0.98000002 -1.853 8
0 0 0 0
0 0 0 0
0 0 0 0
3.0829999 0.90499997 -1.857 7
3.2320001 0.93300003 -1.854 8
3.3989999 0.96700001 -1.859 8
0 0 0 0
0 0 0 0
1.596 0.47299999 -1.016 3
3.0569999 0.88999999 -1.854 7
3.2079999 0.91900003 -1.854 8
3.3670001 0.949 -1.854 8
0 0 0 0
0 0 0 0
1.5420001 0.45300001 -0.98799998 4
3.043 0.87800002 -1.858 7
3.1889999 0.90499997 -1.855 7
3.345 0.93400002 -1.855 8
0 0 0 0
0 0 0 0
1.527 0.44499999 -0.98400003 4
3.0179999 0.86299998 -1.854 7
3.1670001 0.88999999 -1.854 8
3.3269999 0.92000002 -1.8559999 8
0 0 0 0
0 0 0 0
1.526 0.44 -0.99000001 3
3.0039999 0.85100001 -1.8559999 7
3.151 0.87699997 -1.8559999 8
3.306 0.90499997 -1.8559999 8
0 0 0 0
0 0 0 0
1.505 0.43000001 -0.98100001 2
2.9849999 0.83700001 -1.855 6
3.132 0.86299998 -1.855 8
3.289 0.89099997 -1.8559999 8
0 0 0 0
0 0 0 0
1.482 0.419 -0.972 2
1.5470001 0.42899999 -0.96600002 0
3.1129999 0.84799999 -1.853 7
3.2639999 0.87400001 -1.852 7
0 0 0 0
0 0 0 0
1.462 0.40900001 -0.963 2
0 0 0 0
3.1029999 0.83600003 -1.8559999 7
3.2520001 0.861 -1.854 7
0 0 0 0
0 0 0 0
1.448 0.40099999 -0.958 3
0 0 0 0
3.086 0.82099998 -1.854 7
3.2409999 0.84799999 -1.8559999 7
0 0 0 0
0 0 0 0
0 0 0 0
1.721 0.461 -1.089 4
3.0799999 0.80900002 -1.857 7
3.223 0.83200002 -1.853 8
0 0 0 0
0 0 0 0
0 0 0 0
1.6109999 0.426 -1.023 2
3.0680001 0.79500002 -1.857 7
3.2130001 0.81800002 -1.854 7
0 0 0 0
0 0 0 0
0 0 0 0
1.576 0.41100001 -1.0039999 2
3.0510001 0.77999997 -1.853 7
3.2049999 0.80500001 -1.8559999 7
0 0 0 0
0 0 0 0
0 0 0 0
1.5650001 0.40200001 -1 1
3.0439999 0.76700002 -1.854 7
3.197 0.79100001 -1.8559999 7
0 0 0 0
0 0 0 0
0 0 0 0
1.55 0.39300001 -0.99299997 1
3.0420001 0.75599998 -1.857 7
3.1900001 0.77700001 -1.857 7
0 0 0 0
0 0 0 0
0 0 0 0
1.5369999 0.384 -0.986 1
3.033 0.74199998 -1.855 7
3.175 0.76099998 -1.852 8
0 0 0 0
0 0 0 0
0 0 0 0
1.533 0.377 -0.98500001 2
3.0250001 0.72799999 -1.854 7
3.178 0.75 -1.857 7
0 0 0 0
0 0 0 0
0 0 0 0
1.526 0.36899999 -0.98199999 2
3.026 0.71600002 -1.8559999 7
3.174 0.736 -1.857 7
0 0 0 0
0 0 0 0
0 0 0 0
1.516 0.36000001 -0.977 2
3.0239999 0.704 -1.857 7
3.1689999 0.722 -1.8559999 7
0 0 0 0
0 0 0 0
0 0 0 0
1.516 0.354 -0.977 2
3.023 0.69099998 -1.857 7
3.165 0.708 -1.854 7
0 0 0 0
0 0 0 0
0 0 0 0
1.511 0.34599999 -0.97399998 2
3.0250001 0.67799997 -1.859 7
3.1689999 0.69499999 -1.857 7
0 0 0 0
0 0 0 0
0 0 0 0
1.512 0.34 -0.97399998 2
3.0239999 0.66500002 -1.858 7
3.1689999 0.68199998 -1.8559999 7
0 0 0 0
0 0 0 0
0 0 0 0
1.512 0.333 -0.97399998 2
3.029 0.653 -1.859 7
3.1659999 0.66799998 -1.854 7
0 0 0 0
0 0 0 0
0 0 0 0
1.5140001 0.32699999 -0.97399998 2
3.0250001 0.639 -1.855 7
3.177 0.65600002 -1.858 7
0 0 0 0
0 0 0 0
0 0 0 0
1.523 0.322 -0.97799999 2
3.0339999 0.62699997 -1.858 7
3.1819999 0.64300001 -1.859 7
0 0 0 0
0 0 0 0
0 0 0 0
1.525 0.31600001 -0.97799999 2
3.043 0.61500001 -1.8609999 7
3.188 0.63 -1.859 7
0 0 0 0
0 0 0 0
0 0 0 0
1.54 0.31200001 -0.98500001 1
3.0450001 0.602 -1.858 7
3.191 0.616 -1.857 7
0 0 0 0
0 0 0 0
0 0 0 0
1.548 0.30599999 -0.98799998 1
3.0550001 0.58899999 -1.859 7
3.2060001 0.60399997 -1.8609999 7
0 0 0 0
0 0 0 0
1.406 0.27900001 -0.93900001 4
1.549 0.29899999 -0.986 1
3.0599999 0.57599998 -1.857 7
3.2160001 0.59100002 -1.862 7
0 0 0 0
0 0 0 0
0 0 0 0
1.561 0.294 -0.991 1
3.0710001 0.56400001 -1.858 7
3.221 0.57700002 -1.859 7
0 0 0 0
0 0 0 0
1.425 0.26899999 -0.94499999 5
1.576 0.289 -0.99699998 1
3.0869999 0.55199999 -1.8609999 7
3.2360001 0.56400001 -1.8609999 7
0 0 0 0
0 0 0 0
1.427 0.26199999 -0.94300002 4
0 0 0 0
3.1029999 0.54000002 -1.863 7
3.2550001 0.55199999 -1.864 7
0 0 0 0
0 0 0 0
1.4450001 0.25799999 -0.94999999 3
0 0 0 0
3.1159999 0.52700001 -1.863 6
3.2590001 0.537 -1.859 7
0 0 0 0
0 0 0 0
1.457 0.25299999 -0.954 3
0 0 0 0
3.132 0.51499999 -1.864 7
3.2820001 0.52499998 -1.863 7
0 0 0 0
0 0 0 0
1.467 0.24699999 -0.95599997 3
1.581 0.259 -0.98199999 0
3.141 0.50099999 -1.8609999 7
3.296 0.51200002 -1.862 7
0 0 0 0
0 0 0 0
1.487 0.243 -0.963 3
3.0150001 0.47999999 -1.863 6
3.1619999 0.48899999 -1.863 7
3.316 0.49900001 -1.863 8
0 0 0 0
0 0 0 0
1.508 0.23899999 -0.972 2
3.0309999 0.46700001 -1.862 6
3.181 0.47600001 -1.864 7
3.335 0.486 -1.863 8
0 0 0 0
0 0 0 0
1.534 0.236 -0.98199999 2
3.05 0.45500001 -1.863 7
3.197 0.463 -1.862 7
3.3559999 0.47299999 -1.864 7
0 0 0 0
1.406 0.21600001 -0.93900001 7
1.552 0.23100001 -0.98799998 2
3.0669999 0.44299999 -1.8609999 7
3.221 0.45100001 -1.864 8
3.3770001 0.45899999 -1.864 7
0 0 0 0
1.426 0.212 -0.94599998 6
1.577 0.227 -0.99699998 1
3.0929999 0.43099999 -1.865 6
3.2420001 0.43799999 -1.864 7
3.4059999 0.447 -1.867 8
0 0 0 0
1.439 0.206 -0.94800001 6
0 0 0 0
3.115 0.419 -1.865 7
3.263 0.42500001 -1.863 7
3.4260001 0.433 -1.864 7
0 0 0 0
1.459 0.20200001 -0.954 5
0 0 0 0
3.141 0.40700001 -1.867 6
3.2880001 0.41299999 -1.863 8
3.457 0.421 -1.868 8
0 0 0 0
1.483 0.198 -0.96200001 4
3.0190001 0.389 -1.868 6
3.161 0.39399999 -1.864 7
3.3180001 0.40000001 -1.8660001 8
3.4890001 0.40799999 -1.87 8
0 0 0 0
1.506 0.193 -0.96899998 4
3.043 0.377 -1.867 7
3.1889999 0.382 -1.8660001 7
3.3440001 0.38800001 -1.8660001 8
3.5150001 0.39500001 -1.87 8
1.3890001 0.178 -0.93000001 5
1.534 0.189 -0.98000002 2
3.0710001 0.366 -1.869 6
3.217 0.37 -1.867 8
3.378 0.37599999 -1.869 8
3.5439999 0.38100001 -1.869 8
1.411 0.17399999 -0.93699998 6
1.573 0.186 -0.99599999 2
3.092 0.35299999 -1.8660001 6
3.2449999 0.35800001 -1.867 8
3.4070001 0.36300001 -1.869 8
3.5780001 0.368 -1.8710001 8
1.4349999 0.169 -0.94400001 5
1.7640001 0.2 -1.107 2
3.1210001 0.34099999 -1.867 6
3.2780001 0.345 -1.869 7
3.4400001 0.34999999 -1.87 8
3.6059999 0.354 -1.868 8
1.465 0.16599999 -0.95599997 4
2.9809999 0.324 -1.854 8
3.155 0.33000001 -1.87 7
3.3110001 0.333 -1.8710001 8
3.4760001 0.33700001 -1.872 9
3.645 0.34099999 -1.8710001 8
1.492 0.161 -0.96399999 3
3.0369999 0.315 -1.8710001 7
3.1789999 0.317 -1.867 7
3.345 0.32100001 -1.872 7
3.5120001 0.324 -1.873 8
3.688 0.32800001 -1.875 8
1.524 0.15700001 -0.97500002 2
3.0639999 0.303 -1.869 7
3.223 0.30599999 -1.874 8
3.381 0.308 -1.874 8
3.546 0.31099999 -1.873 8
3.721 0.31400001 -1.872 9
1.569 0.154 -0.99400002 2
3.099 0.292 -1.8710001 7
3.25 0.29300001 -1.8710001 7
3.414 0.296 -1.873 7
3.586 0.29800001 -1.874 9
3.7579999 0.30000001 -1.8710001 8
1.7460001 0.163 -1.095 2
3.1329999 0.28 -1.872 7
3.289 0.28200001 -1.873 8
3.4579999 0.28400001 -1.877 8
3.6229999 0.285 -1.874 8
3.8050001 0.287 -1.874 8
1.589 0.141 -0.986 0
3.1659999 0.26800001 -1.872 8
3.3210001 0.26899999 -1.872 8
3.493 0.271 -1.876 8
3.658 0.271 -1.8710001 8
3.8380001 0.27200001 -1.87 8
3.053 0.25600001 -1.873 6
3.204 0.257 -1.874 8
3.369 0.257 -1.878 8
3.5309999 0.25799999 -1.875 9
3.7019999 0.25799999 -1.873 9
3.888 0.259 -1.873 9
3.086 0.244 -1.873 7
3.2349999 0.244 -1.8710001 7
3.405 0.245 -1.876 8
3.573 0.245 -1.876 9
3.7449999 0.245 -1.873 9
3.931 0.245 -1.8710001 9
3.1199999 0.233 -1.8710001 7
3.2739999 0.23199999 -1.872 8
3.4460001 0.233 -1.878 8
3.615 0.23199999 -1.876 9
3.789 0.23100001 -1.872 8
3.983 0.23100001 -1.873 9
3.1559999 0.221 -1.8710001 7
3.3210001 0.221 -1.877 8
3.4849999 0.22 -1.876 8
3.6570001 0.219 -1.875 8
3.8369999 0.21799999 -1.873 9
4.0279999 0.21699999 -1.87 9
3.201 0.20999999 -1.875 7
3.3640001 0.20900001 -1.878 8
3.5320001 0.208 -1.8789999 9
3.7060001 0.206 -1.877 9
3.891 0.205 -1.876 9
4.0900002 0.20299999 -1.875 9
3.233 0.198 -1.8710001 7
3.408 0.197 -1.88 8
3.5799999 0.19499999 -1.881 9
3.7520001 0.193 -1.877 9
3.9349999 0.191 -1.873 9
4.1479998 0.19 -1.877 10
3.28 0.18700001 -1.875 8
3.448 0.185 -1.878 8
3.6259999 0.183 -1.881 9
3.8010001 0.18000001 -1.877 9
3.9890001 0.177 -1.873 9
4.21 0.176 -1.8789999 10
3.3239999 0.175 -1.876 7
3.5 0.17299999 -1.882 9
3.677 0.17 -1.882 9
3.8559999 0.167 -1.8789999 9
4.0510001 0.164 -1.877 9
4.2719998 0.162 -1.881 9
3.369 0.163 -1.877 8
3.549 0.161 -1.883 8
3.723 0.15700001 -1.881 9
3.904 0.154 -1.876 9
4.119 0.15099999 -1.882 10
4.3369999 0.147 -1.883 10
3.4189999 0.15099999 -1.8789999 8
3.5999999 0.148 -1.885 9
3.773 0.14399999 -1.88 9
3.9560001 0.14 -1.875 9
4.164 0.13699999 -1.876 10
4.401 0.133 -1.883 10
3.464 0.14 -1.8789999 8
3.6440001 0.13600001 -1.882 9
3.829 0.132 -1.882 9
4.0180001 0.127 -1.877 10
4.2379999 0.123 -1.881 10
4.4660001 0.119 -1.882 10
3.517 0.12800001 -1.881 8
3.701 0.124 -1.8839999 9
3.878 0.119 -1.878 9
4.0819998 0.114 -1.88 10
4.3070002 0.109 -1.8839999 11
4.5430002 0.104 -1.885 11
3.572 0.116 -1.8839999 8
3.7520001 0.111 -1.883 9
3.937 0.106 -1.88 9
4.1490002 0.101 -1.882 10
4.3769999 0.094999999 -1.885 10
4.612 0.089000002 -1.8839999 11
3.6289999 0.104 -1.886 8
3.8050001 0.098999999 -1.882 9
3.9990001 0.093000002 -1.881 10
4.2150002 0.086999997 -1.883 11
4.4450002 0.081 -1.885 10
4.684 0.074000001 -1.883 11
3.6760001 0.092 -1.883 8
3.8610001 0.086000003 -1.881 9
4.0599999 0.079999998 -1.881 9
4.283 0.074000001 -1.8839999 10
4.5159998 0.067000002 -1.885 10
4.7579999 0.059999999 -1.881 11
3.7320001 0.079999998 -1.883 9
3.921 0.074000001 -1.882 9
4.1290002 0.067000002 -1.883 10
4.3540001 0.059999999 -1.885 11
4.5890002 0.052999999 -1.8839999 11
4.8410001 0.045000002 -1.882 11
3.793 0.068000004 -1.885 9
3.9790001 0.061000001 -1.88 10
4.198 0.054000001 -1.8839999 10
4.4320002 0.046 -1.887 10
4.6680002 0.037999999 -1.8839999 11
4.9330001 0.029999999 -1.885 11
3.855 0.056000002 -1.885 9
4.0479999 0.048 -1.882 10
4.2690001 0.041000001 -1.885 11
4.5120001 0.033 -1.8890001 11
4.744 0.024 -1.882 12
5.0209999 0.014 -1.8839999 12
3.918 0.043000001 -1.886 8
4.1279998 0.035999998 -1.888 10
4.3600001 0.028000001 -1.893 11
4.585 0.018999999 -1.887 11
4.8390002 0.0089999996 -1.886 12
5.118 0 -1.886 11
3.9749999 0.030999999 -1.882 9
4.1919999 0.023 -1.885 11
4.427 0.014 -1.8890001 11
4.6719999 0.0049999999 -1.8890001 11
4.9310002 -0.0049999999 -1.887 12
5.2199998 -0.015 -1.887 12
4.0419998 0.018999999 -1.882 9
4.2670002 0.0099999998 -1.887 10
4.5079999 0.001 -1.891 11
4.7490001 -0.0080000004 -1.887 12
5.0310001 -0.018999999 -1.89 12
5.322 -0.030999999 -1.888 12
4.112 0.0060000001 -1.883 10
4.3470001 -0.0020000001 -1.89 11
4.5809999 -0.012 -1.888 11
4.8309999 -0.022 -1.8839999 13
5.1230001 -0.034000002 -1.8890001 12
5.4250002 -0.046999998 -1.887 11
4.1960001 -0.0049999999 -1.8890001 10
4.421 -0.015 -1.888 11
4.6620002 -0.025 -1.887 12
4.928 -0.037 -1.887 12
5.2210002 -0.048999999 -1.888 12
5.5339999 -0.061999999 -1.887 12
4.2680001 -0.017000001 -1.888 10
4.5019999 -0.027000001 -1.8890001 11
4.757 -0.039000001 -1.89 11
5.0370002 -0.050999999 -1.892 12
5.3369999 -0.064000003 -1.892 13
5.6550002 -0.079000004 -1.888 13
4.3499999 -0.028999999 -1.89 10
4.598 -0.039999999 -1.8940001 11
4.849 -0.052000001 -1.89 12
5.1329999 -0.064999998 -1.891 12
5.4299998 -0.079000004 -1.887 12
5.7839999 -0.094999999 -1.891 12
4.4349999 -0.041999999 -1.893 10
4.6700001 -0.052999999 -1.888 11
4.948 -0.066 -1.892 12
5.244 -0.079999998 -1.893 12
5.5510001 -0.093999997 -1.8890001 11
5.8909998 -0.111 -1.885 12
4.5149999 -0.054000001 -1.891 11
4.7649999 -0.066 -1.8890001 12
5.0580001 -0.079999998 -1.896 12
5.3530002 -0.093999997 -1.893 12
5.6750002 -0.11 -1.89 12
6.0380001 -0.127 -1.8890001 12
4.6059999 -0.067000002 -1.893 10
4.8579998 -0.079000004 -1.8890001 11
5.1570001 -0.093999997 -1.8940001 12
5.4580002 -0.109 -1.891 12
5.789 -0.125 -1.887 12
6.191 -0.14399999 -1.893 12
4.6960001 -0.079000004 -1.893 11
4.9559999 -0.093000002 -1.8890001 12
5.2579999 -0.107 -1.892 12
5.5809999 -0.123 -1.892 11
5.954 -0.142 -1.897 11
6.3400002 -0.161 -1.893 12
4.7909999 -0.092 -1.893 11
5.072 -0.106 -1.8940001 11
5.3860002 -0.122 -1.897 12
5.7160001 -0.138 -1.895 11
6.099 -0.15700001 -1.899 11
6.5050001 -0.178 -1.897 11
4.8860002 -0.104 -1.892 11
5.1760001 -0.119 -1.893 13
5.4910002 -0.13500001 -1.8940001 11
5.8449998 -0.153 -1.895 12
6.2420001 -0.17299999 -1.898 12
6.664 -0.19499999 -1.896 11
4.993 -0.117 -1.8940001 11
5.2870002 -0.132 -1.893 12
5.612 -0.149 -1.893 12
5.9889998 -0.168 -1.898 13
6.3990002 -0.19 -1.9 12
6.8309999 -0.212 -1.895 11
5.0910001 -0.12899999 -1.892 11
5.4089999 -0.145 -1.896 12
5.7509999 -0.163 -1.897 12
6.1350002 -0.183 -1.899 12
6.5580001 -0.206 -1.9 11
7.0120001 -0.23 -1.895 12
5.2160001 -0.142 -1.898 12
5.5159998 -0.15800001 -1.891 12
5.8850002 -0.177 -1.897 11
6.2859998 -0.199 -1.9 13
6.7150002 -0.221 -1.897 12
7.211 -0.248 -1.897 12
5.3280001 -0.154 -1.897 12
5.6539998 -0.171 -1.895 11
6.04 -0.192 -1.902 11
6.4520001 -0.214 -1.902 11
6.8990002 -0.23800001 -1.899 12
7.4130001 -0.266 -1.898 12
5.4450002 -0.16599999 -1.896 11
5.7930002 -0.185 -1.897 11
6.1880002 -0.206 -1.901 11
6.6209998 -0.229 -1.903 11
7.1020002 -0.25600001 -1.903 12
7.625 -0.28400001 -1.897 13
5.5679998 -0.17900001 -1.895 11
5.9289999 -0.198 -1.897 12
6.3460002 -0.22 -1.902 12
6.7800002 -0.244 -1.898 12
7.3000002 -0.27200001 -1.903 12
7.862 -0.303 -1.899 12
5.7129998 -0.192 -1.899 11
6.0819998 -0.212 -1.898 12
6.5139999 -0.235 -1.903 11
6.967 -0.25999999 -1.899 12
7.507 -0.289 -1.901 12
8.1260004 -0.32300001 -1.904 11
5.8509998 -0.204 -1.9 11
6.2379999 -0.22499999 -1.899 11
6.677 -0.249 -1.9 12
7.1830001 -0.27700001 -1.905 11
7.7519999 -0.308 -1.9069999 10
8.3839998 -0.34299999 -1.904 12
5.9980001 -0.21600001 -1.9 12
6.4000001 -0.23899999 -1.899 12
6.8629999 -0.264 -1.902 12
7.3850002 -0.292 -1.903 13
7.973 -0.32499999 -1.903 11
8.6429996 -0.36199999 -1.901 12
6.158 -0.229 -1.903 11
6.5739999 -0.252 -1.9 11
7.0539999 -0.278 -1.902 12
7.6199999 -0.30899999 -1.9069999 10
8.2209997 -0.34200001 -1.902 11
8.9329996 -0.382 -1.9 12
6.3169999 -0.241 -1.903 11
6.7449999 -0.26499999 -1.899 12
7.2800002 -0.294 -1.9069999 12
7.8449998 -0.32499999 -1.905 12
8.4919996 -0.361 -1.902 12
9.2379999 -0.40200001 -1.898 12
6.4920001 -0.25400001 -1.905 11
6.9260001 -0.278 -1.897 12
7.494 -0.30899999 -1.9069999 11
8.0860004 -0.34099999 -1.904 11
8.7749996 -0.37900001 -1.902 12
9.5690002 -0.42300001 -1.898 11
6.6589999 -0.26499999 -1.903 11
7.1370001 -0.292 -1.9 12
7.7150002 -0.32300001 -1.906 11
8.3450003 -0.35699999 -1.903 11
9.0780001 -0.39700001 -1.901 11
9.9169998 -0.44299999 -1.895 12
6.8460002 -0.278 -1.904 12
7.3470001 -0.30500001 -1.901 12
7.954 -0.33700001 -1.906 11
8.618 -0.373 -1.903 12
9.3889999 -0.41499999 -1.898 12
10.3 -0.465 -1.895 12
7.0370002 -0.289 -1.903 11
7.592 -0.31900001 -1.9069999 10
8.1929998 -0.352 -1.902 11
8.9060001 -0.38999999 -1.9 12
9.7399998 -0.435 -1.898 11
10.726 -0.48800001 -1.896 14
7.25 -0.301 -1.905 11
7.822 -0.33199999 -1.905 11
8.4619999 -0.366 -1.901 11
9.2229996 -0.40700001 -1.901 12
10.102 -0.454 -1.897 13
11.181 -0.51099998 -1.896 12
7.494 -0.31400001 -1.9119999 10
8.0699997 -0.345 -1.905 11
8.757 -0.38100001 -1.902 12
9.5550003 -0.42300001 -1.899 11
10.51 -0.47400001 -1.897 13
11.711 -0.537 -1.902 12
7.7160001 -0.32499999 -1.91 11
8.3129997 -0.35699999 -1.9 11
9.052 -0.39500001 -1.9 11
9.9040003 -0.44 -1.897 12
10.937 -0.49399999 -1.895 13
12.26 -0.56199998 -1.904 13
7.9489999 -0.336 -1.9069999 11
8.6049995 -0.37 -1.902 12
9.3739996 -0.41 -1.898 12
10.289 -0.45699999 -1.896 12
11.433 -0.51599997 -1.899 11
12.86 -0.58899999 -1.906 12
8.1940002 -0.347 -1.904 10
8.8900003 -0.382 -1.899 12
9.7329998 -0.42500001 -1.9 11
10.707 -0.47400001 -1.8940001 13
11.994 -0.53899997 -1.906 13
13.525 -0.616 -1.908 12
8.474 -0.35800001 -1.905 11
9.2110004 -0.39500001 -1.9 12
10.092 -0.43799999 -1.895 11
11.184 -0.493 -1.897 12
12.566 -0.56099999 -1.906 13
14.282 -0.64600003 -1.913 12
8.7639999 -0.368 -1.904 12
9.54 -0.40599999 -1.896 12
10.501 -0.45300001 -1.896 13
11.714 -0.51200002 -1.904 12
13.203 -0.58499998 -1.909 11
15.102 -0.67699999 -1.916 13
9.0670004 -0.37799999 -1.903 11
9.8999996 -0.41800001 -1.896 12
10.942 -0.46799999 -1.896 13
12.277 -0.53100002 -1.906 14
13.897 -0.60900003 -1.91 12
16.09 -0.713 -1.927 11
9.3950005 -0.38800001 -1.901 12
10.294 -0.43000001 -1.895 12
11.447 -0.484 -1.9 12
12.888 -0.551 -1.908 12
14.708 -0.63499999 -1.9170001 12
17.110001 -0.74699998 -1.929 10
9.7449999 -0.39700001 -1.9 11
10.723 -0.442 -1.896 13
12.006 -0.5 -1.905 13
13.573 -0.57099998 -1.911 13
15.601 -0.66299999 -1.9220001 12
18.372 -0.78799999 -1.941 12
10.122 -0.40599999 -1.898 12
11.19 -0.45300001 -1.896 12
12.594 -0.51499999 -1.9069999 14
14.331 -0.59200001 -1.9170001 13
16.650999 -0.69400001 -1.933 13
19.780001 -0.83200002 -1.951 14
10.539 -0.41499999 -1.899 12
11.727 -0.46599999 -1.902 12
13.243 -0.53100002 -1.911 13
15.179 -0.61299998 -1.923 12
17.806 -0.72600001 -1.943 11
21.337999 -0.87699997 -1.957 14
10.988 -0.42300001 -1.901 13
12.294 -0.477 -1.905 14
13.941 -0.54500002 -1.913 13
16.158001 -0.63700002 -1.932 10
19.118 -0.759 -1.952 13
21.919001 -0.87699997 -1.859 32
11.49 -0.43099999 -1.904 12
12.897 -0.48800001 -1.9069999 12
14.728 -0.56099999 -1.9170001 12
