# .PCD v0.7 - Point Cloud Data file format
VERSION 0.7
FIELDS x y z intensity
SIZE 4 4 4 4
TYPE F F F F
COUNT 1 1 1 1
WIDTH 1811
HEIGHT 1
VIEWPOINT 0 0 0 1 0 0 0
POINTS 1811
DATA ascii
4.4850001 -0.0070000002 -1.84 10
4.6890001 -0.0020000001 -1.832 10
4.921 0.0020000001 -1.83 11
3.8329999 -0.033 -1.84 28
4.02 -0.028999999 -1.844 9
4.2129998 -0.025 -1.844 10
4.4089999 -0.021 -1.841 10
4.6170001 -0.017000001 -1.837 11
4.8369999 -0.012 -1.832 11
3.7820001 -0.045000002 -1.845 10
3.9579999 -0.041000001 -1.845 9
4.1459999 -0.037999999 -1.845 9
4.3369999 -0.034000002 -1.842 10
4.5409999 -0.030999999 -1.8380001 11
4.75 -0.027000001 -1.831 11
3.734 -0.057 -1.85 8
3.898 -0.054000001 -1.846 9
4.072 -0.050999999 -1.842 9
4.2670002 -0.048 -1.842 10
4.4699998 -0.045000002 -1.84 11
4.678 -0.041000001 -1.834 10
3.6760001 -0.068999998 -1.85 8
3.845 -0.066 -1.85 9
4.0159998 -0.064000003 -1.846 9
4.2049999 -0.061000001 -1.845 10
4.402 -0.059 -1.842 10
4.6020002 -0.056000002 -1.835 10
3.6270001 -0.081 -1.853 8
3.7869999 -0.079000004 -1.85 9
3.951 -0.077 -1.844 9
4.138 -0.075000003 -1.844 10
4.3249998 -0.071999997 -1.839 10
4.5320001 -0.07 -1.837 11
3.573 -0.093000002 -1.853 8
3.733 -0.090999998 -1.851 9
3.895 -0.089000002 -1.846 9
4.0710001 -0.088 -1.842 10
4.2690001 -0.086000003 -1.844 10
4.4720001 -0.085000001 -1.842 10
3.5190001 -0.104 -1.851 8
3.6789999 -0.103 -1.851 9
3.8469999 -0.102 -1.85 9
4.0089998 -0.101 -1.842 9
4.2049999 -0.1 -1.844 10
4.401 -0.098999999 -1.841 10
3.47 -0.116 -1.852 7
3.6270001 -0.115 -1.852 8
3.7939999 -0.115 -1.851 8
3.9560001 -0.114 -1.844 9
4.138 -0.114 -1.842 10
4.3319998 -0.113 -1.839 9
3.428 -0.12800001 -1.855 7
3.5810001 -0.12800001 -1.854 9
3.74 -0.12800001 -1.851 9
3.8989999 -0.127 -1.844 9
4.0819998 -0.127 -1.8430001 10
4.276 -0.127 -1.8430001 10
3.3740001 -0.139 -1.851 7
3.5280001 -0.14 -1.851 9
3.6919999 -0.14 -1.853 9
3.8440001 -0.14 -1.8430001 9
4.0190001 -0.141 -1.841 9
4.2210002 -0.142 -1.846 10
3.3299999 -0.15099999 -1.851 7
3.4860001 -0.152 -1.854 9
3.6429999 -0.153 -1.853 9
3.8080001 -0.154 -1.852 8
3.967 -0.154 -1.8430001 9
4.1550002 -0.156 -1.8430001 9
3.29 -0.163 -1.853 7
3.438 -0.164 -1.853 8
3.595 -0.16500001 -1.853 9
3.757 -0.167 -1.851 9
3.918 -0.168 -1.844 9
4.1059999 -0.17 -1.846 9
3.25 -0.175 -1.854 6
3.398 -0.176 -1.855 7
3.5550001 -0.178 -1.8559999 8
3.7049999 -0.17900001 -1.85 9
3.8699999 -0.18099999 -1.846 9
4.04 -0.183 -1.841 9
3.21 -0.186 -1.855 7
3.3559999 -0.18799999 -1.855 8
3.5050001 -0.19 -1.854 8
3.664 -0.193 -1.853 8
3.8199999 -0.19499999 -1.846 8
3.993 -0.198 -1.8430001 9
3.1730001 -0.198 -1.8559999 6
3.3180001 -0.2 -1.857 8
3.46 -0.20299999 -1.853 9
3.6199999 -0.206 -1.854 8
3.7780001 -0.208 -1.849 9
3.9430001 -0.211 -1.8430001 9
3.1359999 -0.20999999 -1.857 6
3.28 -0.212 -1.858 8
3.418 -0.215 -1.852 8
3.573 -0.21799999 -1.852 8
3.7309999 -0.222 -1.848 8
3.8959999 -0.22499999 -1.844 9
3.1029999 -0.222 -1.859 6
3.237 -0.22400001 -1.855 7
3.382 -0.227 -1.854 8
3.533 -0.23100001 -1.853 8
3.691 -0.235 -1.85 8
3.846 -0.23899999 -1.842 8
3.0650001 -0.233 -1.857 7
3.201 -0.236 -1.8559999 7
3.3469999 -0.23999999 -1.8559999 7
3.497 -0.244 -1.855 8
3.648 -0.248 -1.85 8
3.813 -0.25299999 -1.848 8
3.0380001 -0.245 -1.862 6
3.1670001 -0.248 -1.857 7
3.3050001 -0.252 -1.854 6
3.454 -0.25600001 -1.853 8
3.612 -0.26100001 -1.853 8
3.7750001 -0.26699999 -1.85 8
3.003 -0.25600001 -1.8609999 6
3.1340001 -0.25999999 -1.858 7
3.2690001 -0.264 -1.854 7
3.4219999 -0.26899999 -1.8559999 8
3.5680001 -0.27399999 -1.85 8
3.7260001 -0.28 -1.847 8
0 0 0 0
3.099 -0.271 -1.857 7
3.2360001 -0.27599999 -1.855 8
3.382 -0.28200001 -1.854 7
3.5339999 -0.287 -1.852 8
3.694 -0.294 -1.85 8
1.6799999 -0.15899999 -1.063 2
3.076 -0.28400001 -1.862 6
3.204 -0.28799999 -1.855 7
3.3510001 -0.294 -1.855 7
3.5 -0.301 -1.853 8
3.6589999 -0.30700001 -1.852 8
1.556 -0.155 -0.995 2
3.039 -0.29499999 -1.858 6
3.1760001 -0.301 -1.857 7
3.3180001 -0.30700001 -1.855 7
3.4679999 -0.31400001 -1.854 8
3.622 -0.32100001 -1.851 8
1.518 -0.15800001 -0.97899997 2
3.013 -0.30700001 -1.86 6
3.145 -0.31299999 -1.8559999 6
3.286 -0.31900001 -1.855 7
3.434 -0.32699999 -1.854 8
3.589 -0.33399999 -1.852 8
1.484 -0.162 -0.96700001 2
2.983 -0.31799999 -1.859 6
3.115 -0.324 -1.8559999 6
3.2609999 -0.33199999 -1.858 7
3.401 -0.33899999 -1.853 7
3.556 -0.34799999 -1.852 8
1.452 -0.16599999 -0.954 4
0 0 0 0
3.096 -0.33700001 -1.8609999 7
3.2249999 -0.34400001 -1.854 7
3.3770001 -0.352 -1.8559999 7
3.5280001 -0.361 -1.854 8
1.431 -0.171 -0.94999999 5
1.6619999 -0.193 -1.054 2
3.066 -0.34900001 -1.86 6
3.2019999 -0.35699999 -1.857 6
3.3429999 -0.36500001 -1.853 7
3.5020001 -0.375 -1.8559999 7
0 0 0 0
1.569 -0.19 -1.0039999 2
3.04 -0.361 -1.859 6
3.1719999 -0.368 -1.855 7
3.3110001 -0.377 -1.851 7
3.473 -0.38800001 -1.8559999 7
0 0 0 0
1.538 -0.19400001 -0.99199998 2
3.02 -0.373 -1.862 6
3.1500001 -0.38100001 -1.857 7
3.2920001 -0.38999999 -1.855 7
3.441 -0.40099999 -1.854 8
0 0 0 0
1.507 -0.198 -0.98000002 4
2.9920001 -0.38499999 -1.859 6
3.1229999 -0.39300001 -1.855 6
3.2709999 -0.40400001 -1.857 7
3.4189999 -0.41499999 -1.8559999 7
0 0 0 0
1.484 -0.20200001 -0.972 4
2.9719999 -0.39700001 -1.86 5
3.0999999 -0.405 -1.855 6
3.244 -0.41600001 -1.8559999 7
3.392 -0.42699999 -1.854 7
0 0 0 0
1.469 -0.208 -0.96899998 4
2.891 -0.40000001 -1.823 4
3.086 -0.419 -1.86 6
3.223 -0.42899999 -1.8559999 7
3.3670001 -0.44 -1.853 7
0 0 0 0
0 0 0 0
0 0 0 0
3.0650001 -0.43099999 -1.86 6
3.2 -0.442 -1.855 7
3.345 -0.454 -1.854 8
0 0 0 0
0 0 0 0
1.5829999 -0.235 -1.012 1
3.0409999 -0.442 -1.857 6
3.1800001 -0.454 -1.855 7
3.3269999 -0.46700001 -1.855 7
0 0 0 0
0 0 0 0
1.562 -0.23899999 -1.0039999 1
3.027 -0.45500001 -1.859 6
3.1600001 -0.46599999 -1.855 7
3.306 -0.47999999 -1.854 7
0 0 0 0
0 0 0 0
1.541 -0.244 -0.99699998 2
3.0090001 -0.46700001 -1.859 6
3.141 -0.479 -1.854 7
3.293 -0.49399999 -1.857 7
0 0 0 0
0 0 0 0
1.524 -0.249 -0.991 2
2.9920001 -0.479 -1.858 6
3.1270001 -0.49200001 -1.8559999 7
3.28 -0.50800002 -1.859 7
0 0 0 0
0 0 0 0
1.51 -0.25400001 -0.98699999 2
2.9820001 -0.49200001 -1.862 6
3.115 -0.505 -1.858 7
3.26 -0.51999998 -1.857 7
0 0 0 0
0 0 0 0
1.492 -0.25799999 -0.98000002 2
0 0 0 0
3.0999999 -0.51800001 -1.857 6
3.2449999 -0.53299999 -1.857 7
0 0 0 0
0 0 0 0
1.476 -0.26300001 -0.97399998 2
0 0 0 0
3.086 -0.52999997 -1.857 7
3.2390001 -0.54799998 -1.8609999 7
0 0 0 0
0 0 0 0
1.467 -0.26800001 -0.972 2
0 0 0 0
3.0810001 -0.54400003 -1.8609999 6
3.2249999 -0.56099999 -1.86 7
0 0 0 0
0 0 0 0
1.46 -0.27399999 -0.97100002 2
1.811 -0.33399999 -1.15 7
3.0639999 -0.55500001 -1.857 6
3.2130001 -0.57300001 -1.859 7
0 0 0 0
0 0 0 0
1.447 -0.27900001 -0.96600002 2
1.75 -0.331 -1.115 4
3.0569999 -0.56900001 -1.859 6
3.2 -0.58600003 -1.858 7
0 0 0 0
0 0 0 0
0 0 0 0
1.677 -0.32499999 -1.071 3
3.046 -0.58099997 -1.857 6
3.1960001 -0.60000002 -1.86 7
0 0 0 0
0 0 0 0
0 0 0 0
1.61 -0.31999999 -1.031 2
3.0420001 -0.59399998 -1.859 7
3.188 -0.61299998 -1.86 7
0 0 0 0
0 0 0 0
0 0 0 0
1.594 -0.324 -1.023 2
3.036 -0.60699999 -1.86 6
3.1800001 -0.62599999 -1.859 7
0 0 0 0
0 0 0 0
0 0 0 0
1.562 -0.32499999 -1.005 2
3.0280001 -0.61900002 -1.858 6
3.175 -0.639 -1.859 6
0 0 0 0
0 0 0 0
0 0 0 0
1.558 -0.331 -1.003 2
3.029 -0.63300002 -1.8609999 6
3.1760001 -0.65399998 -1.862 7
0 0 0 0
0 0 0 0
0 0 0 0
1.552 -0.336 -1.001 2
3.027 -0.64600003 -1.862 7
3.168 -0.66600001 -1.859 7
0 0 0 0
0 0 0 0
0 0 0 0
1.548 -0.34200001 -0.99900001 2
3.0250001 -0.65899998 -1.8609999 6
3.1800001 -0.68199998 -1.867 10
0 0 0 0
0 0 0 0
0 0 0 0
1.543 -0.34799999 -0.99599999 2
3.0250001 -0.67199999 -1.862 6
3.194 -0.699 -1.875 60
0 0 0 0
0 0 0 0
0 0 0 0
1.551 -0.35600001 -1.001 2
3.0250001 -0.68400002 -1.862 6
3.1900001 -0.71100003 -1.872 56
0 0 0 0
0 0 0 0
0 0 0 0
1.55 -0.36300001 -1 2
3.0409999 -0.70099998 -1.87 16
3.1919999 -0.72500002 -1.8710001 64
0 0 0 0
0 0 0 0
0 0 0 0
1.552 -0.37 -1.001 2
3.0469999 -0.71499997 -1.872 57
3.1960001 -0.73900002 -1.872 57
0 0 0 0
0 0 0 0
0 0 0 0
1.5779999 -0.382 -1.016 2
3.0539999 -0.72799999 -1.874 46
3.2019999 -0.75300002 -1.873 76
0 0 0 0
0 0 0 0
0 0 0 0
1.733 -0.42699999 -1.114 8
3.062 -0.74199998 -1.875 59
3.21 -0.76700002 -1.874 50
0 0 0 0
0 0 0 0
0 0 0 0
0 0 0 0
3.0650001 -0.755 -1.874 64
3.2160001 -0.78100002 -1.873 85
0 0 0 0
0 0 0 0
0 0 0 0
0 0 0 0
3.0699999 -0.76700002 -1.872 71
3.223 -0.79400003 -1.872 60
0 0 0 0
0 0 0 0
0 0 0 0
2.0179999 -0.51899999 -1.289 79
3.0799999 -0.78100002 -1.873 72
3.2290001 -0.80800003 -1.87 58
0 0 0 0
0 0 0 0
0 0 0 0
2.9189999 -0.76200002 -1.858 94
3.0910001 -0.79500002 -1.874 75
3.24 -0.82200003 -1.87 46
0 0 0 0
0 0 0 0
0 0 0 0
2.951 -0.77999997 -1.872 46
3.1070001 -0.80900002 -1.876 84
3.253 -0.83600003 -1.87 55
0 0 0 0
0 0 0 0
0 0 0 0
2.964 -0.79400003 -1.873 44
3.118 -0.82300001 -1.875 54
3.2720001 -0.852 -1.873 58
0 0 0 0
0 0 0 0
0 0 0 0
2.987 -0.80900002 -1.8789999 72
3.128 -0.83499998 -1.873 57
3.2880001 -0.86699998 -1.874 54
0 0 0 0
0 0 0 0
0 0 0 0
2.997 -0.82200003 -1.877 58
3.141 -0.84899998 -1.8710001 64
3.306 -0.88200003 -1.874 56
0 0 0 0
0 0 0 0
1.4960001 -0.421 -0.98000002 2
3.0120001 -0.83499998 -1.876 43
3.1600001 -0.86299998 -1.873 68
3.325 -0.89700001 -1.875 59
0 0 0 0
0 0 0 0
1.523 -0.433 -0.99199998 2
3.0209999 -0.84600002 -1.872 42
3.177 -0.87699997 -1.873 58
3.345 -0.912 -1.876 63
0 0 0 0
0 0 0 0
0 0 0 0
3.0450001 -0.861 -1.876 49
3.1989999 -0.89200002 -1.874 62
3.3659999 -0.92699999 -1.876 59
0 0 0 0
0 0 0 0
0 0 0 0
3.0610001 -0.87400001 -1.874 53
3.217 -0.90600002 -1.873 65
3.3889999 -0.94199997 -1.877 72
0 0 0 0
0 0 0 0
2.924 -0.85500002 -1.8710001 31
3.086 -0.889 -1.877 62
3.234 -0.91900003 -1.87 61
3.4159999 -0.95899999 -1.878 58
0 0 0 0
0 0 0 0
2.95 -0.87 -1.875 44
3.1029999 -0.90100002 -1.874 57
3.256 -0.93300003 -1.87 66
3.4389999 -0.97399998 -1.877 59
0 0 0 0
0 0 0 0
2.97 -0.88200003 -1.874 49
3.1300001 -0.91600001 -1.876 77
3.2939999 -0.95200002 -1.877 73
3.4679999 -0.99000001 -1.878 59
0 0 0 0
0 0 0 0
2.9960001 -0.89700001 -1.876 54
3.1489999 -0.92900002 -1.873 53
3.3180001 -0.96600002 -1.876 64
3.4949999 -1.005 -1.878 59
0 0 0 0
1.541 -0.47099999 -1.007 1
3.02 -0.91000003 -1.875 55
3.174 -0.94300002 -1.873 55
3.342 -0.98000002 -1.874 71
3.529 -1.023 -1.88 67
0 0 0 0
0 0 0 0
3.046 -0.92299998 -1.876 58
3.207 -0.95899999 -1.876 72
3.372 -0.995 -1.874 70
3.543 -1.034 -1.87 48
0 0 0 0
2.9030001 -0.89899999 -1.8660001 92
3.072 -0.93699998 -1.876 61
3.233 -0.972 -1.875 62
3.408 -1.012 -1.877 66
3.569 -1.048 -1.867 8
0 0 0 0
2.944 -0.91600001 -1.876 42
3.099 -0.94999999 -1.875 55
3.2579999 -0.98500001 -1.872 62
3.4419999 -1.028 -1.878 75
3.6110001 -1.067 -1.87 8
0 0 0 0
2.973 -0.93000001 -1.877 45
3.1270001 -0.96399999 -1.874 73
3.302 -1.0039999 -1.8789999 71
3.473 -1.043 -1.876 54
3.6500001 -1.084 -1.872 8
0 0 0 0
3.003 -0.94300002 -1.877 37
3.1530001 -0.97600001 -1.8710001 60
3.3369999 -1.0190001 -1.88 76
3.493 -1.054 -1.868 9
3.681 -1.099 -1.868 8
0 0 0 0
3.033 -0.95599997 -1.877 50
3.187 -0.991 -1.873 62
3.3670001 -1.033 -1.878 74
3.536 -1.072 -1.8710001 7
3.724 -1.117 -1.869 8
0 0 0 0
3.0599999 -0.96799999 -1.875 54
3.2249999 -1.006 -1.875 71
3.401 -1.048 -1.877 76
3.5799999 -1.09 -1.874 8
3.7650001 -1.1339999 -1.869 8
2.9419999 -0.94800001 -1.8789999 24
3.0910001 -0.98100001 -1.873 59
3.2590001 -1.02 -1.874 70
3.427 -1.059 -1.87 9
3.615 -1.104 -1.8710001 8
3.813 -1.153 -1.8710001 8
2.973 -0.95999998 -1.878 31
3.132 -0.99699998 -1.877 58
3.296 -1.035 -1.874 74
3.4779999 -1.0779999 -1.876 7
3.6619999 -1.123 -1.873 7
3.8610001 -1.1720001 -1.872 8
3.006 -0.97299999 -1.877 32
3.164 -1.0089999 -1.875 65
3.336 -1.05 -1.875 85
3.516 -1.0930001 -1.874 7
3.697 -1.137 -1.868 8
3.9070001 -1.189 -1.8710001 8
3.0409999 -0.986 -1.877 34
3.2 -1.023 -1.874 72
3.3659999 -1.062 -1.87 11
3.5639999 -1.11 -1.877 7
3.7420001 -1.153 -1.868 7
3.9590001 -1.2079999 -1.872 8
3.076 -0.99900001 -1.876 39
3.2360001 -1.036 -1.872 77
3.4200001 -1.08 -1.876 7
3.602 -1.124 -1.873 7
3.79 -1.17 -1.868 8
4.0079999 -1.226 -1.87 8
3.1010001 -1.008 -1.868 47
3.273 -1.049 -1.87 80
3.4690001 -1.097 -1.8789999 7
3.6500001 -1.141 -1.874 7
3.8380001 -1.187 -1.867 8
4.0689998 -1.247 -1.873 8
3.1530001 -1.025 -1.876 42
3.3169999 -1.064 -1.8710001 33
3.513 -1.112 -1.8789999 7
3.697 -1.1569999 -1.873 8
3.904 -1.209 -1.873 8
4.1259999 -1.266 -1.873 8
3.188 -1.036 -1.872 44
3.381 -1.085 -1.882 8
3.562 -1.128 -1.8789999 7
3.7449999 -1.173 -1.872 7
3.9630001 -1.229 -1.875 8
4.184 -1.285 -1.872 9
3.227 -1.049 -1.87 60
3.4260001 -1.099 -1.882 7
3.6129999 -1.145 -1.88 8
3.802 -1.191 -1.873 8
4.0209999 -1.247 -1.875 9
4.2490001 -1.306 -1.873 9
3.2720001 -1.063 -1.87 27
3.4719999 -1.113 -1.881 7
3.6559999 -1.158 -1.876 8
3.8610001 -1.21 -1.875 8
4.079 -1.266 -1.874 8
4.3210001 -1.329 -1.876 9
3.3380001 -1.084 -1.882 8
3.516 -1.126 -1.878 7
3.7119999 -1.175 -1.878 8
3.9230001 -1.229 -1.878 9
4.1399999 -1.284 -1.874 9
4.3829999 -1.348 -1.874 9
3.385 -1.097 -1.881 7
3.5699999 -1.143 -1.8789999 8
3.763 -1.191 -1.876 8
3.977 -1.245 -1.875 10
4.2129998 -1.306 -1.878 9
4.4530001 -1.369 -1.873 9
3.4389999 -1.113 -1.883 7
3.625 -1.159 -1.88 8
3.8210001 -1.207 -1.876 8
4.052 -1.267 -1.881 8
4.2709999 -1.323 -1.874 9
4.52 -1.3890001 -1.8710001 9
3.4849999 -1.125 -1.88 8
3.678 -1.173 -1.8789999 8
3.878 -1.224 -1.875 8
4.1100001 -1.284 -1.8789999 8
4.3429999 -1.344 -1.874 9
4.5999999 -1.4119999 -1.872 9
3.5480001 -1.143 -1.885 7
3.7309999 -1.188 -1.877 8
3.948 -1.243 -1.8789999 9
4.1789999 -1.303 -1.8789999 9
4.4250002 -1.367 -1.878 9
4.6859999 -1.436 -1.875 10
3.595 -1.155 -1.881 8
3.7820001 -1.201 -1.873 8
4.013 -1.261 -1.8789999 8
4.2490001 -1.322 -1.8789999 9
4.4850001 -1.383 -1.8710001 10
4.7779999 -1.461 -1.878 20
3.6530001 -1.17 -1.881 7
3.852 -1.22 -1.877 9
4.086 -1.28 -1.882 8
4.3109999 -1.3380001 -1.875 9
4.5630002 -1.403 -1.8710001 9
4.8559999 -1.482 -1.875 38
3.7130001 -1.186 -1.882 8
3.9130001 -1.235 -1.876 9
4.1490002 -1.296 -1.8789999 8
4.3940001 -1.36 -1.878 9
4.6529999 -1.427 -1.874 10
4.9400001 -1.5039999 -1.873 35
3.7590001 -1.196 -1.874 8
3.99 -1.255 -1.881 9
4.2199998 -1.314 -1.8789999 9
4.4629998 -1.377 -1.874 10
4.75 -1.4529999 -1.88 18
5.039 -1.529 -1.875 38
3.825 -1.212 -1.876 8
4.0549998 -1.27 -1.8789999 8
4.302 -1.334 -1.882 10
4.5419998 -1.396 -1.874 9
4.823 -1.47 -1.873 56
5.1240001 -1.55 -1.87 39
3.8940001 -1.228 -1.877 8
4.132 -1.289 -1.882 8
4.3730001 -1.351 -1.8789999 9
4.6350002 -1.419 -1.877 9
4.9180002 -1.493 -1.874 50
5.23 -1.576 -1.8710001 37
3.9590001 -1.243 -1.875 9
4.2010002 -1.3049999 -1.88 9
4.4489999 -1.369 -1.878 10
4.7389998 -1.4450001 -1.8839999 12
5.0159998 -1.517 -1.874 54
5.3249998 -1.599 -1.867 25
4.0380001 -1.261 -1.8789999 9
4.277 -1.322 -1.8789999 9
4.5320001 -1.388 -1.878 9
4.8119998 -1.46 -1.876 46
5.1129999 -1.539 -1.873 50
5.4349999 -1.625 -1.867 26
4.1160002 -1.278 -1.882 9
4.3579998 -1.34 -1.88 10
4.6149998 -1.406 -1.876 10
4.901 -1.48 -1.874 55
5.2129998 -1.562 -1.8710001 47
5.5479999 -1.65 -1.8660001 36
4.1890001 -1.294 -1.881 9
4.4369998 -1.357 -1.8789999 10
4.7059999 -1.426 -1.877 10
4.9990001 -1.502 -1.874 72
5.3200002 -1.586 -1.8710001 53
5.6669998 -1.677 -1.865 36
4.2649999 -1.309 -1.88 9
4.5190001 -1.373 -1.877 10
4.8070002 -1.448 -1.88 26
5.0949998 -1.522 -1.872 63
5.4190001 -1.6059999 -1.8660001 53
5.7859998 -1.7029999 -1.863 27
4.348 -1.326 -1.881 10
4.5949998 -1.388 -1.873 9
4.888 -1.4630001 -1.874 75
5.2049999 -1.545 -1.873 61
5.5380001 -1.632 -1.8660001 63
5.9099998 -1.73 -1.8609999 12
4.434 -1.3430001 -1.881 10
4.6919999 -1.408 -1.875 10
4.987 -1.483 -1.873 71
5.3099999 -1.566 -1.8710001 57
5.6589999 -1.6569999 -1.8660001 65
6.066 -1.765 -1.8660001 11
4.513 -1.358 -1.878 10
4.8010001 -1.4299999 -1.88 13
5.099 -1.506 -1.876 70
5.4229999 -1.589 -1.87 55
5.7839999 -1.682 -1.865 61
6.2199998 -1.798 -1.869 10
4.6030002 -1.374 -1.878 9
4.8909998 -1.447 -1.877 43
5.1919999 -1.522 -1.87 68
5.5320001 -1.609 -1.8660001 60
5.8829999 -1.699 -1.854 27
6.375 -1.829 -1.87 11
4.6799998 -1.386 -1.8710001 9
4.9770002 -1.461 -1.8710001 75
5.309 -1.545 -1.872 76
5.6459999 -1.63 -1.863 92
6.0710001 -1.7410001 -1.869 11
6.5409999 -1.863 -1.872 11
4.7909999 -1.4069999 -1.877 9
5.0890002 -1.4809999 -1.873 62
5.415 -1.563 -1.868 66
5.79 -1.659 -1.867 80
6.23 -1.772 -1.872 10
6.7179999 -1.899 -1.875 11
4.9089999 -1.4299999 -1.8839999 15
5.1929998 -1.499 -1.87 69
5.527 -1.582 -1.864 81
5.9039998 -1.678 -1.86 49
6.3850002 -1.801 -1.872 11
6.8990002 -1.934 -1.877 11
4.9899998 -1.4400001 -1.875 22
5.3109999 -1.5190001 -1.872 62
5.658 -1.6059999 -1.8660001 82
6.0489998 -1.704 -1.8609999 16
6.5500002 -1.832 -1.873 11
7.0799999 -1.9680001 -1.876 11
5.0960002 -1.457 -1.874 22
5.4190001 -1.536 -1.868 61
5.7859998 -1.627 -1.864 93
6.2410002 -1.742 -1.874 11
6.737 -1.868 -1.878 11
7.276 -2.0050001 -1.877 11
5.2030001 -1.473 -1.872 22
5.5300002 -1.552 -1.863 75
5.9299998 -1.652 -1.8660001 103
6.395 -1.768 -1.873 11
6.9169998 -1.9 -1.8789999 11
7.5100002 -2.05 -1.8839999 10
5.3179998 -1.49 -1.8710001 22
5.6570001 -1.572 -1.863 71
6.0380001 -1.665 -1.855 27
6.5619998 -1.796 -1.875 11
7.098 -1.9299999 -1.878 11
7.7290001 -2.089 -1.885 10
5.434 -1.507 -1.87 23
5.796 -1.594 -1.864 86
6.2490001 -1.705 -1.873 11
6.7449999 -1.827 -1.878 11
7.2969999 -1.964 -1.8789999 11
7.9489999 -2.1270001 -1.8839999 10
5.5450001 -1.521 -1.865 24
5.9310002 -1.614 -1.863 69
6.4060001 -1.729 -1.873 11
6.934 -1.858 -1.881 11
7.5149999 -2.0009999 -1.882 10
8.1870003 -2.1670001 -1.8839999 10
5.6729999 -1.538 -1.864 24
6.0619998 -1.63 -1.859 22
6.5760002 -1.755 -1.875 11
7.1300001 -1.89 -1.883 11
7.7399998 -2.0380001 -1.8839999 10
8.4359999 -2.2090001 -1.883 11
5.802 -1.5549999 -1.863 25
6.256 -1.663 -1.872 11
6.7639999 -1.784 -1.88 11
7.3369999 -1.9220001 -1.886 10
7.9699998 -2.075 -1.885 11
8.7130003 -2.2550001 -1.886 10
5.954 -1.576 -1.867 24
6.4109998 -1.683 -1.8710001 12
6.947 -1.8099999 -1.881 11
7.54 -1.951 -1.885 11
8.1920004 -2.1070001 -1.881 11
8.9940004 -2.3 -1.886 10
6.0939999 -1.5930001 -1.865 14
6.5869999 -1.7079999 -1.874 11
7.151 -1.84 -1.885 11
7.7470002 -1.98 -1.882 10
8.4569998 -2.1470001 -1.8839999 11
9.2939997 -2.346 -1.886 11
6.283 -1.62 -1.875 11
6.7639999 -1.73 -1.875 10
7.349 -1.8660001 -1.885 10
7.967 -2.01 -1.88 10
8.7200003 -2.1860001 -1.883 11
9.6129999 -2.395 -1.886 10
6.4559999 -1.642 -1.8789999 11
6.9499998 -1.7539999 -1.877 10
7.5609999 -1.8940001 -1.885 11
8.2220001 -2.046 -1.883 11
9.007 -2.227 -1.8839999 11
9.9449997 -2.4449999 -1.886 11
6.6110001 -1.658 -1.876 11
7.1430001 -1.777 -1.878 11
7.7740002 -1.92 -1.885 11
8.4770002 -2.0799999 -1.885 11
9.3039999 -2.2690001 -1.885 10
10.295 -2.4960001 -1.885 9
6.7820001 -1.676 -1.876 11
7.336 -1.799 -1.878 12
7.9840002 -1.944 -1.881 11
8.7390003 -2.1129999 -1.8839999 11
9.6099997 -2.309 -1.8839999 11
10.679 -2.5510001 -1.886 10
6.98 -1.699 -1.881 11
7.539 -1.821 -1.877 12
8.2270002 -1.973 -1.882 12
9.0190001 -2.148 -1.885 10
9.9589996 -2.3570001 -1.886 11
11.076 -2.6070001 -1.886 10
7.171 -1.7180001 -1.882 13
7.7779999 -1.849 -1.883 11
8.474 -2 -1.882 11
9.3140001 -2.184 -1.8839999 11
10.317 -2.404 -1.887 11
11.521 -2.6689999 -1.888 10
7.388 -1.7410001 -1.887 10
7.9990001 -1.8710001 -1.881 11
8.7469997 -2.0309999 -1.8839999 11
9.6289997 -2.221 -1.885 11
10.688 -2.45 -1.886 10
11.992 -2.733 -1.888 10
7.5939999 -1.76 -1.887 11
8.243 -1.895 -1.883 11
9.0279999 -2.0610001 -1.8839999 11
9.9549999 -2.2579999 -1.8839999 11
11.071 -2.4949999 -1.8839999 10
12.473 -2.7950001 -1.887 10
7.8010001 -1.777 -1.885 11
8.4849997 -1.9170001 -1.882 11
9.316 -2.0899999 -1.8839999 11
10.298 -2.2950001 -1.883 11
11.513 -2.55 -1.887 10
13.013 -2.865 -1.888 10
8.0170002 -1.793 -1.8839999 11
8.7460003 -1.941 -1.882 11
9.6239996 -2.1199999 -1.8839999 11
10.677 -2.336 -1.885 11
11.954 -2.599 -1.8839999 10
13.595 -2.9389999 -1.8890001 10
8.2609997 -1.813 -1.886 11
9.0150003 -1.9630001 -1.881 12
9.9469995 -2.151 -1.8839999 11
11.059 -2.375 -1.8839999 11
12.46 -2.658 -1.887 10
14.194 -3.0109999 -1.887 10
8.4910002 -1.827 -1.882 11
9.2950001 -1.985 -1.88 11
10.29 -2.181 -1.8839999 11
11.483 -2.418 -1.885 12
12.955 -2.711 -1.8839999 10
14.899 -3.099 -1.892 9
8.7580004 -1.847 -1.885 11
9.5970001 -2.0079999 -1.88 11
10.656 -2.214 -1.8839999 10
11.946 -2.464 -1.887 11
13.546 -2.777 -1.8890001 10
15.641 -3.187 -1.893 10
9.0249996 -1.864 -1.8839999 12
9.9300003 -2.0339999 -1.882 11
11.024 -2.2420001 -1.881 12
12.409 -2.506 -1.885 10
14.151 -2.8399999 -1.888 10
16.445 -3.279 -1.893 10
9.309 -1.88 -1.8839999 12
10.253 -2.0550001 -1.88 12
11.451 -2.2780001 -1.8839999 11
12.925 -2.553 -1.887 11
14.853 -2.915 -1.895 8
17.339001 -3.382 -1.896 11
9.6070004 -1.897 -1.8839999 11
10.61 -2.079 -1.881 12
11.885 -2.3110001 -1.8839999 11
13.464 -2.5999999 -1.886 12
15.574 -2.9879999 -1.897 9
18.375999 -3.503 -1.906 12
9.9060001 -1.91 -1.882 11
10.989 -2.1029999 -1.882 12
12.34 -2.3440001 -1.8839999 11
14.044 -2.648 -1.886 10
16.334999 -3.059 -1.896 10
19.542999 -3.6370001 -1.916 14
10.245 -1.928 -1.885 12
11.386 -2.125 -1.881 12
12.838 -2.378 -1.8839999 12
14.721 -2.707 -1.891 11
17.191999 -3.141 -1.898 11
20.834999 -3.7820001 -1.928 16
10.581 -1.941 -1.883 12
11.806 -2.148 -1.882 11
13.354 -2.4119999 -1.8839999 11
15.421 -2.7650001 -1.895 9
18.165001 -3.233 -1.904 12
22.204 -3.9260001 -1.932 17
10.947 -1.955 -1.883 12
12.234 -2.168 -1.88 12
13.917 -2.4460001 -1.8839999 11
16.145 -2.8169999 -1.893 9
19.263 -3.3369999 -1.914 14
23.848 -4.1040001 -1.946 12
11.332 -1.969 -1.8839999 13
12.704 -2.1900001 -1.88 12
14.524 -2.483 -1.885 10
16.959 -2.878 -1.897 11
20.497999 -3.4530001 -1.927 15
25.766001 -4.3099999 -1.966 24
11.741 -1.982 -1.885 13
13.185 -2.207 -1.876 12
15.226 -2.529 -1.893 9
17.851 -2.9419999 -1.9 12
21.823 -3.5699999 -1.9349999 17
26.249001 -4.263 -1.865 7
12.162 -1.992 -1.8839999 12
13.713 -2.227 -1.877 11
15.92 -2.5639999 -1.893 9
18.889 -3.0190001 -1.91 13
23.336 -3.701 -1.947 12
26.121 -4.1139998 -1.722 11
12.603 -2.0009999 -1.883 11
14.306 -2.2509999 -1.88 11
16.673 -2.602 -1.893 10
19.988001 -3.095 -1.9170001 15
24.98 -3.8369999 -1.956 14
25.931 -3.9530001 -1.5779999 73
13.068 -2.0079999 -1.882 12
14.919 -2.2720001 -1.882 10
17.500999 -2.642 -1.897 11
21.202 -3.174 -1.924 16
25.962 -3.8559999 -1.902 23
25.893 -3.8169999 -1.447 56
13.567 -2.0139999 -1.882 11
15.625 -2.2980001 -1.8890001 9
18.448 -2.6889999 -1.904 12
22.605 -3.267 -1.937 15
25.85 -3.7060001 -1.7640001 62
25.608999 -3.6429999 -1.306 70
14.102 -2.02 -1.882 11
16.33 -2.3150001 -1.89 10
19.507999 -2.7409999 -1.915 14
24.025 -3.3469999 -1.939 13
25.736 -3.5550001 -1.631 47
25.65 -3.5139999 -1.184 68
14.68 -2.0239999 -1.8839999 10
17.062 -2.329 -1.8890001 11
20.598 -2.786 -1.921 16
25.412001 -3.4070001 -1.929 15
25.474001 -3.385 -1.493 62
26.424999 -3.4809999 -1.095 25
15.36 -2.0350001 -1.8940001 10
17.952 -2.3540001 -1.899 12
21.825001 -2.8340001 -1.929 17
25.49 -3.28 -1.813 36
25.291 -3.2260001 -1.363 66
31.719 -4.0100002 -1.1670001 53
15.981 -2.0309999 -1.892 10
18.837 -2.368 -1.902 13
23.181 -2.885 -1.938 19
25.468 -3.1400001 -1.692 65
25.233999 -3.082 -1.244 66
33.189999 -4.0180001 -1.072 39
16.665001 -2.0250001 -1.892 10
19.844 -2.3859999 -1.91 14
24.601 -2.9289999 -1.944 11
25.153 -2.9649999 -1.557 56
25.715 -3.0020001 -1.153 37
33.056999 -3.823 -0.921 39
17.438 -2.0239999 -1.899 11
20.868 -2.3959999 -1.913 16
25.157 -2.8570001 -1.874 23
24.868 -2.7950001 -1.428 73
26.712999 -2.973 -1.081 24
32.974998 -3.632 -0.77600002 55
18.239 -2.0150001 -1.902 12
22.096001 -2.4130001 -1.925 17
25.028 -2.7030001 -1.753 57
24.805 -2.6500001 -1.316 66
33.223999 -3.513 -1.201 39
33.046001 -3.4579999 -0.63800001 58
19.181999 -2.0109999 -1.915 14
23.225 -2.4059999 -1.921 14
24.735001 -2.533 -1.626 69
24.802 -2.5109999 -1.21 73
32.973999 -3.302 -1.053 49
33.292 -3.2969999 -0.50400001 10
20.108999 -1.993 -1.919 15
24.530001 -2.401 -1.923 19
24.569 -2.3759999 -1.51 68
25.457001 -2.4319999 -1.135 40
33.071999 -3.1229999 -0.91900003 60
70.773003 -6.6059999 -0.78299999 44
21.117001 -1.972 -1.924 16
24.715 -2.2780001 -1.834 38
24.448999 -2.224 -1.401 76
26.969 -2.4219999 -1.092 26
33.749001 -2.994 -0.80199999 62
70.647003 -6.1929998 -0.50300002 67
22.226 -1.946 -1.932 18
24.636 -2.1270001 -1.726 54
24.295 -2.069 -1.294 75
34.805 -2.924 -1.271 43
33.624001 -2.7869999 -0.66600001 73
70.902 -5.8010001 -0.226 41
23.4 -1.9119999 -1.939 20
24.313 -1.957 -1.6059999 68
24.525999 -1.946 -1.209 69
33.771999 -2.641 -1.102 49
33.625 -2.5929999 -0.53799999 75
67.038002 -5.099 0.035 56
24.167 -1.8329999 -1.9069999 16
24.167999 -1.803 -1.502 75
25.577 -1.877 -1.1619999 58
33.634998 -2.431 -0.96899998 41
33.750999 -2.4030001 -0.414 59
123.985 -8.6929998 0.528 9
24.263 -1.694 -1.819 46
24 -1.645 -1.398 86
26.809999 -1.807 -1.117 30
33.444 -2.217 -0.83999997 70
33.946999 -2.2130001 -0.29100001 15
0 0 0 0
24.194 -1.543 -1.723 60
23.916 -1.4960001 -1.3049999 74
27.653999 -1.698 -1.051 9
33.530998 -2.0220001 -0.722 75
97.190002 -5.7540002 -0.49000001 20
0 0 0 0
23.863001 -1.377 -1.612 75
23.979 -1.354 -1.222 67
33.710999 -1.8660001 -1.163 30
33.775002 -1.832 -0.60799998 67
92.247002 -4.901 -0.147 29
0 0 0 0
23.745001 -1.224 -1.5190001 82
23.990999 -1.209 -1.1390001 21
33.936001 -1.671 -1.053 41
70.387001 -3.3859999 -1.029 86
70.348999 -3.306 0.123 49
69.051003 -3.1700001 1.25 7
23.641001 -1.071 -1.4299999 74
0 0 0 0
33.895 -1.4579999 -0.93699998 1
68.712997 -2.878 -0.77600002 25
68.676003 -2.7980001 0.347 87
68.514 -2.7190001 1.462 37
23.610001 -0.92199999 -1.349 77
27.527 -1.044 -1.122 48
39.328999 -1.448 -0.96100003 4
75.452003 -2.694 -0.61199999 60
131.71899 -4.5580001 1.076 13
126.082 -4.23 3.079 28
23.462999 -0.76999998 -1.265 82
27.639 -0.875 -1.039 7
45.993 -1.4069999 -0.98000002 29
75.497002 -2.2249999 -0.38100001 61
145.74899 -4.1350002 1.633 122
127.662 -3.4820001 3.503 39
23.618999 -0.625 -1.2 72
38.689999 -0.98000002 -1.336 4
68.596001 -1.661 -1.253 3
77.658997 -1.795 -0.15800001 45
115.491 -2.5469999 1.635 10
128.258 -2.6930001 3.8900001 36
23.864 -0.47999999 -1.141 21
41.054001 -0.78200001 -1.2970001 12
73.857002 -1.324 -1.136 5
77.695999 -1.304 0.064000003 49
127.222 -1.995 2.1630001 40
127.716 -1.869 4.2329998 32
25.818001 -0.354 -1.159 27
41.564999 -0.523 -1.193 11
75.080002 -0.86500001 -0.94300002 70
78.000999 -0.81199998 0.27900001 6
127.461 -1.188 2.5139999 46
127.908 -1.057 4.5840001 39
27.024 -0.19499999 -1.137 56
27.554001 -0.168 -0.71499997 54
28.079 -0.141 -0.27599999 0
70.676003 -0.28 0.442 28
70.570999 -0.20200001 1.5779999 17
71.000999 -0.12800001 2.7290001 8
27.27 -0.018999999 -1.074 67
27.313999 0.0089999996 -0.63700002 60
27.771999 0.037999999 -0.20100001 42
0 0 0 0
127.39 0.46200001 3.1719999 35
70.5 0.329 2.8870001 6
27.096001 0.15700001 -0.99800003 69
27.115999 0.186 -0.56400001 68
27.559 0.22 -0.13 59
139.452 1.265 1.574 11
127.423 1.289 3.48 29
69.712997 0.78399998 3.023 8
27.007999 0.336 -0.92799997 52
26.943001 0.36399999 -0.49399999 70
27.315001 0.39899999 -0.064000003 61
138.34 2.171 1.89 14
139.545 2.342 4.1399999 20
0 0 0 0
26.763 0.50999999 -0.85699999 74
26.771999 0.54000002 -0.42899999 79
27.218 0.579 -0.001 68
132.96899 2.973 2.1170001 48
0 0 0 0
0 0 0 0
26.586 0.68699998 -0.79100001 72
26.702 0.71799999 -0.368 76
27.141001 0.75999999 0.057999998 72
131.97301 3.835 2.385 37
133.903 4.0370002 4.5560002 23
137.379 4.2859998 6.8639998 25
26.507 0.86199999 -0.73199999 65
26.655001 0.89499998 -0.31200001 77
27.174999 0.94099998 0.113 65
131.91299 4.717 2.652 34
134.091 4.9400001 4.8309999 18
137.03101 5.1989999 7.1199999 36
26.455 1.04 -0.67799997 63
26.615 1.074 -0.259 71
27.247999 1.128 0.167 39
130.89101 5.5619998 2.882 35
134.509 5.8559999 5.099 13
0 0 0 0
26.395 1.217 -0.62599999 75
26.611 1.255 -0.20900001 74
27.284 1.3150001 0.21699999 30
129.866 6.3979998 3.095 33
132.972 6.6950002 5.2800002 18
77.510002 3.984 4.3080001 33
26.391001 1.398 -0.57800001 66
26.617001 1.439 -0.162 75
27.445 1.511 0.266 25
131.25999 7.3660002 3.3540001 26
132.041 7.546 5.4660001 33
90.389999 5.2639999 5.1760001 13
26.365 1.579 -0.53399998 68
26.695999 1.626 -0.119 76
27.579 1.7079999 0.31200001 3
79.300003 4.9920001 2.1530001 3
122.257 7.8280001 5.2550001 27
79.543999 5.1799998 4.6789999 4
26.400999 1.7640001 -0.49399999 70
26.749001 1.812 -0.078000002 80
79.110001 5.4450002 1.016 54
78.970001 5.5180001 2.2620001 26
83.349998 5.9130001 3.7049999 47
76.456001 5.5079999 4.6090002 20
26.445 1.951 -0.456 67
26.906 2.01 -0.041000001 73
88.667 6.7119999 1.261 73
79.085999 6.0689998 2.3729999 8
77.632004 6.04 3.5550001 8
75.517998 5.961 4.6539998 11
26.535 2.141 -0.42300001 74
27.087999 2.214 -0.0049999999 80
88.662003 7.3309999 1.376 29
88.666 7.4190001 2.773 150
0 0 0 0
75.638 6.4879999 4.7540002 18
26.681 2.339 -0.39300001 78
27.381001 2.4260001 0.026000001 43
47.250999 4.2319999 0.787 3
93.603996 8.4799995 3.0339999 5
112.535 10.319 5.4239998 28
77.529999 7.1900001 4.961 39
26.9 2.5469999 -0.36700001 75
36.421001 3.483 0.074000001 48
47.377998 4.5749998 0.83999997 7
112.042 10.935 3.75 9
112.936 11.146 5.559 73
78.307999 7.8130002 5.0910001 8
27.275 2.776 -0.345 65
35.619999 3.6570001 0.107 45
36.573002 3.7920001 0.68300003 31
0 0 0 0
112.253 11.866 5.6300001 25
78.32 8.3599997 5.1630001 43
35.202 3.8310001 -0.41600001 45
35.123001 3.855 0.134 61
35.749001 3.9560001 0.69700003 46
113.112 12.626 3.984 13
0 0 0 0
78.880997 8.9720001 5.2620001 28
34.757 4.0279999 -0.384 43
34.773998 4.0609999 0.15899999 62
35.172001 4.1409998 0.71200001 61
36.577999 4.3429999 1.3150001 31
116.072 13.897 5.9980001 30
91.769997 11.086 6.1869998 25
34.455002 4.237 -0.359 42
34.483002 4.27 0.17900001 64
34.870998 4.3509998 0.727 51
35.889999 4.5139999 1.312 47
0 0 0 0
92.642998 11.849 6.3010001 34
34.188 4.4510002 -0.33899999 62
34.243 4.4879999 0.19499999 63
34.577999 4.5619998 0.73799998 62
35.386002 4.7030001 1.311 46
0 0 0 0
92.959999 12.546 6.3670001 38
26.002001 3.572 -0.24699999 46
34.060001 4.7080002 0.208 63
34.375999 4.7820001 0.74800003 66
22.893999 3.2060001 0.85699999 0
0 0 0 0
0 0 0 0
25.632 3.7030001 -0.236 48
26.066999 3.7880001 0.16599999 17
22.855 3.342 0.50300002 71
22.804001 3.3559999 0.85900003 79
0 0 0 0
0 0 0 0
25.447001 3.862 -0.23 38
22.702 3.4630001 0.149 0
22.698999 3.483 0.50400001 71
22.656 3.497 0.85799998 65
36.085999 5.6059999 1.933 3
0 0 0 0
25.250999 4.0159998 -0.227 42
25.500999 4.0770001 0.168 54
22.57 3.628 0.50199997 78
22.528 3.641 0.85399997 71
35.474998 5.7670002 1.903 5
0 0 0 0
25.113001 4.1760001 -0.227 50
25.367001 4.237 0.16599999 56
22.440001 3.767 0.498 4
34.208 5.7729998 1.295 46
35.421001 6.0120001 1.897 9
0 0 0 0
24.975 4.335 -0.23 47
25.271999 4.4050002 0.161 54
25.952 4.5450001 0.57200003 25
34.030998 5.9889998 1.283 43
35.168999 6.223 1.8789999 18
0 0 0 0
24.898001 4.5009999 -0.236 49
25.194 4.5739999 0.153 48
25.799 4.7049999 0.56099999 45
33.923 6.2160001 1.271 53
35.123001 6.4699998 1.867 28
0 0 0 0
24.771 4.6599998 -0.245 56
25.097 4.7379999 0.14300001 53
25.579 4.8499999 0.54699999 52
33.759998 6.4299998 1.251 53
34.912998 6.6830001 1.842 40
116.466 22.406 7.9819999 14
24.681 4.823 -0.257 62
25.132 4.9299998 0.131 23
25.503 5.0209999 0.53299999 47
33.661999 6.6570001 1.2309999 60
34.570999 6.8670001 1.808 43
115.826 23.124001 7.8839998 29
24.677 5.0029998 -0.27200001 52
24.934 5.073 0.114 51
25.438999 5.1939998 0.51499999 47
33.578999 6.8839998 1.2079999 55
34.582001 7.119 1.788 44
96.764 20.017 6.5289998 20
24.805 5.21 -0.292 37
24.907 5.2480001 0.096000001 43
25.478001 5.388 0.498 37
33.528999 7.1170001 1.183 57
34.407001 7.3340001 1.755 44
90.899002 19.466 6.0710001 41
24.634001 5.3559999 -0.31099999 45
24.858 5.4200001 0.075000003 46
25.360001 5.5479999 0.47499999 51
33.437 7.3400002 1.152 55
34.361 7.572 1.726 45
0 0 0 0
24.599001 5.5289998 -0.33399999 45
24.827999 5.5939999 0.050999999 44
25.372 5.7360001 0.45199999 45
33.372002 7.5700002 1.119 59
34.245998 7.7979999 1.688 44
87.410004 19.989 5.6900001 14
24.728001 5.7410002 -0.36199999 44
24.787001 5.7690001 0.025 56
25.375999 5.9229999 0.42399999 38
33.394001 7.8200002 1.085 59
34.165001 8.0279999 1.649 44
83.648003 19.739 5.362 39
24.636999 5.902 -0.38999999 51
24.886999 5.9759998 -0.003 55
25.371 6.1100001 0.39500001 44
33.326 8.0489998 1.045 62
34.151001 8.276 1.61 44
83.578003 20.337 5.2639999 32
24.645 6.0869999 -0.42300001 57
24.885 6.1599998 -0.035 45
25.451 6.316 0.36399999 45
33.397999 8.3109999 1.006 42
34.110001 8.5159998 1.566 44
83.644997 20.955999 5.1680002 27
24.872999 6.3280001 -0.46200001 38
24.868 6.3379998 -0.07 55
25.610001 6.5419998 0.331 30
33.358002 8.5450001 0.95899999 42
34.113998 8.7650003 1.521 44
83.539001 21.544001 5.0500002 19
24.788 6.4899998 -0.498 54
25.025 6.5640001 -0.108 42
25.667 6.7470002 0.294 17
33.376999 8.7939997 0.91100001 52
34.209999 9.04 1.476 45
83.791 22.216999 4.9450002 29
24.896999 6.704 -0.542 45
25.174 6.79 -0.15000001 40
33.145 8.9569998 0.32699999 49
33.402 9.0480003 0.85900003 30
34.196999 9.2869997 1.423 44
84.151001 22.926001 4.8390002 10
25.070999 6.9369998 -0.58999997 37
25.437 7.0479999 -0.19499999 40
33.209999 9.2180004 0.271 61
33.500999 9.3190002 0.80500001 50
34.263 9.5570002 1.369 44
90.117996 25.214001 5.0349998 11
25.528 7.2540002 -0.648 38
33.324001 9.4799995 -0.317 55
33.328999 9.4980001 0.212 55
33.626999 9.6020002 0.74800003 42
34.456001 9.8620005 1.316 45
89.762001 25.76 4.8600001 14
33.766998 9.8430004 -0.92400002 37
33.504002 9.7790003 -0.38299999 40
33.481998 9.7880001 0.149 59
33.729 9.8789997 0.68699998 53
34.698002 10.184 1.261 46
96.568001 28.422001 5.0510001 7
34.342999 10.268 -1.012 24
33.730999 10.093 -0.45500001 61
33.705002 10.099 0.082000002 43
33.944 10.189 0.62400001 44
35.058998 10.545 1.205 47
90.967003 27.427 4.5830002 9
27.507999 8.427 -0.86900002 4
34.064999 10.445 -0.53299999 43
33.911999 10.409 0.011 44
34.247002 10.529 0.55900002 45
35.584 10.962 1.15 2
90.519997 27.948999 4.3769999 26
27.558001 8.6459999 -0.935 16
34.673 10.886 -0.62099999 43
34.375999 10.804 -0.064999998 39
34.842999 10.965 0.49200001 43
118.634 37.410999 3.5799999 15
89.323997 28.228001 4.1300001 28
26.431999 8.4890003 -0.95999998 28
26.181999 8.4130001 -0.52999997 45
26.591999 8.552 -0.112 27
45.360001 14.606 0.537 5
0 0 0 0
88.837997 28.718 3.9059999 23
24.014999 7.8889999 -0.93199998 0
26.093 8.5749998 -0.59399998 28
26.107 8.585 -0.17299999 32
26.555 8.7440004 0.25099999 4
90.728996 29.924 2.3180001 23
88.205002 29.15 3.6730001 8
0 0 0 0
25.632 8.6129999 -0.64899999 46
25.712999 8.6470003 -0.236 43
26.141001 8.8000002 0.18000001 41
145.612 49.094002 3.3559999 31
0 0 0 0
23.677999 8.1309996 -1.0470001 26
25.483 8.7510004 -0.71399999 43
25.482 8.7539997 -0.30199999 36
25.761999 8.8579998 0.111 41
26.493999 9.1239996 0.54299998 6
99.886002 34.458 3.661 14
21.452999 7.526 -1.0089999 18
25.264 8.8610001 -0.778 39
25.347 8.8929996 -0.37 39
25.556 8.974 0.039999999 36
26.056999 9.1590004 0.46399999 32
99.678001 35.096001 3.391 18
21.487 7.6960001 -1.074 63
25.174 9.0139999 -0.84799999 41
25.516001 9.1389999 -0.44499999 27
25.344999 9.0839996 -0.029999999 34
25.691 9.2180004 0.38499999 39
94.752998 34.047001 2.961 31
21.253 7.7690001 -1.127 54
25.077999 9.1639996 -0.921 44
25.148001 9.1899996 -0.51300001 29
25.146 9.1940002 -0.103 41
25.473 9.3210001 0.31 33
26.312 9.6420002 0.74800003 3
21.239 7.9180002 -1.193 51
24.822001 9.25 -0.98799998 28
25.032 9.3269997 -0.58700001 43
25.028 9.3280001 -0.177 42
25.26 9.4209995 0.233 37
25.952 9.691 0.66299999 27
21.242001 8.0749998 -1.262 51
23.825001 9.0500002 -1.023 19
25.032 9.5059996 -0.66399997 42
25.004999 9.4980001 -0.25400001 37
25.099001 9.54 0.156 45
25.652 9.7620001 0.57800001 37
21.209999 8.2159996 -1.331 48
21.59 8.3559999 -0.99800003 20
25.131001 9.7229996 -0.74800003 27
24.805 9.5970001 -0.33000001 55
25.035 9.691 0.077 39
25.434 9.8579998 0.495 34
21.273001 8.3940001 -1.408 53
21.271999 8.3870001 -1.056 54
24.952999 9.8319998 -0.82599998 33
24.941 9.8269997 -0.414 26
24.886999 9.8100004 -0.0040000002 51
25.281 9.974 0.41100001 42
21.329 8.5699997 -1.487 57
21.204 8.5109997 -1.127 57
25.025999 10.04 -0.91399997 26
24.806999 9.9510002 -0.49599999 37
24.882999 9.9829998 -0.086000003 41
25.261 10.142 0.32800001 33
21.540001 8.8100004 -1.58 40
21.250999 8.6800003 -1.204 56
24.604 10.043 -0.98400003 42
24.889999 10.155 -0.58200002 34
24.787001 10.115 -0.169 50
25.096001 10.248 0.243 44
21.353001 8.8870001 -1.645 37
21.301001 8.8520002 -1.284 49
0 0 0 0
24.858 10.316 -0.66900003 41
24.843 10.31 -0.25600001 44
25.039 10.396 0.156 43
21.329 9.0279999 -1.725 17
21.302999 9.0019999 -1.364 52
21.485001 9.0699997 -1.016 20
24.867001 10.493 -0.75999999 38
24.846001 10.483 -0.345 44
25.006001 10.554 0.067000002 47
21.014999 9.0450001 -1.783 17
21.757 9.3500004 -1.478 34
21.341999 9.1610003 -1.091 46
24.919001 10.689 -0.85600001 36
24.877001 10.668 -0.43799999 42
25.076 10.755 -0.023 41
20.089001 8.7889996 -1.785 14
21.445 9.368 -1.5420001 37
21.288 9.2860003 -1.171 53
25.004999 10.899 -0.95499998 41
25.028999 10.905 -0.53600001 38
25.177999 10.97 -0.117 39
19.200001 8.5360003 -1.785 13
21.521 9.5500002 -1.635 31
21.385 9.474 -1.261 41
23.792999 10.531 -1.001 29
25.15 11.128 -0.634 40
25.256001 11.174 -0.213 44
18.329 8.2770004 -1.78 11
21.362 9.6269999 -1.71 17
21.457001 9.6529999 -1.351 39
22.384001 10.059 -1.03 27
25.299 11.361 -0.73699999 40
25.299999 11.36 -0.31200001 42
17.462999 8.007 -1.771 13
20.893999 9.559 -1.76 19
21.426001 9.7860003 -1.439 42
21.391001 9.757 -1.072 57
25.671 11.7 -0.85100001 22
25.702999 11.711 -0.41800001 10
16.709999 7.777 -1.7690001 12
19.909 9.2449999 -1.763 13
21.871 10.136 -1.561 22
21.334999 9.8739996 -1.158 47
24.914 11.519 -0.92699999 9
35.976002 16.625999 -0.72899997 3
15.993 7.553 -1.763 11
18.91 8.908 -1.757 11
21.521999 10.118 -1.6289999 28
21.358999 10.025 -1.249 49
24.242001 11.367 -1.003 28
30.73 14.401 -0.74900001 5
15.342 7.349 -1.761 10
18.065001 8.6300001 -1.758 12
21.423 10.213 -1.714 15
21.468 10.217 -1.348 45
0 0 0 0
30.799 14.629 -0.87900001 7
14.773 7.177 -1.7640001 9
17.221001 8.342 -1.7539999 13
20.833 10.068 -1.76 17
21.506001 10.374 -1.444 41
21.405001 10.311 -1.068 53
30.917 14.881 -1.0140001 36
14.185 6.9850001 -1.761 9
16.473 8.0889997 -1.7539999 12
19.768 9.6809998 -1.758 10
21.698999 10.606 -1.553 43
21.444 10.466 -1.164 47
24.722 12.054 -0.91799998 9
13.677 6.8249998 -1.762 8
15.713 7.816 -1.7460001 11
18.754999 9.3050003 -1.755 10
21.632 10.71 -1.647 20
21.509001 10.632 -1.262 40
23.622999 11.665 -0.97899997 30
13.177 6.6620002 -1.761 8
15.105 7.6110001 -1.75 10
17.856001 8.9720001 -1.753 11
21.375 10.716 -1.724 12
21.635 10.827 -1.368 37
22.143999 11.069 -1.016 26
12.698 6.5019999 -1.76 10
14.495 7.3969998 -1.75 9
16.992001 8.6450005 -1.749 12
20.458 10.383 -1.745 12
21.645 10.965 -1.4680001 36
21.594999 10.924 -1.089 50
12.269 6.3610001 -1.762 10
13.919 7.1900001 -1.747 9
16.261 8.3739996 -1.752 12
19.469 9.9989996 -1.752 9
21.858 11.203 -1.582 29
21.667999 11.088 -1.1900001 38
11.86 6.223 -1.762 11
13.429 7.0190001 -1.752 9
15.532 8.092 -1.747 11
18.436001 9.5780001 -1.745 9
21.656 11.226 -1.668 17
21.624001 11.19 -1.286 40
11.476 6.092 -1.762 10
12.938 6.8400002 -1.752 8
14.882 7.8410001 -1.7460001 10
17.474001 9.1800003 -1.738 9
21.143 11.082 -1.727 16
21.778999 11.395 -1.396 36
11.096 5.9580002 -1.761 11
12.483 6.6739998 -1.752 10
14.295 7.6160002 -1.748 9
16.723 8.882 -1.744 12
20.098 10.648 -1.738 11
21.950001 11.606 -1.511 29
10.742 5.8319998 -1.76 11
12.043 6.5110002 -1.752 10
13.732 7.3959999 -1.747 8
15.963 8.5699997 -1.743 12
19.080999 10.217 -1.742 8
21.830999 11.664 -1.605 31
10.415 5.7160001 -1.761 11
11.651 6.3660002 -1.7539999 11
13.21 7.1890001 -1.747 8
15.251 8.2720003 -1.7410001 11
18.177 9.8330002 -1.748 9
21.653999 11.687 -1.696 15
10.105 5.605 -1.762 11
11.246 6.2090001 -1.751 10
12.741 7.0050001 -1.749 9
14.621 8.0109997 -1.7410001 10
17.214001 9.4029999 -1.739 10
20.747999 11.306 -1.725 9
9.8030005 5.493 -1.762 11
10.899 6.0780001 -1.7539999 11
12.279 6.8189998 -1.749 10
14.025 7.7589998 -1.7410001 9
16.441999 9.0690002 -1.743 12
19.659 10.815 -1.7309999 7
9.5200005 5.388 -1.762 12
10.543 5.9369998 -1.753 11
11.873 6.6570001 -1.7539999 10
13.495 7.5380001 -1.744 8
15.667 8.7220001 -1.739 11
18.655001 10.357 -1.734 8
9.2539997 5.2880001 -1.763 11
10.231 5.8169999 -1.755 10
11.461 6.4850001 -1.751 10
12.977 7.3140001 -1.743 8
14.991 8.4200001 -1.739 11
17.709 9.9189997 -1.733 9
9.0039997 5.1939998 -1.7640001 11
9.9130001 5.6869998 -1.7539999 11
11.088 6.3319998 -1.752 10
12.508 7.1129999 -1.744 9
14.351 8.132 -1.737 9
16.848 9.5179996 -1.733 11
8.7449999 5.0900002 -1.761 11
9.6420002 5.5809999 -1.757 10
10.731 6.1810002 -1.753 11
12.063 6.9190001 -1.745 10
13.776 7.8720002 -1.739 9
16.07 9.1529999 -1.734 12
8.5100002 4.9970002 -1.761 11
9.3570004 5.4629998 -1.756 11
10.402 6.0419998 -1.7539999 11
11.678 6.7519999 -1.75 10
13.267 7.6420002 -1.742 8
15.358 8.816 -1.734 11
8.3039999 4.9180002 -1.7640001 11
9.1009998 5.3579998 -1.757 12
10.087 5.9070001 -1.7539999 11
11.294 6.5819998 -1.75 10
12.735 7.3909998 -1.735 8
14.715 8.5109997 -1.734 10
8.0950003 4.8319998 -1.7640001 11
8.8629999 5.2579999 -1.758 12
9.7980003 5.7810001 -1.755 10
10.927 6.4159999 -1.75 10
12.3 7.1919999 -1.739 9
14.082 8.2040005 -1.7309999 9
7.895 4.75 -1.7640001 11
8.6169996 5.152 -1.756 11
9.526 5.6630001 -1.757 12
10.565 6.25 -1.748 12
11.904 7.0100002 -1.745 10
13.577 7.9660001 -1.738 9
7.7059999 4.671 -1.765 11
8.3909998 5.053 -1.756 11
9.2629995 5.546 -1.758 12
10.275 6.1199999 -1.753 10
11.508 6.823 -1.7460001 10
13.065 7.7160001 -1.739 8
7.5209999 4.592 -1.765 12
8.1859999 4.9650002 -1.758 11
9.0039997 5.428 -1.757 11
9.9610004 5.973 -1.752 11
11.142 6.6490002 -1.748 10
12.548 7.4580002 -1.734 9
7.3499999 4.5180001 -1.765 11
7.9899998 4.8779998 -1.7589999 11
8.7639999 5.3169999 -1.757 12
9.6809998 5.842 -1.7539999 11
10.78 6.473 -1.747 11
12.137 7.257 -1.738 10
7.1810002 4.4439998 -1.765 11
7.7989998 4.7919998 -1.76 11
8.5469999 5.2179999 -1.7589999 12
9.4099998 5.7119999 -1.753 12
10.458 6.316 -1.749 10
11.738 7.0580001 -1.7410001 11
7.0359998 4.381 -1.768 11
7.6199999 4.71 -1.76 11
8.3249998 5.112 -1.758 12
9.165 5.5949998 -1.756 12
10.159 6.1690001 -1.75 11
11.381 6.8800001 -1.745 10
6.881 4.309 -1.768 10
7.454 4.6339998 -1.763 11
8.1190004 5.013 -1.757 11
8.9300003 5.4809999 -1.757 12
9.8570004 6.0170002 -1.749 11
11.015 6.6919999 -1.745 10
6.743 4.2470002 -1.7690001 11
7.2789998 4.5489998 -1.761 11
7.9299998 4.9219999 -1.7589999 11
8.6859999 5.3569999 -1.7539999 11
9.5959997 5.8860002 -1.752 11
10.678 6.5180001 -1.745 10
6.6009998 4.1789999 -1.768 10
7.1279998 4.4770002 -1.762 11
7.7529998 4.835 -1.76 11
8.4870005 5.2589998 -1.758 11
9.3439999 5.757 -1.753 11
10.386 6.3670001 -1.749 11
6.4829998 4.1240001 -1.771 10
6.9809999 4.4050002 -1.763 10
7.5879998 4.7529998 -1.762 12
8.2770004 5.1500001 -1.756 11
9.0979996 5.6290002 -1.752 12
10.092 6.211 -1.749 12
6.375 4.073 -1.776 10
6.8410001 4.335 -1.763 11
7.427 4.6719999 -1.762 12
8.0970001 5.059 -1.7589999 12
8.8920002 5.5219998 -1.756 12
9.809 6.059 -1.748 11
6.2309999 3.997 -1.7690001 12
6.7259998 4.2800002 -1.7690001 11
7.2690001 4.5900002 -1.762 11
7.9039998 4.9559999 -1.757 11
8.6759996 5.4060001 -1.757 11
9.566 5.928 -1.751 12
6.1129999 3.937 -1.7690001 11
6.5939999 4.211 -1.7690001 11
7.119 4.5100002 -1.763 11
7.7389998 4.868 -1.7589999 11
8.4689999 5.2940001 -1.757 12
9.3109999 5.7870002 -1.75 12
6.0009999 3.878 -1.768 11
6.4780002 4.1500001 -1.771 11
6.9840002 4.4390001 -1.765 11
7.5780001 4.7810001 -1.76 12
8.2790003 5.1900001 -1.758 11
9.0869999 5.6630001 -1.752 12
5.9000001 3.825 -1.7690001 11
6.3660002 4.0900002 -1.773 10
6.8540001 4.368 -1.766 11
7.4239998 4.6960001 -1.761 11
8.0909996 5.0840001 -1.757 11
8.8809996 5.5469999 -1.7539999 11
5.8060002 3.7750001 -1.77 10
6.2540002 4.0279999 -1.773 10
6.7490001 4.3109999 -1.772 11
7.27 4.6090002 -1.76 11
7.9180002 4.9850001 -1.757 12
8.6780005 5.4299998 -1.755 12
5.711 3.721 -1.77 10
6.1129999 3.9460001 -1.763 10
6.625 4.2399998 -1.771 11
7.1430001 4.5359998 -1.763 11
7.7579999 4.8930001 -1.758 12
8.4829998 5.316 -1.755 12
5.631 3.677 -1.774 11
6.0159998 3.8900001 -1.765 12
6.4879999 4.1589999 -1.766 11
7.0100002 4.4580002 -1.763 11
7.6149998 4.809 -1.761 12
8.309 5.2129998 -1.757 11
5.5450001 3.6259999 -1.774 10
5.9250002 3.8369999 -1.767 11
6.3720002 4.0900002 -1.7640001 12
6.8870001 4.3850002 -1.7640001 11
7.4619999 4.7160001 -1.76 12
8.1289997 5.1040001 -1.756 12
5.4640002 3.5769999 -1.774 10
5.8330002 3.7809999 -1.766 11
6.2789998 4.0339999 -1.767 12
6.7820001 4.3210001 -1.768 11
7.3260002 4.6329999 -1.76 11
7.98 5.0120001 -1.758 11
5.3839998 3.5280001 -1.773 10
5.7470002 3.7279999 -1.767 10
6.1830001 3.974 -1.7690001 12
6.6799998 4.2579999 -1.771 11
7.2049999 4.5580001 -1.763 11
7.8189998 4.9120002 -1.757 11
5.3099999 3.4809999 -1.773 10
5.6700001 3.6789999 -1.7690001 11
6.092 3.9159999 -1.7690001 11
6.5640001 4.184 -1.7690001 11
7.092 4.4850001 -1.766 11
7.6810002 4.823 -1.758 11
5.2080002 3.414 -1.763 15
5.5830002 3.6229999 -1.766 11
6.0009999 3.8570001 -1.7690001 11
6.467 4.1199999 -1.771 10
6.9780002 4.4109998 -1.767 11
7.5409999 4.7319999 -1.758 12
5.1539998 3.378 -1.767 22
5.5219998 3.5810001 -1.771 11
5.9109998 3.7969999 -1.768 12
6.355 4.046 -1.767 12
6.8559999 4.329 -1.7640001 11
7.427 4.6560001 -1.761 12
5.1079998 3.345 -1.773 25
5.454 3.5339999 -1.772 11
5.8410001 3.7479999 -1.771 12
6.27 3.987 -1.768 11
6.7680001 4.2680001 -1.7690001 11
7.3070002 4.5739999 -1.762 11
5.0560002 3.3080001 -1.776 23
5.3790002 3.4809999 -1.7690001 11
5.7680001 3.6960001 -1.772 11
6.1950002 3.9330001 -1.771 10
6.6849999 4.2090001 -1.773 11
7.1929998 4.4949999 -1.763 11
4.9959998 3.2639999 -1.775 22
5.3119998 3.4319999 -1.7690001 10
5.6939998 3.642 -1.771 11
6.1069999 3.8699999 -1.77 12
6.5489998 4.1149998 -1.762 11
7.092 4.4219999 -1.765 11
4.9450002 3.224 -1.777 21
5.2410002 3.3789999 -1.765 19
5.6199999 3.5869999 -1.77 11
6.0300002 3.812 -1.771 11
6.4580002 4.0479999 -1.762 12
6.9920001 4.348 -1.766 11
4.8860002 3.178 -1.774 21
5.1859999 3.336 -1.766 27
5.5679998 3.5450001 -1.774 11
5.954 3.7539999 -1.77 11
6.3889999 3.993 -1.767 12
6.895 4.2750001 -1.766 11
4.8379998 3.1389999 -1.775 21
5.1479998 3.302 -1.772 32
5.507 3.4949999 -1.774 11
5.8870001 3.7 -1.771 12
6.3119998 3.9330001 -1.767 11
6.8169999 4.2119999 -1.77 11
4.8049998 3.1070001 -1.779 21
5.1030002 3.2620001 -1.774 39
5.4429998 3.4430001 -1.773 10
5.8210001 3.6459999 -1.771 11
6.2459998 3.8770001 -1.77 11
6.7329998 4.145 -1.77 10
4.7680001 3.073 -1.7819999 21
5.0469999 3.2149999 -1.772 37
5.3969998 3.401 -1.776 10
5.7579999 3.5929999 -1.771 12
6.1799998 3.8210001 -1.771 12
6.618 4.0580001 -1.762 11
4.73 3.036 -1.783 22
5.0079999 3.177 -1.774 44
5.3390002 3.3510001 -1.774 11
5.704 3.5439999 -1.773 11
6.1149998 3.7639999 -1.772 12
6.5359998 3.9890001 -1.761 12
4.6900001 2.9979999 -1.783 22
4.9710002 3.1400001 -1.777 38
5.2719998 3.2939999 -1.768 14
5.6529999 3.4960001 -1.774 11
6.039 3.7 -1.7690001 12
6.4749999 3.9330001 -1.7640001 13
4.6609998 2.9649999 -1.786 23
4.9239998 3.095 -1.774 43
5.2220001 3.2460001 -1.766 24
5.5970001 3.444 -1.773 11
5.9910002 3.651 -1.772 11
6.4169998 3.878 -1.767 11
4.651 2.9430001 -1.795 17
4.8899999 3.0580001 -1.776 49
5.1960001 3.2130001 -1.772 35
5.5619998 3.404 -1.777 11
5.941 3.6010001 -1.774 11
6.3649998 3.825 -1.77 12
4.6149998 2.905 -1.794 9
4.8639998 3.0250001 -1.78 39
5.1570001 3.171 -1.773 42
5.5170002 3.3570001 -1.777 11
5.888 3.5480001 -1.773 11
6.302 3.7639999 -1.7690001 12
4.5869999 2.8699999 -1.794 9
4.8309999 2.9860001 -1.779 40
5.1220002 3.1300001 -1.773 42
5.4689999 3.3069999 -1.776 10
5.8439999 3.5 -1.775 12
6.2550001 3.7119999 -1.772 12
4.553 2.8310001 -1.7920001 8
4.8239999 2.9630001 -1.789 23
5.0960002 3.0940001 -1.777 56
5.434 3.2639999 -1.777 11
5.7940001 3.4460001 -1.774 12
6.1999998 3.655 -1.772 12
4.5359998 2.8010001 -1.795 8
4.796 2.9260001 -1.789 10
5.0640001 3.053 -1.777 41
5.3990002 3.22 -1.778 11
5.7550001 3.3989999 -1.775 11
6.1539998 3.6010001 -1.772 11
4.5110002 2.767 -1.795 9
4.7659998 2.8859999 -1.788 10
