# .PCD v0.7 - Point Cloud Data file format
VERSION 0.7
FIELDS x y z intensity
SIZE 4 4 4 4
TYPE F F F F
COUNT 1 1 1 1
WIDTH 1701
HEIGHT 1
VIEWPOINT 0 0 0 1 0 0 0
POINTS 1701
DATA ascii
67.266998 -1.951 6.7319999 17
66.040001 -1.9170001 7.5830002 36
66.324997 -1.925 8.592 36
70.005997 -1.837 3.4949999 15
94.452003 -2.4790001 6.086 11
82.336998 -2.1589999 6.5019999 26
68.220001 -1.789 6.3860002 11
66.071999 -1.7309999 7.1550002 29
66.038002 -1.729 8.125 40
69.975998 -1.653 3.0450001 6
94.033997 -2.2190001 5.4559999 12
71.083 -1.675 5.1560001 6
68.348999 -1.608 5.9549999 4
66.128998 -1.553 6.7270002 9
65.903 -1.546 7.6760001 32
74.166 -1.563 2.743 30
94.009003 -1.976 4.835 11
70.686996 -1.483 4.664 8
84.327003 -1.765 6.7930002 12
72.978996 -1.525 6.9489999 22
65.940002 -1.374 7.2470002 33
0 0 0 0
69.966003 -1.301 3.1440001 13
93.206001 -1.726 5.5359998 6
94.667999 -1.747 7.0009999 6
72.953003 -1.341 6.46 10
66.080002 -1.211 6.823 14
54.477001 -0.889 1.299 14
70.015999 -1.136 2.681 19
94.417999 -1.527 4.9879999 55
94.359001 -1.518 6.3559999 11
70.344002 -1.126 5.7680001 6
68.799004 -1.095 6.6479998 3
54.014999 -0.76099998 0.93000001 45
74.619003 -1.045 2.362 4
98.283997 -1.368 4.5380001 19
70.250999 -0.97100002 4.2639999 8
69.676003 -0.95599997 5.2449999 24
72.987999 -0.99400002 6.5640001 10
54.097 -0.64999998 0.574 25
54.353001 -0.64600003 1.36 7
70.046997 -0.82499999 2.767 21
69.717003 -0.81199998 3.763 27
69.339996 -0.80000001 4.7550001 30
96.483002 -1.102 8.0240002 9
57.999001 -0.57999998 0.22400001 17
53.994999 -0.53399998 0.991 53
69.990997 -0.68300003 2.2980001 30
69.744003 -0.67199999 3.302 41
69.593002 -0.66100001 4.3070002 15
70.641998 -0.66100001 5.401 10
57.403 -0.465 -0.167 58
53.939999 -0.43000001 0.62400001 21
54.022999 -0.42399999 1.409 7
69.850998 -0.537 2.8329999 39
94.190002 -0.71100003 5.1929998 6
69.443001 -0.51300001 4.8400002 4
54.921001 -0.34799999 -0.52700001 27
57.821999 -0.35800001 0.28 21
54.071999 -0.32699999 1.0470001 22
53.962002 -0.31799999 1.8279999 3
70.217003 -0.40200001 3.3989999 8
96.287003 -0.53600001 6.0650001 20
52.387001 -0.245 -0.85900003 19
57.376999 -0.259 -0.111 57
54.509998 -0.23800001 0.68599999 26
54 -0.226 1.462 6
97.027 -0.38800001 4.0370002 9
70.206001 -0.26800001 3.944 8
47.279999 -0.149 -1.094 4
55.046001 -0.163 -0.477 23
57.98 -0.162 0.33700001 11
54.514 -0.141 1.107 7
105.514 -0.25299999 3.6700001 34
106.242 -0.23199999 5.2389998 24
0 0 0 0
52.589001 -0.079000004 -0.82099998 17
57.279999 -0.074000001 -0.063000001 59
0 0 0 0
107.76 -0.096000001 3.007 21
106.016 -0.071000002 4.4970002 29
36.062 -0.013 -1.334 13
47.178001 -0.0070000002 -1.061 9
0 0 0 0
58.231998 0.014 0.38299999 8
54.581001 0.026000001 1.151 2
105.458 0.075000003 3.7539999 26
32.817001 0.027000001 -1.441 6
0 0 0 0
52.678001 0.067000002 -0.78299999 21
56.970001 0.086000003 -0.017000001 43
108.006 0.189 1.535 29
107.896 0.215 3.1029999 30
29.829 0.057 -1.5140001 6
35.894001 0.077 -1.3 4
47.331001 0.113 -1.026 6
56.445999 0.149 -0.40400001 43
57.106998 0.16500001 0.42300001 4
0 0 0 0
27.216 0.079000004 -1.572 8
32.569 0.103 -1.4069999 5
41.237 0.14 -1.1799999 1
52.805 0.19400001 -0.74299997 21
56.978001 0.22400001 0.025 40
111.885 0.472 1.674 9
25.118999 0.094999999 -1.627 13
29.813999 0.12 -1.495 6
36.494999 0.15700001 -1.298 5
47.259998 0.21699999 -0.99199998 4
56.388 0.27500001 -0.36500001 53
57.819 0.29800001 0.46700001 2
22.983999 0.104 -1.649 19
27.15 0.13 -1.551 8
22.465 0.114 -0.95499998 0
41.505001 0.223 -1.158 1
53.09 0.301 -0.70899999 22
56.916 0.34099999 0.067000002 49
21.451 0.111 -1.689 16
25.101999 0.13699999 -1.609 18
22.787001 0.131 -1.126 11
36.634998 0.222 -1.276 6
47.307999 0.301 -0.95700002 3
56.474998 0.37900001 -0.324 59
19.561001 0.111 -1.677 9
23.035 0.138 -1.637 18
22.747 0.14300001 -1.2819999 0
22.594 0.15000001 -0.94300002 33
0 0 0 0
53.252998 0.389 -0.67199999 30
18.226999 0.111 -1.691 12
21.483999 0.138 -1.678 17
25.461 0.17200001 -1.615 15
22.355 0.15800001 -1.091 53
37.063999 0.27599999 -1.268 4
47.464001 0.37 -0.93099999 4
17.125 0.11 -1.711 10
19.66 0.132 -1.674 10
23.207001 0.16500001 -1.636 19
22.396999 0.167 -1.251 25
22.652 0.177 -0.93300003 56
41.870998 0.34200001 -1.113 1
16.117001 0.106 -1.725 9
18.261999 0.127 -1.6849999 12
21.617001 0.15800001 -1.676 17
0 0 0 0
21.853001 0.175 -1.053 61
37.414001 0.315 -1.256 6
15.265 0.102 -1.743 11
17.146999 0.121 -1.7029999 10
19.985001 0.148 -1.6900001 10
23.337 0.182 -1.6289999 19
21.91 0.17900001 -1.2079999 53
23.011 0.197 -0.93300003 58
14.484 0.096000001 -1.756 10
16.142 0.113 -1.7180001 10
18.42 0.13600001 -1.687 12
21.724001 0.169 -1.67 17
22.424 0.184 -1.395 20
21.576 0.185 -1.027 57
13.769 0.089000002 -1.7690001 10
15.287 0.105 -1.7359999 10
17.254999 0.125 -1.7029999 11
20.216 0.155 -1.697 8
23.445999 0.19 -1.624 20
21.671 0.185 -1.184 53
13.097 0.081 -1.777 10
14.494 0.096000001 -1.75 11
16.243999 0.114 -1.719 9
18.511999 0.138 -1.684 12
21.872 0.17200001 -1.668 17
22.385 0.186 -1.3789999 20
12.481 0.071999997 -1.784 10
13.78 0.086000003 -1.763 11
15.37 0.102 -1.737 11
17.35 0.123 -1.702 11
20.488001 0.155 -1.707 12
23.576 0.189 -1.618 20
11.89 0.063000001 -1.786 10
13.11 0.075000003 -1.771 10
14.584 0.090000004 -1.752 11
16.323 0.109 -1.716 9
18.627001 0.133 -1.683 12
21.962 0.167 -1.661 17
11.372 0.052999999 -1.79 11
12.507 0.064000003 -1.779 10
13.872 0.078000002 -1.765 11
15.457 0.093999997 -1.735 12
17.416 0.114 -1.6950001 11
20.653999 0.145 -1.706 13
10.902 0.043000001 -1.794 12
11.93 0.052999999 -1.783 12
13.194 0.064999998 -1.772 10
14.635 0.079000004 -1.747 10
16.440001 0.097000003 -1.716 10
18.683001 0.119 -1.674 12
10.462 0.032000002 -1.798 12
11.391 0.041000001 -1.784 12
12.593 0.052000001 -1.781 11
13.934 0.064000003 -1.761 11
15.549 0.079000004 -1.733 11
17.540001 0.098999999 -1.6950001 11
10.068 0.021 -1.803 11
10.919 0.028999999 -1.788 13
12.021 0.037999999 -1.785 11
13.295 0.048999999 -1.773 11
14.755 0.061999999 -1.747 11
16.552999 0.079000004 -1.7130001 10
9.698 0.0099999998 -1.806 11
10.505 0.017000001 -1.795 12
11.475 0.025 -1.786 12
12.663 0.034000002 -1.779 10
14.031 0.045000002 -1.76 11
15.637 0.059 -1.729 11
9.3459997 0 -1.808 11
10.098 0.0040000002 -1.798 11
11.002 0.011 -1.79 13
12.106 0.018999999 -1.786 11
13.385 0.028000001 -1.772 11
14.857 0.039999999 -1.745 11
9.0220003 -0.012 -1.811 11
9.7299995 -0.0070000002 -1.802 10
10.58 -0.0020000001 -1.7970001 13
11.553 0.003 -1.786 13
12.745 0.011 -1.778 11
14.119 0.021 -1.757 11
8.7220001 -0.024 -1.8150001 11
9.3769999 -0.02 -1.8049999 11
10.175 -0.016000001 -1.801 12
11.069 -0.011 -1.789 13
12.173 -0.0040000002 -1.783 12
13.458 0.0020000001 -1.7690001 11
8.4329996 -0.035999998 -1.816 10
9.0640001 -0.033 -1.809 11
9.8109999 -0.029999999 -1.806 11
10.635 -0.026000001 -1.794 12
11.643 -0.021 -1.7869999 12
12.841 -0.016000001 -1.777 11
8.1809998 -0.048 -1.821 11
8.7539997 -0.046 -1.811 11
9.4379997 -0.044 -1.8049999 11
10.234 -0.041000001 -1.799 12
11.143 -0.037999999 -1.788 13
12.282 -0.034000002 -1.785 15
7.934 -0.061000001 -1.824 10
8.4650002 -0.059 -1.812 11
9.1269999 -0.057999998 -1.8099999 11
9.8590002 -0.056000002 -1.802 12
10.716 -0.054000001 -1.794 12
11.72 -0.052000001 -1.784 11
7.7129998 -0.074000001 -1.829 11
8.2130003 -0.072999999 -1.816 11
8.8179998 -0.071999997 -1.812 11
9.5229998 -0.071000002 -1.808 12
10.318 -0.07 -1.8 12
11.237 -0.068999998 -1.789 12
7.4510002 -0.086000003 -1.821 11
7.973 -0.086000003 -1.821 11
8.5299997 -0.086000003 -1.813 11
9.1929998 -0.086000003 -1.8099999 11
9.9320002 -0.086999997 -1.801 11
10.797 -0.086999997 -1.793 12
7.2490001 -0.098999999 -1.825 12
7.7389998 -0.1 -1.823 10
8.2810001 -0.101 -1.819 12
8.8900003 -0.101 -1.812 11
9.5970001 -0.103 -1.807 11
10.389 -0.104 -1.7970001 13
7.0349998 -0.111 -1.821 11
7.5050001 -0.113 -1.821 12
8.0550003 -0.115 -1.826 11
8.6040001 -0.117 -1.814 11
9.2690001 -0.119 -1.8099999 12
10.012 -0.121 -1.8 12
6.8610001 -0.124 -1.826 12
7.3010001 -0.126 -1.824 12
7.8109999 -0.12899999 -1.826 12
8.3389997 -0.132 -1.817 11
8.9639997 -0.13500001 -1.812 11
9.6709995 -0.138 -1.8049999 12
6.6890001 -0.13699999 -1.829 12
7.085 -0.14 -1.821 11
7.5710001 -0.14300001 -1.823 11
8.1199999 -0.147 -1.826 12
8.6789999 -0.15099999 -1.814 11
9.3400002 -0.155 -1.807 11
6.52 -0.15000001 -1.83 12
6.901 -0.153 -1.823 12
7.3590002 -0.15700001 -1.825 13
7.882 -0.162 -1.827 11
8.4209995 -0.167 -1.818 12
9.0340004 -0.17200001 -1.809 11
6.3579998 -0.163 -1.831 11
6.7270002 -0.167 -1.825 11
7.1609998 -0.17200001 -1.825 12
7.645 -0.177 -1.825 12
8.1870003 -0.183 -1.823 12
8.7650003 -0.18799999 -1.814 12
6.2080002 -0.177 -1.832 11
6.5549998 -0.18000001 -1.825 13
6.9689999 -0.186 -1.825 13
7.428 -0.192 -1.825 12
7.9450002 -0.198 -1.824 13
8.4940004 -0.205 -1.816 12
6.0570002 -0.19 -1.832 12
6.3969998 -0.19400001 -1.827 12
6.8039999 -0.2 -1.83 12
7.2189999 -0.206 -1.823 12
7.6999998 -0.213 -1.821 12
8.2489996 -0.222 -1.819 12
5.934 -0.20299999 -1.837 11
6.2480001 -0.208 -1.8279999 12
6.6199999 -0.214 -1.827 12
7.013 -0.221 -1.8200001 12
7.5 -0.229 -1.825 12
8.0159998 -0.23800001 -1.823 13
5.7870002 -0.21600001 -1.834 11
6.1059999 -0.222 -1.83 11
6.467 -0.229 -1.83 12
6.8660002 -0.237 -1.829 18
7.2839999 -0.244 -1.821 12
7.7779999 -0.25400001 -1.8200001 12
5.6659999 -0.23 -1.836 11
5.9679999 -0.236 -1.831 12
6.3130002 -0.243 -1.83 12
6.6869998 -0.25099999 -1.827 12
7.0960002 -0.25999999 -1.823 13
7.5609999 -0.27000001 -1.8200001 12
5.546 -0.243 -1.837 10
5.8299999 -0.249 -1.83 13
6.1599998 -0.257 -1.829 13
6.5209999 -0.266 -1.827 13
6.9260001 -0.27500001 -1.825 12
7.3740001 -0.28600001 -1.824 12
5.4400001 -0.257 -1.841 11
5.7090001 -0.26300001 -1.832 12
6.0320001 -0.27200001 -1.8329999 13
6.3699999 -0.28099999 -1.8279999 12
6.7480001 -0.29100001 -1.824 12
7.1799998 -0.30199999 -1.824 12
5.3249998 -0.271 -1.84 11
5.5939999 -0.278 -1.835 13
5.9200001 -0.287 -1.839 14
6.2340002 -0.296 -1.831 13
6.5900002 -0.30599999 -1.825 14
6.9889998 -0.317 -1.821 12
5.224 -0.28400001 -1.842 10
5.4879999 -0.292 -1.8380001 12
5.7880001 -0.301 -1.8380001 13
6.1040001 -0.31099999 -1.834 14
6.4429998 -0.32100001 -1.827 13
6.8239999 -0.333 -1.822 12
5.1279998 -0.29800001 -1.845 11
5.388 -0.30599999 -1.842 12
5.6669998 -0.315 -1.8380001 12
5.9660001 -0.32499999 -1.832 13
6.2719998 -0.33500001 -1.8200001 13
6.671 -0.34900001 -1.824 12
5.0289998 -0.31099999 -1.845 11
5.283 -0.31999999 -1.8430001 12
5.5560002 -0.33000001 -1.839 12
5.8499999 -0.34 -1.835 12
6.1599998 -0.35100001 -1.827 12
6.513 -0.36399999 -1.823 13
4.9369998 -0.32499999 -1.845 11
5.1799998 -0.33399999 -1.8430001 11
5.4460001 -0.34400001 -1.84 13
5.724 -0.35499999 -1.834 13
6.0440001 -0.36700001 -1.832 13
6.3720002 -0.38 -1.824 12
4.8509998 -0.338 -1.848 10
5.0939999 -0.34799999 -1.846 12
5.3520002 -0.359 -1.844 13
5.6230001 -0.37 -1.8380001 12
5.9260001 -0.38299999 -1.835 13
6.2379999 -0.396 -1.826 12
4.7740002 -0.35299999 -1.852 10
4.9949999 -0.36199999 -1.845 12
5.25 -0.373 -1.844 12
5.507 -0.384 -1.836 13
5.8049998 -0.398 -1.835 13
6.1030002 -0.41100001 -1.825 12
4.6900001 -0.366 -1.851 10
4.9039998 -0.375 -1.844 11
5.1599998 -0.38800001 -1.847 12
5.4070001 -0.39899999 -1.8380001 13
5.6939998 -0.41299999 -1.836 13
6 -0.428 -1.832 13
4.6129999 -0.38 -1.853 10
4.823 -0.38999999 -1.847 10
5.0609999 -0.40200001 -1.845 11
5.3200002 -0.41499999 -1.8430001 12
5.5819998 -0.428 -1.835 13
5.882 -0.44400001 -1.832 13
4.5419998 -0.39399999 -1.8559999 10
4.737 -0.403 -1.846 11
4.9790001 -0.417 -1.847 12
5.224 -0.43000001 -1.844 12
5.4829998 -0.44299999 -1.837 13
5.7690001 -0.45899999 -1.832 14
4.4689999 -0.40799999 -1.857 10
4.665 -0.41800001 -1.849 11
4.8940001 -0.43099999 -1.848 11
5.1360002 -0.44499999 -1.845 11
5.382 -0.45899999 -1.837 12
5.6620002 -0.47499999 -1.8329999 12
4.3979998 -0.421 -1.857 10
4.5960002 -0.43200001 -1.852 11
4.8150001 -0.44499999 -1.849 12
5.052 -0.45899999 -1.847 11
5.3039999 -0.47499999 -1.8430001 12
5.5580001 -0.49000001 -1.8329999 13
4.3299999 -0.435 -1.858 10
4.5250001 -0.447 -1.854 12
4.7350001 -0.46000001 -1.849 12
4.9590001 -0.47400001 -1.844 11
5.2119999 -0.49000001 -1.844 12
5.467 -0.50700003 -1.836 12
4.2610002 -0.44800001 -1.858 10
4.4580002 -0.461 -1.855 11
4.6669998 -0.47499999 -1.852 11
4.8829999 -0.48899999 -1.847 11
5.118 -0.505 -1.841 11
5.3699999 -0.52200001 -1.836 12
4.1960001 -0.46200001 -1.858 10
4.3940001 -0.47600001 -1.858 11
4.5949998 -0.48899999 -1.853 11
4.803 -0.50300002 -1.846 10
5.0500002 -0.52100003 -1.847 11
5.2870002 -0.53799999 -1.839 11
4.1279998 -0.47499999 -1.855 9
4.3330002 -0.49000001 -1.86 11
4.527 -0.50400001 -1.854 11
4.7290001 -0.51800001 -1.847 11
4.9679999 -0.53600001 -1.847 12
5.2090001 -0.55400002 -1.842 11
4.0749998 -0.48899999 -1.858 9
4.2639999 -0.50300002 -1.858 10
4.4689999 -0.51899999 -1.858 11
4.6659999 -0.53399998 -1.851 11
4.888 -0.551 -1.847 11
5.1329999 -0.57099998 -1.845 11
4.0209999 -0.50300002 -1.86 9
4.2030001 -0.51700002 -1.858 10
4.402 -0.53299999 -1.858 11
4.5960002 -0.54799998 -1.85 10
4.8109999 -0.56599998 -1.846 11
5.0489998 -0.58499998 -1.844 11
3.971 -0.51700002 -1.862 9
4.1469998 -0.53200001 -1.859 11
4.336 -0.54699999 -1.857 10
4.5419998 -0.56400001 -1.8559999 11
4.7449999 -0.58099997 -1.848 12
4.9759998 -0.60100001 -1.845 11
3.918 -0.53100002 -1.863 9
4.092 -0.546 -1.8609999 10
4.276 -0.56099999 -1.857 10
4.4780002 -0.579 -1.8559999 11
4.6750002 -0.59600002 -1.848 11
4.902 -0.61699998 -1.845 12
3.8710001 -0.546 -1.8660001 9
4.033 -0.55900002 -1.859 10
4.2199998 -0.57599998 -1.858 10
4.4180002 -0.59399998 -1.857 11
4.6059999 -0.611 -1.847 11
4.8330002 -0.63200003 -1.846 11
3.8199999 -0.55900002 -1.865 9
3.9809999 -0.57300001 -1.859 9
4.1690001 -0.59100002 -1.8609999 10
4.3600001 -0.60900003 -1.858 10
4.5549998 -0.62699997 -1.852 11
4.7709999 -0.648 -1.848 11
3.7750001 -0.57300001 -1.867 9
3.9319999 -0.58700001 -1.86 10
4.1199999 -0.60600001 -1.863 10
4.3000002 -0.62300003 -1.857 11
4.5019999 -0.64300001 -1.855 11
4.7080002 -0.66399997 -1.849 10
3.7320001 -0.58700001 -1.869 8
3.8870001 -0.602 -1.863 9
4.0700002 -0.62099999 -1.864 9
4.257 -0.63999999 -1.862 10
4.4450002 -0.65899998 -1.855 10
4.6490002 -0.68000001 -1.85 11
3.688 -0.60100001 -1.87 8
3.8440001 -0.61699998 -1.865 9
4.0149999 -0.634 -1.862 10
4.1950002 -0.653 -1.858 10
4.3979998 -0.67500001 -1.86 9
4.5900002 -0.69599998 -1.851 11
3.6470001 -0.61500001 -1.872 8
3.8069999 -0.63200003 -1.869 9
3.9679999 -0.64899999 -1.863 9
4.1490002 -0.66900003 -1.8609999 10
4.336 -0.68900001 -1.857 10
4.539 -0.71200001 -1.854 10
3.6040001 -0.62900001 -1.8710001 8
3.7650001 -0.64600003 -1.87 9
3.9189999 -0.662 -1.862 9
4.0970001 -0.68300003 -1.859 10
4.2870002 -0.70499998 -1.858 10
4.4819999 -0.727 -1.853 10
3.5669999 -0.64300001 -1.874 8
3.7219999 -0.66000003 -1.87 9
3.8789999 -0.67799997 -1.864 9
4.0539999 -0.69800001 -1.862 10
4.2410002 -0.72100002 -1.86 10
4.4320002 -0.74299997 -1.854 10
3.5250001 -0.65700001 -1.873 8
3.6819999 -0.67500001 -1.872 9
3.8310001 -0.69099998 -1.862 9
4.0100002 -0.713 -1.863 9
4.1890001 -0.73500001 -1.858 10
4.3850002 -0.75999999 -1.857 10
3.487 -0.67000002 -1.872 8
3.648 -0.69 -1.874 9
3.8039999 -0.708 -1.869 9
3.967 -0.72799999 -1.863 9
4.1490002 -0.75099999 -1.8609999 10
4.3400002 -0.77600002 -1.858 9
3.4549999 -0.685 -1.875 8
3.6070001 -0.70300001 -1.873 9
3.766 -0.72299999 -1.87 9
3.9200001 -0.74199998 -1.8609999 9
4.105 -0.76599997 -1.8609999 11
4.29 -0.79100001 -1.857 10
3.418 -0.69800001 -1.875 8
3.5710001 -0.71799999 -1.874 8
3.7260001 -0.73699999 -1.87 9
3.8800001 -0.75700003 -1.8609999 9
4.0630002 -0.78200001 -1.862 9
4.2529998 -0.80800003 -1.8609999 10
3.3840001 -0.71200001 -1.875 7
3.5320001 -0.73100001 -1.872 9
3.6900001 -0.75199997 -1.87 9
3.8380001 -0.77100003 -1.86 9
4.0180001 -0.796 -1.86 10
4.211 -0.824 -1.8609999 9
3.3510001 -0.72600001 -1.875 7
3.5109999 -0.74800003 -1.8789999 9
3.655 -0.76599997 -1.8710001 9
3.809 -0.787 -1.864 10
3.9879999 -0.81300002 -1.864 10
4.1690001 -0.83899999 -1.8609999 10
3.3269999 -0.741 -1.8789999 7
3.474 -0.76099998 -1.877 8
3.6259999 -0.78200001 -1.874 9
3.7750001 -0.80199999 -1.865 9
3.938 -0.82599998 -1.858 9
4.1339998 -0.85600001 -1.863 9
3.289 -0.75300002 -1.875 8
3.4449999 -0.77499998 -1.8789999 8
3.5969999 -0.79699999 -1.876 8
3.7460001 -0.81800002 -1.867 8
3.9130001 -0.84299999 -1.863 9
4.0929999 -0.87099999 -1.8609999 9
3.263 -0.76700002 -1.876 8
3.414 -0.78899997 -1.878 8
3.5599999 -0.81 -1.873 9
3.71 -0.83200002 -1.8660001 8
3.878 -0.85799998 -1.863 9
4.0580001 -0.88700002 -1.862 9
3.233 -0.77999997 -1.876 8
3.3840001 -0.80299997 -1.878 8
3.5380001 -0.82700002 -1.877 8
3.6919999 -0.85000002 -1.873 9
3.8510001 -0.87400001 -1.8660001 9
4.0240002 -0.903 -1.862 9
3.207 -0.79400003 -1.876 7
3.3540001 -0.81699997 -1.877 8
3.503 -0.83899999 -1.874 8
3.6600001 -0.86400002 -1.8710001 9
3.8080001 -0.88700002 -1.86 8
3.994 -0.91900003 -1.863 9
3.1830001 -0.80800003 -1.877 7
3.3299999 -0.83099997 -1.878 8
3.48 -0.85500002 -1.877 9
3.631 -0.87900001 -1.8710001 8
3.7850001 -0.90399998 -1.863 9
3.967 -0.93599999 -1.865 9
3.158 -0.82200003 -1.878 7
3.3050001 -0.84500003 -1.8789999 8
3.4590001 -0.87099999 -1.88 8
3.6070001 -0.89499998 -1.873 8
3.76 -0.92000002 -1.8660001 9
3.9300001 -0.94999999 -1.862 9
3.1329999 -0.83499998 -1.877 7
3.279 -0.85900003 -1.878 8
3.437 -0.88599998 -1.882 9
3.586 -0.91100001 -1.876 8
3.737 -0.93699998 -1.867 9
3.9089999 -0.96700001 -1.865 9
3.112 -0.84899998 -1.878 7
3.2539999 -0.87300003 -1.878 8
3.4100001 -0.89999998 -1.88 8
3.5599999 -0.926 -1.876 8
3.7090001 -0.95099998 -1.867 9
3.8840001 -0.98400003 -1.8660001 9
3.092 -0.86299998 -1.8789999 7
3.2349999 -0.88800001 -1.8789999 8
3.3829999 -0.91399997 -1.878 8
3.5280001 -0.93800002 -1.8710001 8
3.6919999 -0.96899998 -1.87 9
3.858 -0.99900001 -1.865 9
3.0739999 -0.87699997 -1.881 7
3.211 -0.90100002 -1.878 8
3.3659999 -0.92900002 -1.881 8
3.52 -0.958 -1.8789999 9
3.668 -0.98400003 -1.87 8
3.8399999 -1.017 -1.869 9
3.0539999 -0.89099997 -1.881 7
3.197 -0.917 -1.881 8
3.3429999 -0.94300002 -1.8789999 8
3.4949999 -0.972 -1.877 8
3.654 -1.002 -1.874 8
3.8180001 -1.033 -1.868 9
3.0350001 -0.90399998 -1.88 7
3.177 -0.93000001 -1.881 7
3.326 -0.958 -1.881 8
3.4790001 -0.98699999 -1.8789999 8
3.6359999 -1.018 -1.875 8
3.7969999 -1.049 -1.869 9
3.0209999 -0.91900003 -1.883 7
3.1589999 -0.94499999 -1.881 8
3.3069999 -0.97299999 -1.881 8
3.457 -1.002 -1.877 9
3.6170001 -1.034 -1.875 8
3.78 -1.066 -1.87 9
3.0009999 -0.93199998 -1.881 7
3.142 -0.958 -1.881 7
3.289 -0.98699999 -1.88 8
3.4400001 -1.017 -1.877 8
3.595 -1.048 -1.872 9
3.7650001 -1.0829999 -1.8710001 8
2.983 -0.94400001 -1.8789999 7
3.128 -0.97299999 -1.881 7
3.27 -1.001 -1.878 8
3.4289999 -1.034 -1.88 8
3.582 -1.0650001 -1.875 9
3.743 -1.098 -1.869 8
2.9749999 -0.95999998 -1.883 7
3.112 -0.98699999 -1.881 8
3.263 -1.018 -1.883 8
3.4119999 -1.048 -1.8789999 8
3.573 -1.082 -1.878 8
3.7349999 -1.117 -1.872 9
2.96 -0.97299999 -1.882 7
3.0999999 -1.001 -1.882 7
3.2460001 -1.031 -1.88 8
3.3970001 -1.063 -1.8789999 8
3.5569999 -1.098 -1.877 8
3.72 -1.133 -1.872 9
2.95 -0.98799998 -1.8839999 7
3.0880001 -1.016 -1.882 7
3.24 -1.048 -1.885 7
3.391 -1.081 -1.882 8
3.5469999 -1.114 -1.878 8
3.7119999 -1.151 -1.875 8
2.941 -1.003 -1.886 7
3.079 -1.03 -1.883 7
3.23 -1.063 -1.885 7
3.378 -1.095 -1.881 8
3.54 -1.132 -1.88 8
3.701 -1.168 -1.875 9
2.925 -1.0140001 -1.882 6
3.0699999 -1.046 -1.885 7
3.2179999 -1.0779999 -1.8839999 8
3.368 -1.1109999 -1.881 8
3.5250001 -1.146 -1.878 8
3.6900001 -1.184 -1.874 8
1.484 -0.523 -0.958 0
3.062 -1.0599999 -1.886 8
3.2090001 -1.0930001 -1.8839999 8
3.3610001 -1.127 -1.883 8
3.526 -1.166 -1.883 8
3.687 -1.2029999 -1.877 9
1.492 -0.53399998 -0.96600002 0
3.0550001 -1.075 -1.886 7
3.204 -1.109 -1.887 8
3.3529999 -1.142 -1.882 8
3.5120001 -1.1799999 -1.88 8
3.678 -1.219 -1.876 9
2.9030001 -1.057 -1.885 15
3.0480001 -1.089 -1.886 8
3.1930001 -1.122 -1.8839999 7
3.348 -1.158 -1.883 7
3.5050001 -1.1950001 -1.8789999 9
3.6700001 -1.235 -1.875 8
2.888 -1.067 -1.8789999 16
3.0439999 -1.104 -1.888 7
3.187 -1.137 -1.8839999 8
3.3429999 -1.174 -1.883 7
3.5 -1.212 -1.8789999 8
3.664 -1.252 -1.874 8
2.891 -1.084 -1.8839999 10
3.039 -1.119 -1.888 7
3.1849999 -1.153 -1.885 8
3.3329999 -1.188 -1.88 8
3.503 -1.2309999 -1.883 8
3.6659999 -1.271 -1.877 8
2.8889999 -1.098 -1.886 13
3.0309999 -1.131 -1.885 7
3.1819999 -1.168 -1.885 8
3.3380001 -1.206 -1.885 8
3.5 -1.247 -1.883 8
3.661 -1.2869999 -1.875 8
1.478 -0.56999999 -0.96600002 0
3.027 -1.146 -1.8839999 7
3.1830001 -1.184 -1.888 7
3.336 -1.222 -1.8839999 9
3.4979999 -1.263 -1.882 8
3.6670001 -1.307 -1.878 8
2.885 -1.127 -1.887 7
3.029 -1.1619999 -1.887 7
3.1830001 -1.2 -1.8890001 8
3.3329999 -1.237 -1.883 8
3.4990001 -1.28 -1.882 8
3.6659999 -1.324 -1.877 8
2.8859999 -1.142 -1.8890001 6
3.0309999 -1.177 -1.8890001 7
3.181 -1.215 -1.887 7
3.3369999 -1.2539999 -1.885 8
3.5 -1.2970001 -1.882 8
3.6700001 -1.342 -1.878 8
2.8859999 -1.156 -1.888 7
3.0380001 -1.194 -1.892 7
3.184 -1.2309999 -1.888 7
3.342 -1.272 -1.887 8
3.4990001 -1.312 -1.88 8
3.674 -1.36 -1.8789999 8
2.8859999 -1.169 -1.888 6
3.0309999 -1.205 -1.887 7
3.1849999 -1.245 -1.887 7
3.3410001 -1.286 -1.8839999 8
3.507 -1.331 -1.882 8
3.675 -1.376 -1.876 8
2.888 -1.183 -1.888 6
3.0380001 -1.222 -1.8890001 8
3.191 -1.262 -1.8890001 8
3.349 -1.304 -1.886 8
3.517 -1.35 -1.885 8
3.688 -1.397 -1.88 8
2.8989999 -1.201 -1.893 7
3.0439999 -1.238 -1.891 8
3.197 -1.278 -1.8890001 8
3.3599999 -1.322 -1.8890001 8
3.5239999 -1.367 -1.885 8
3.6949999 -1.415 -1.8789999 9
2.8970001 -1.212 -1.8890001 6
3.0469999 -1.252 -1.8890001 8
3.2049999 -1.295 -1.891 8
3.3629999 -1.337 -1.887 8
3.5339999 -1.385 -1.885 9
3.7030001 -1.433 -1.878 9
2.9119999 -1.2309999 -1.895 6
3.056 -1.268 -1.891 8
3.2119999 -1.3099999 -1.89 8
3.372 -1.354 -1.887 8
3.53 -1.397 -1.878 8
3.7160001 -1.452 -1.8789999 9
2.918 -1.245 -1.895 6
3.0650001 -1.284 -1.892 7
3.2190001 -1.326 -1.8890001 8
3.388 -1.374 -1.891 8
3.549 -1.418 -1.882 8
3.7320001 -1.472 -1.88 8
2.925 -1.2589999 -1.8940001 7
3.072 -1.298 -1.891 8
3.2360001 -1.345 -1.893 8
3.3989999 -1.391 -1.89 8
3.5599999 -1.436 -1.881 9
3.7449999 -1.4910001 -1.88 9
2.9289999 -1.271 -1.891 7
3.0869999 -1.316 -1.8940001 7
3.2479999 -1.3609999 -1.893 8
3.4070001 -1.406 -1.887 8
3.5810001 -1.457 -1.885 9
3.766 -1.512 -1.882 8
2.9389999 -1.286 -1.891 6
3.098 -1.331 -1.893 8
3.263 -1.378 -1.895 8
3.4230001 -1.424 -1.888 8
3.5940001 -1.474 -1.883 9
3.786 -1.533 -1.8839999 9
2.9519999 -1.301 -1.891 7
3.1129999 -1.347 -1.895 8
3.276 -1.3940001 -1.8940001 9
3.441 -1.442 -1.89 9
3.608 -1.4910001 -1.881 8
3.802 -1.551 -1.882 9
2.9679999 -1.317 -1.8940001 7
3.1270001 -1.363 -1.895 8
3.2869999 -1.409 -1.892 9
3.454 -1.4579999 -1.887 8
3.632 -1.512 -1.8839999 8
3.8299999 -1.574 -1.885 9
2.983 -1.332 -1.8940001 7
3.1429999 -1.3789999 -1.895 8
3.3099999 -1.428 -1.895 8
3.477 -1.477 -1.89 8
3.6500001 -1.53 -1.883 8
3.8540001 -1.594 -1.886 9
2.9960001 -1.346 -1.893 6
3.1589999 -1.395 -1.895 8
3.3280001 -1.4450001 -1.895 8
3.4860001 -1.4910001 -1.8839999 8
3.674 -1.549 -1.8839999 9
3.878 -1.615 -1.886 9
3.0120001 -1.3609999 -1.893 6
3.1830001 -1.413 -1.898 9
3.3499999 -1.4630001 -1.896 8
3.5120001 -1.511 -1.886 8
3.6989999 -1.569 -1.885 8
3.9089999 -1.637 -1.888 9
3.036 -1.3789999 -1.897 7
3.201 -1.428 -1.898 9
3.365 -1.477 -1.892 8
3.536 -1.53 -1.887 9
3.7260001 -1.59 -1.885 8
3.941 -1.66 -1.89 9
3.059 -1.396 -1.899 7
3.2260001 -1.447 -1.9 8
3.3900001 -1.495 -1.8940001 8
3.5639999 -1.549 -1.888 9
3.7509999 -1.608 -1.8839999 8
3.9649999 -1.679 -1.887 9
3.079 -1.411 -1.899 8
3.244 -1.461 -1.898 8
3.4130001 -1.513 -1.8940001 9
3.5869999 -1.566 -1.887 9
3.7850001 -1.631 -1.887 9
3.9979999 -1.701 -1.887 9
3.1010001 -1.427 -1.899 7
3.2690001 -1.478 -1.898 8
3.444 -1.533 -1.896 8
3.6229999 -1.589 -1.89 8
3.8199999 -1.653 -1.8890001 9
4.0300002 -1.722 -1.887 9
3.1270001 -1.444 -1.901 7
3.2920001 -1.494 -1.897 8
3.47 -1.55 -1.895 8
3.645 -1.605 -1.887 8
3.855 -1.674 -1.89 9
4.0760002 -1.749 -1.891 9
3.1459999 -1.457 -1.897 8
3.319 -1.511 -1.897 9
3.4960001 -1.567 -1.893 8
3.6819999 -1.626 -1.8890001 8
3.8859999 -1.694 -1.888 10
4.1079998 -1.7690001 -1.888 9
3.175 -1.474 -1.898 7
3.349 -1.529 -1.897 8
3.527 -1.585 -1.8940001 9
3.7190001 -1.647 -1.891 8
3.9289999 -1.7180001 -1.891 9
4.1490002 -1.7920001 -1.8890001 9
3.2030001 -1.49 -1.898 7
3.3800001 -1.5470001 -1.899 8
3.5569999 -1.603 -1.892 8
3.76 -1.67 -1.8940001 9
3.9649999 -1.738 -1.89 10
4.1890001 -1.8150001 -1.888 9
3.2320001 -1.507 -1.898 7
3.402 -1.5599999 -1.893 8
3.586 -1.619 -1.8890001 8
3.7969999 -1.6900001 -1.8940001 9
4.0029998 -1.7589999 -1.8890001 10
4.2290001 -1.837 -1.886 9
3.2609999 -1.522 -1.897 8
3.4419999 -1.58 -1.897 8
3.625 -1.6390001 -1.891 8
3.8329999 -1.71 -1.892 9
4.0489998 -1.783 -1.89 10
4.276 -1.8609999 -1.886 9
3.299 -1.541 -1.9 8
3.47 -1.595 -1.893 8
3.664 -1.659 -1.892 9
3.8770001 -1.7309999 -1.8940001 9
4.0900002 -1.803 -1.888 10
4.3280001 -1.887 -1.887 9
3.3269999 -1.5549999 -1.897 8
3.503 -1.612 -1.891 8
3.698 -1.676 -1.8890001 9
3.914 -1.75 -1.891 9
4.1360002 -1.826 -1.888 10
4.3759999 -1.91 -1.885 9
3.3599999 -1.572 -1.896 8
3.543 -1.631 -1.892 8
3.743 -1.697 -1.891 8
3.9590001 -1.771 -1.891 9
4.1820002 -1.848 -1.886 9
4.4400001 -1.9400001 -1.89 10
3.401 -1.59 -1.898 8
3.5840001 -1.649 -1.892 9
3.7909999 -1.72 -1.893 9
4.0050001 -1.7920001 -1.89 8
4.237 -1.873 -1.888 9
4.4910002 -1.9630001 -1.887 9
3.4419999 -1.608 -1.899 8
3.6199999 -1.666 -1.8890001 9
3.8380001 -1.74 -1.8940001 9
4.0619998 -1.818 -1.8940001 9
4.2870002 -1.896 -1.886 9
4.5570002 -1.993 -1.89 9
3.487 -1.628 -1.901 8
3.664 -1.684 -1.89 9
3.8889999 -1.763 -1.896 10
4.1090002 -1.8380001 -1.891 9
4.3460002 -1.921 -1.888 10
4.618 -2.0190001 -1.89 10
3.523 -1.643 -1.898 8
3.7149999 -1.706 -1.892 9
3.938 -1.783 -1.895 10
4.1680002 -1.864 -1.8940001 10
4.4099998 -1.948 -1.8890001 9
4.6799998 -2.0450001 -1.888 9
3.5569999 -1.656 -1.893 8
3.7679999 -1.728 -1.895 9
3.984 -1.802 -1.892 9
4.2210002 -1.885 -1.892 9
4.474 -1.975 -1.89 9
4.7529998 -2.076 -1.89 10
3.609 -1.677 -1.896 8
3.8180001 -1.748 -1.895 10
4.0440001 -1.826 -1.896 9
4.2800002 -1.909 -1.892 9
4.539 -2.0009999 -1.89 9
4.8130002 -2.0999999 -1.886 9
3.6530001 -1.694 -1.8940001 8
3.8640001 -1.765 -1.892 10
4.0949998 -1.846 -1.893 9
4.3410001 -1.932 -1.892 10
4.6090002 -2.029 -1.891 10
4.8720002 -2.122 -1.88 10
3.707 -1.714 -1.896 9
3.9230001 -1.788 -1.895 9
4.1560001 -1.869 -1.8940001 9
4.4029999 -1.956 -1.891 9
4.6820002 -2.056 -1.892 10
4.954 -2.154 -1.881 10
3.7550001 -1.7309999 -1.8940001 9
3.9779999 -1.808 -1.8940001 9
4.223 -1.8940001 -1.897 10
4.4720001 -1.982 -1.892 9
4.7399998 -2.0769999 -1.886 9
5.0409999 -2.187 -1.8839999 9
3.8099999 -1.751 -1.895 9
4.0359998 -1.829 -1.8940001 10
4.2839999 -1.916 -1.895 10
4.5479999 -2.01 -1.895 9
4.8270001 -2.1099999 -1.89 9
5.1399999 -2.2249999 -1.8890001 9
3.8740001 -1.773 -1.898 8
4.1030002 -1.853 -1.897 10
4.3390002 -1.934 -1.891 10
4.6240001 -2.0369999 -1.896 10
4.875 -2.125 -1.878 10
5.2280002 -2.256 -1.888 9
3.928 -1.791 -1.896 8
4.1630001 -1.872 -1.895 9
4.4200001 -1.9630001 -1.895 10
4.7010002 -2.0639999 -1.896 10
4.9809999 -2.164 -1.886 10
5.3200002 -2.289 -1.888 9
3.9920001 -1.813 -1.898 8
4.2270002 -1.8940001 -1.8940001 10
4.4910002 -1.987 -1.895 9
4.7729998 -2.0880001 -1.893 9
5.086 -2.201 -1.893 9
5.415 -2.3210001 -1.887 10
4.053 -1.832 -1.897 9
4.2969999 -1.9170001 -1.895 10
4.5700002 -2.0139999 -1.897 10
4.8579998 -2.1159999 -1.8940001 9
5.1739998 -2.2309999 -1.892 9
5.5180001 -2.3559999 -1.888 9
4.1139998 -1.851 -1.895 8
4.3569999 -1.934 -1.89 10
4.6459999 -2.0380001 -1.896 10
4.941 -2.1429999 -1.8940001 10
5.2740002 -2.2639999 -1.8940001 10
5.619 -2.3900001 -1.886 9
4.1820002 -1.8710001 -1.895 9
4.4330001 -1.9579999 -1.891 9
4.724 -2.062 -1.8940001 10
5.0300002 -2.171 -1.893 10
5.3590002 -2.29 -1.8890001 9
5.7340002 -2.428 -1.887 9
4.256 -1.8940001 -1.896 9
4.513 -1.983 -1.893 9
4.8150001 -2.0910001 -1.897 9
5.1269999 -2.2019999 -1.8940001 9
5.473 -2.3280001 -1.892 9
5.8470001 -2.464 -1.886 9
4.3189998 -1.911 -1.892 9
4.5939999 -2.007 -1.8940001 11
4.8979998 -2.115 -1.896 9
5.2220001 -2.2309999 -1.8940001 9
5.5780001 -2.3599999 -1.891 9
5.9749999 -2.5050001 -1.8890001 9
4.3909998 -1.931 -1.891 9
4.677 -2.0309999 -1.893 10
4.9840002 -2.1400001 -1.8940001 10
5.3200002 -2.26 -1.893 9
5.6880002 -2.3929999 -1.891 9
6.0890002 -2.539 -1.885 9
4.4759998 -1.955 -1.893 9
4.7649999 -2.0569999 -1.8940001 9
5.0830002 -2.1689999 -1.895 9
5.4250002 -2.2909999 -1.892 9
5.8080001 -2.4300001 -1.891 9
6.211 -2.576 -1.882 9
4.566 -1.9809999 -1.897 9
4.855 -2.082 -1.8940001 9
5.1799998 -2.1960001 -1.8940001 10
5.5359998 -2.323 -1.893 10
5.9380002 -2.4690001 -1.893 9
6.3410001 -2.6140001 -1.8789999 10
4.651 -2.0039999 -1.897 9
4.9400001 -2.1040001 -1.891 9
5.2789998 -2.224 -1.893 9
5.6560001 -2.358 -1.895 10
6.0549998 -2.5009999 -1.89 9
6.5120001 -2.6670001 -1.887 8
4.7410002 -2.0280001 -1.898 9
5.0349998 -2.1289999 -1.891 9
5.3850002 -2.2520001 -1.893 9
5.757 -2.3840001 -1.8890001 9
6.178 -2.5350001 -1.886 9
6.6350002 -2.6989999 -1.8789999 10
4.8239999 -2.0480001 -1.895 10
5.1399999 -2.1570001 -1.893 9
5.494 -2.2809999 -1.892 10
5.882 -2.418 -1.8890001 9
6.3080001 -2.5699999 -1.8839999 9
6.823 -2.757 -1.887 9
4.9289999 -2.076 -1.899 9
5.2399998 -2.1819999 -1.891 10
5.6160002 -2.3139999 -1.8940001 10
6.0180001 -2.4560001 -1.891 8
6.4549999 -2.6110001 -1.8839999 11
6.9689999 -2.7950001 -1.882 9
5.0120001 -2.0940001 -1.893 9
5.349 -2.21 -1.892 11
5.7199998 -2.3380001 -1.8890001 10
6.1440001 -2.487 -1.888 10
6.5970001 -2.6470001 -1.881 10
7.1399999 -2.842 -1.881 9
5.1079998 -2.115 -1.891 9
5.4510002 -2.2320001 -1.888 9
5.848 -2.3710001 -1.8890001 9
6.27 -2.5179999 -1.883 9
6.7839999 -2.7 -1.888 9
7.3239999 -2.892 -1.88 9
5.2249999 -2.1440001 -1.895 9
5.5640001 -2.2590001 -1.886 9
5.9770002 -2.402 -1.8890001 9
6.4349999 -2.562 -1.8890001 8
6.9320002 -2.7360001 -1.883 9
7.5209999 -2.9460001 -1.881 9
5.3299999 -2.168 -1.8940001 9
5.6900001 -2.289 -1.888 10
6.112 -2.4349999 -1.888 10
6.5890002 -2.5999999 -1.8890001 9
7.0999999 -2.779 -1.881 9
7.711 -2.994 -1.8789999 9
5.4439998 -2.1930001 -1.8940001 9
5.8130002 -2.3169999 -1.887 10
6.2379999 -2.4619999 -1.883 10
6.7410002 -2.6370001 -1.886 9
7.283 -2.8239999 -1.88 9
7.9169998 -3.046 -1.877 10
5.5549998 -2.2160001 -1.891 9
5.9400001 -2.345 -1.885 10
6.3860002 -2.4960001 -1.883 10
6.9029999 -2.674 -1.8839999 10
7.4679999 -2.869 -1.878 9
8.1499996 -3.1070001 -1.878 10
5.6680002 -2.2379999 -1.888 10
6.079 -2.375 -1.886 10
6.5359998 -2.53 -1.882 10
7.0549998 -2.7060001 -1.878 9
7.6680002 -2.9170001 -1.878 9
8.3739996 -3.1619999 -1.876 10
5.7930002 -2.263 -1.887 9
6.21 -2.402 -1.882 10
6.6929998 -2.5639999 -1.881 10
7.2350001 -2.7479999 -1.877 9
7.8769999 -2.9679999 -1.877 10
8.6210003 -3.224 -1.877 9
5.9219999 -2.289 -1.887 9
6.3379998 -2.425 -1.877 9
6.869 -2.6040001 -1.8839999 9
7.4260001 -2.7909999 -1.878 9
8.0939999 -3.0179999 -1.877 10
8.8640003 -3.28 -1.873 10
6.0510001 -2.313 -1.8839999 9
6.487 -2.4560001 -1.876 10
7.0180001 -2.632 -1.877 9
7.6170001 -2.832 -1.875 9
8.3260002 -3.0710001 -1.876 10
9.1219997 -3.3410001 -1.869 11
6.1950002 -2.3410001 -1.885 10
6.6750002 -2.4979999 -1.8839999 9
7.1960001 -2.6689999 -1.876 9
7.835 -2.881 -1.877 10
8.559 -3.122 -1.873 9
9.3929996 -3.402 -1.865 11
6.3309999 -2.365 -1.882 11
6.8239999 -2.5250001 -1.8789999 9
7.3850002 -2.7079999 -1.876 9
8.0439997 -2.924 -1.875 11
8.8190002 -3.181 -1.874 10
9.6949997 -3.4719999 -1.864 11
6.5149999 -2.404 -1.891 9
6.9819999 -2.552 -1.875 9
7.592 -2.75 -1.877 9
8.2799997 -2.974 -1.875 10
9.0640001 -3.23 -1.868 10
10.019 -3.546 -1.864 10
6.6620002 -2.428 -1.887 9
7.1620002 -2.585 -1.875 9
7.7979999 -2.79 -1.877 10
8.5220003 -3.0239999 -1.875 10
9.3369999 -3.2880001 -1.865 11
10.351 -3.619 -1.8609999 10
6.8299999 -2.457 -1.887 10
7.342 -2.6170001 -1.872 9
8.0129995 -2.8310001 -1.876 11
8.7589998 -3.069 -1.8710001 10
9.6429996 -3.3529999 -1.865 11
10.705 -3.6960001 -1.859 10
6.9749999 -2.4760001 -1.8789999 9
7.546 -2.655 -1.874 9
8.2399998 -2.8740001 -1.876 10
9.007 -3.1159999 -1.867 10
9.9440002 -3.414 -1.862 10
11.072 -3.7739999 -1.8559999 10
7.1399999 -2.5009999 -1.876 9
7.75 -2.6900001 -1.874 10
8.4709997 -2.914 -1.874 10
9.2860003 -3.1689999 -1.8660001 10
10.277 -3.4809999 -1.8609999 10
11.49 -3.865 -1.8559999 10
7.3319998 -2.5320001 -1.877 9
7.96 -2.724 -1.873 10
8.7119999 -2.9560001 -1.8710001 10
9.5629997 -3.2190001 -1.863 11
10.606 -3.543 -1.8559999 10
11.921 -3.9549999 -1.854 10
7.5320001 -2.5639999 -1.878 10
8.1719999 -2.757 -1.87 11
8.9549999 -2.9960001 -1.867 10
9.8640003 -3.2739999 -1.8609999 11
10.982 -3.618 -1.857 10
12.372 -4.0489998 -1.853 9
7.7259998 -2.5929999 -1.877 9
8.3990002 -2.793 -1.869 10
9.2110004 -3.0369999 -1.865 10
10.188 -3.332 -1.8609999 11
11.393 -3.6989999 -1.858 10
12.883 -4.1550002 -1.854 10
7.9349999 -2.622 -1.877 10
8.6370001 -2.829 -1.868 11
9.4910002 -3.0829999 -1.863 11
10.511 -3.3870001 -1.8559999 11
11.785 -3.77 -1.854 10
13.401 -4.2579999 -1.851 9
8.1400003 -2.648 -1.874 11
8.8870001 -2.8659999 -1.867 10
9.7869997 -3.1300001 -1.8609999 11
10.869 -3.4489999 -1.855 11
12.236 -3.8540001 -1.853 10
13.915 -4.3540001 -1.8430001 9
8.368 -2.6800001 -1.874 11
9.1359997 -2.9000001 -1.863 10
10.089 -3.1760001 -1.859 11
11.263 -3.5179999 -1.857 11
12.733 -3.947 -1.855 9
14.496 -4.4640002 -1.8380001 9
8.6049995 -2.71 -1.873 11
9.3999996 -2.9349999 -1.86 11
10.415 -3.224 -1.857 11
11.655 -3.5810001 -1.854 10
13.219 -4.0320001 -1.851 10
15.119 -4.5809999 -1.8329999 9
8.8299999 -2.7349999 -1.868 11
9.6700001 -2.9679999 -1.8559999 11
10.747 -3.2709999 -1.854 11
12.091 -3.6530001 -1.854 10
13.717 -4.1139998 -1.844 10
15.754 -4.6929998 -1.823 10
9.0869999 -2.766 -1.868 11
9.9720001 -3.0090001 -1.855 12
11.109 -3.3239999 -1.852 11
12.531 -3.72 -1.851 10
14.235 -4.1950002 -1.835 6
16.479 -4.8239999 -1.818 10
9.3369999 -2.7909999 -1.864 10
10.291 -3.049 -1.854 12
11.504 -3.3800001 -1.852 10
13.006 -3.793 -1.849 10
14.805 -4.2859998 -1.8279999 8
17.275999 -4.9679999 -1.813 11
9.6009998 -2.8169999 -1.86 11
10.611 -3.086 -1.851 11
11.909 -3.4360001 -1.851 11
13.51 -3.8670001 -1.846 10
15.446 -4.3899999 -1.823 9
18.099001 -5.1090002 -1.804 12
9.8900003 -2.8469999 -1.859 12
10.965 -3.128 -1.851 10
12.329 -3.4890001 -1.848 10
14.015 -3.9360001 -1.839 10
16.135 -4.4990001 -1.819 10
19.039 -5.2729998 -1.799 14
10.191 -2.8770001 -1.858 12
11.326 -3.1689999 -1.849 11
12.783 -3.5469999 -1.847 10
14.543 -4.0050001 -1.831 8
16.879 -4.6149998 -1.8150001 11
19.917999 -5.4089999 -1.78 15
10.49 -2.902 -1.854 11
11.692 -3.207 -1.846 11
13.236 -3.6010001 -1.8430001 10
15.086 -4.072 -1.821 9
17.624001 -4.723 -1.806 12
20.985001 -5.586 -1.771 12
10.826 -2.934 -1.854 10
12.087 -3.247 -1.844 10
13.723 -3.6559999 -1.839 9
15.687 -4.1479998 -1.814 9
18.451 -4.8429999 -1.798 13
22.018999 -5.7399998 -1.749 12
11.173 -2.964 -1.854 11
12.518 -3.2920001 -1.8430001 10
14.233 -3.7119999 -1.8329999 9
16.407 -4.2459998 -1.814 10
19.287001 -4.9549999 -1.784 14
23.169001 -5.9109998 -1.728 10
11.523 -2.99 -1.851 10
12.959 -3.3329999 -1.842 10
14.747 -3.7620001 -1.826 9
17.115999 -4.3319998 -1.808 11
20.219999 -5.0799999 -1.772 15
24.42 -6.0939999 -1.706 7
11.888 -3.016 -1.848 10
13.388 -3.3659999 -1.835 10
15.312 -3.8180001 -1.8200001 9
17.839001 -4.4130001 -1.7970001 12
21.225 -5.2119999 -1.7589999 16
25.924 -6.3210001 -1.687 7
12.286 -3.0439999 -1.847 10
13.866 -3.405 -1.831 10
15.883 -3.869 -1.8099999 9
18.639 -4.5040002 -1.789 13
22.299999 -5.348 -1.745 11
27.215 -6.48 -1.647 6
12.692 -3.069 -1.845 11
14.324 -3.434 -1.822 10
16.563999 -3.937 -1.809 10
19.450001 -4.5869999 -1.777 14
23.406 -5.4780002 -1.723 11
29.045 -6.75 -1.627 5
13.108 -3.0910001 -1.842 10
14.823 -3.4649999 -1.8150001 9
17.211 -3.9890001 -1.798 11
20.444 -4.6999998 -1.773 15
24.652 -5.625 -1.7029999 9
30.886999 -6.9970002 -1.5930001 6
13.532 -3.1099999 -1.836 10
15.362 -3.4990001 -1.809 9
17.943001 -4.052 -1.793 12
21.337 -4.7789998 -1.755 17
25.952999 -5.7680001 -1.679 8
33.092999 -7.3010001 -1.563 7
13.966 -3.125 -1.83 10
15.921 -3.53 -1.802 9
18.695 -4.1090002 -1.784 13
22.334999 -4.869 -1.739 18
27.097 -5.8610001 -1.636 6
34.896999 -7.4920001 -1.502 5
14.419 -3.138 -1.823 10
16.514 -3.5610001 -1.795 10
19.476 -4.164 -1.774 14
23.35 -4.9510002 -1.719 11
28.958 -6.0890002 -1.626 6
0 0 0 0
14.883 -3.1470001 -1.816 8
17.146999 -3.5929999 -1.79 11
20.316999 -4.2199998 -1.7640001 15
24.49 -5.0440001 -1.699 10
30.568001 -6.2449999 -1.592 6
0 0 0 0
15.401 -3.161 -1.812 9
17.809999 -3.6210001 -1.7819999 12
21.224001 -4.277 -1.753 16
25.636 -5.1220002 -1.674 8
32.747002 -6.4889998 -1.572 7
46.009998 -9.0469999 -1.421 9
15.922 -3.1689999 -1.8049999 9
18.504999 -3.6470001 -1.774 13
22.121 -4.3210001 -1.738 18
26.790001 -5.1869998 -1.642 7
34.122002 -6.552 -1.505 5
46.097 -8.783 -1.247 10
16.431999 -3.168 -1.796 10
19.188 -3.664 -1.763 14
23.028999 -4.3569999 -1.719 18
28.087 -5.2659998 -1.612 6
36.041 -6.7020001 -1.454 6
49.272999 -9.0860004 -1.149 45
17.018 -3.1730001 -1.791 11
19.98 -3.6900001 -1.758 15
24.014999 -4.3930001 -1.699 11
29.732 -5.3899999 -1.595 6
0 0 0 0
49.334 -8.7939997 -0.97100002 42
17.65 -3.1800001 -1.789 11
20.739 -3.7 -1.745 16
25.099001 -4.4349999 -1.682 11
31.316 -5.4819999 -1.566 6
44.432999 -7.7069998 -1.467 1
50.816002 -8.7419996 -0.82099998 61
18.249001 -3.171 -1.78 12
21.587999 -3.714 -1.737 17
26.138 -4.4530001 -1.6569999 8
33.216 -5.605 -1.541 6
44.653999 -7.467 -1.318 4
50.743999 -8.4099998 -0.64399999 73
18.875 -3.158 -1.771 13
22.375 -3.7049999 -1.7180001 18
27.237 -4.4660001 -1.6289999 7
34.293999 -5.5700002 -1.473 5
46.466999 -7.4770002 -1.2130001 12
47.053001 -7.5029998 -0.44 57
19.548 -3.1470001 -1.765 14
23.200001 -3.6949999 -1.701 18
28.487 -4.4899998 -1.607 6
36.432999 -5.6849999 -1.442 5
46.702999 -7.2179999 -1.066 2
56.404999 -8.6389999 -0.34599999 52
20.212 -3.1229999 -1.755 15
24.089001 -3.681 -1.684 15
29.91 -4.5219998 -1.5880001 6
38.856998 -5.816 -1.4119999 2
51.494999 -7.632 -1.011 64
67.860001 -9.9610004 -0.20299999 56
20.944 -3.0999999 -1.749 16
24.999001 -3.658 -1.666 11
31.301001 -4.5310001 -1.562 7
0 0 0 0
51.894001 -7.3569999 -0.85900003 31
56.719002 -7.9619999 0.0020000001 10
21.674 -3.0650001 -1.739 17
25.855 -3.6159999 -1.641 10
32.722 -4.5240002 -1.531 7
45.064999 -6.1630001 -1.358 3
53.122002 -7.191 -0.72100002 24
57.292 -7.6729999 0.17 58
22.333 -3.0120001 -1.722 18
26.892 -3.5840001 -1.625 8
33.889 -4.4650002 -1.484 6
45.27 -5.8969998 -1.2309999 5
53.813999 -6.9330001 -0.574 18
58.441002 -7.4510002 0.338 11
23.02 -2.9530001 -1.706 19
27.938999 -3.5409999 -1.6059999 7
35.397999 -4.4299998 -1.447 6
47.014 -5.816 -1.146 8
55.373001 -6.7740002 -0.43799999 7
58.647999 -7.0949998 0.49900001 14
23.799 -2.895 -1.6950001 16
28.882 -3.4690001 -1.5779999 6
36.868 -4.3740001 -1.406 5
48.306 -5.6609998 -1.046 4
63.513 -7.3569999 -0.33399999 18
0 0 0 0
24.495001 -2.819 -1.677 13
29.915001 -3.395 -1.554 7
0 0 0 0
48.880001 -5.4050002 -0.93099999 2
57.202 -6.2459998 -0.153 54
57.193001 -6.171 0.77999997 6
25.257 -2.737 -1.661 10
31.135 -3.326 -1.535 7
40.091 -4.2259998 -1.3200001 1
51.388 -5.342 -0.85100001 54
86.823997 -8.9069996 -0.018999999 5
57.382999 -5.8130002 0.92000002 67
26.080999 -2.652 -1.649 8
32.175999 -3.223 -1.507 7
42.662998 -4.2140002 -1.301 1
52.488998 -5.112 -0.74400002 26
0 0 0 0
57.541 -5.4499998 1.0549999 7
26.839001 -2.549 -1.632 8
33.183998 -3.1010001 -1.475 7
45.754002 -4.211 -1.288 4
53.490002 -4.849 -0.63599998 17
57.738998 -5.1589999 0.249 5
57.734001 -5.086 1.184 34
27.656 -2.4389999 -1.617 7
34.046001 -2.9519999 -1.436 6
45.884998 -3.9170001 -1.1900001 4
52.208 -4.3850002 -0.50700003 12
57.887001 -4.783 0.37400001 21
57.709 -4.6929998 1.306 1
28.309999 -2.3039999 -1.592 6
35.148998 -2.809 -1.406 5
47.976002 -3.7690001 -1.142 35
0 0 0 0
58.137001 -4.415 0.493 18
48.542999 -3.622 1.194 40
29.200001 -2.1760001 -1.581 6
36.159 -2.6440001 -1.373 5
48.125999 -3.4530001 -1.049 48
48.52 -3.4159999 -0.27500001 85
48.605999 -3.359 0.50599998 14
48.539001 -3.2909999 1.2869999 18
29.969999 -2.026 -1.563 8
37.047001 -2.4549999 -1.335 4
48.345001 -3.138 -0.963 48
0 0 0 0
55.437 -3.4560001 0.67699999 3
109.172 -6.6700001 3.086 23
30.754999 -1.869 -1.5470001 6
37.841 -2.25 -1.295 10
51.747002 -3.006 -0.93900001 57
60.835999 -3.4549999 -0.12800001 19
54.082001 -3.0050001 0.75199997 40
54.493999 -2.96 1.63 7
31.424999 -1.694 -1.526 6
38.964001 -2.05 -1.267 2
52.064999 -2.671 -0.85900003 60
58.958 -2.951 -0.028999999 45
53.837002 -2.6289999 0.833 58
53.641998 -2.553 1.687 2
32.012001 -1.508 -1.503 6
0 0 0 0
53.064999 -2.3610001 -0.79500002 30
54.155998 -2.3429999 0.052999999 12
54.083 -2.2720001 0.91600001 53
54.249001 -2.2119999 1.784 2
32.812 -1.318 -1.492 6
0 0 0 0
53.709 -2.02 -0.727 46
54.462002 -1.982 0.12899999 38
53.997002 -1.899 0.98799998 45
54.339001 -1.847 1.859 2
33.297001 -1.107 -1.4680001 6
42.185001 -1.351 -1.188 1
52.23 -1.607 -0.639 17
58.422001 -1.725 0.213 19
54.379002 -1.539 1.063 20
74.205002 -2.0139999 2.6289999 35
33.841999 -0.89099997 -1.449 6
43.528999 -1.094 -1.1720001 1
52.222 -1.248 -0.57700002 5
53.778999 -1.219 0.259 2
54.367001 -1.169 1.124 20
73.995003 -1.503 2.7030001 35
34.442001 -0.67000002 -1.436 6
43.82 -0.79699999 -1.131 1
54.257999 -0.921 -0.54100001 43
54.263 -0.85500002 0.31799999 30
54.037998 -0.787 1.173 15
70.030998 -0.93400002 2.6289999 29
34.799999 -0.43000001 -1.414 6
46.91 -0.52499998 -1.164 4
55.069 -0.55000001 -0.495 20
0 0 0 0
54.178001 -0.41499999 1.225 8
69.913002 -0.45300001 2.6860001 39
35.283001 -0.191 -1.402 7
47.094002 -0.19599999 -1.127 4
0 0 0 0
60.120998 -0.112 0.45899999 6
107.926 -0.074000001 2.5280001 20
106.456 0.045000002 4.1729999 22
35.534 0.054000001 -1.3839999 7
47.171001 0.12800001 -1.0930001 5
56.543999 0.219 -0.419 57
60.027 0.30199999 0.50099999 2
113.723 0.699 2.7409999 27
106.873 0.77999997 4.2600002 38
23.819 0.204 -0.912 21
47.403999 0.46200001 -1.068 6
56.483002 0.61500001 -0.38299999 57
109.079 1.309 0.97600001 15
0 0 0 0
104.296 1.485 4.2150002 25
24.33 0.37900001 -0.91799998 64
47.512001 0.79400003 -1.045 6
56.382999 1.006 -0.354 79
108.51 2.063 1.023 22
81.832001 1.648 2.0580001 12
104.146 2.211 4.256 58
24.344999 0.55199999 -0.90799999 52
47.618999 1.132 -1.028 9
55.922001 1.3890001 -0.329 57
108.291 2.8099999 1.061 36
80.675003 2.187 2.0569999 11
105.635 2.977 4.3520002 41
24.349001 0.72299999 -0.89999998 81
47.665001 1.466 -1.015 6
55.716999 1.774 -0.31299999 59
107.733 3.5439999 1.0829999 23
80.746002 2.7409999 2.0780001 14
50.550999 1.772 2.0940001 34
23.809 0.87199998 -0.87599999 69
22.113001 0.833 -0.46700001 9
22.243999 0.861 -0.121 150
24.632 0.97899997 0.25099999 1
50.476002 2.0610001 1.3049999 49
50.933998 2.1359999 2.115 45
21.297001 0.92900002 -0.78200001 4
21.042999 0.93900001 -0.44299999 71
20.629 0.94199997 -0.111 28
20.589001 0.96100003 0.20999999 6
63.286999 3.0239999 1.637 53
92.793999 4.539 3.8540001 47
24.488001 1.242 -0.89999998 76
22.087999 1.142 -0.46599999 150
26.944 1.4220001 -0.148 37
27.097 1.457 0.27399999 8
62.118 3.405 1.601 6
92.819 5.184 3.845 41
22.24 1.284 -0.82099998 124
20.688 1.216 -0.44 13
56.028 3.3510001 -0.31799999 55
82.346001 5.0050001 0.81900001 9
92.461998 5.7160001 2.365 31
93.065002 5.8520002 3.835 24
20.957001 1.359 -0.77999997 57
27.101999 1.783 -0.58499998 11
28.26 1.887 -0.169 31
28.347 1.92 0.273 0
82.668999 5.6890001 2.0880001 7
82.925003 5.7940001 3.3900001 13
23.471001 1.689 -0.88300002 42
29.517 2.151 -0.64899999 20
28.437 2.099 -0.182 11
0 0 0 0
62.214001 4.717 1.544 8
92.747002 7.132 3.75 47
23.968 1.8940001 -0.91399997 47
28.544001 2.2820001 -0.64300001 29
0 0 0 0
62.429001 5.1090002 0.54100001 9
62.188 5.151 1.5089999 57
92.533997 7.7589998 3.6900001 41
24.136 2.0780001 -0.93599999 21
28.451 2.4749999 -0.65899998 30
30.07 2.642 -0.227 26
30.139999 2.678 0.241 1
62.505001 5.6149998 1.476 22
92.736 8.4230003 3.6370001 28
20.969 1.954 -0.829 2
28.799 2.7079999 -0.68900001 36
30.355 2.882 -0.25299999 34
30.531 2.925 0.221 14
77.745003 7.5209999 1.777 14
90.320999 8.8269997 3.473 39
21.159 2.119 -0.85500002 15
29.275 2.957 -0.72600001 41
30.374001 3.095 -0.28 2
65.93 6.7800002 0.41999999 40
77.683998 8.0620003 1.707 35
90.292 9.4549999 3.3929999 36
21.173 2.2720001 -0.87599999 5
28.983 3.1340001 -0.74800003 65
31.233 3.4030001 -0.31900001 67
31.33 3.4400001 0.168 49
76.931999 8.5190001 1.614 29
31.007 3.461 1.1339999 7
20.572001 2.3540001 -0.875 12
28.778999 3.3150001 -0.77399999 59
31.011 3.5969999 -0.35100001 34
30.988001 3.6210001 0.132 99
77.179001 9.0860004 1.534 12
107.7 12.78 3.8199999 23
20.715 2.516 -0.90600002 50
25.535999 3.122 -0.71899998 5
30.732 3.7820001 -0.38499999 0
60.092999 7.4460001 0.183 10
85.748001 10.697 1.6 5
57.577 7.2360001 1.972 3
20.643999 2.654 -0.93099999 78
24.284 3.1389999 -0.71600002 21
32.124001 4.1760001 -0.44499999 36
32.423 4.2410002 0.056000002 16
32.518002 4.2820001 0.56300002 3
57.506001 7.6220002 1.8940001 31
20.322001 2.756 -0.94599998 73
23.921 3.2609999 -0.74000001 21
32.764 4.4910002 -0.50199997 27
32.789001 4.5180001 0.0089999996 38
85.209999 11.815 1.355 17
58.125999 8.1110001 1.831 18
19.966 2.849 -0.96200001 72
23.628 3.3859999 -0.76800001 55
0 0 0 0
52.279999 7.572 -0.066 68
52.120998 7.5890002 0.74800003 47
52.091999 7.6279998 1.562 36
20.011 2.9949999 -0.99699998 56
23.021999 3.461 -0.787 61
32.376999 4.888 -0.60000002 41
33.381001 5.0640001 -0.097000003 2
33.376999 5.0900002 0.42399999 24
57.414001 8.8050003 1.626 6
19.872999 3.115 -1.027 60
22.072001 3.474 -0.79500002 69
28.094999 4.4390001 -0.57200003 2
33.574001 5.329 -0.15800001 37
33.640999 5.3639998 0.368 30
72.487999 11.618 1.926 17
20.006001 3.277 -1.073 47
21.405001 3.5179999 -0.81199998 63
27.046 4.4619999 -0.60100001 13
33.859001 5.6110001 -0.223 64
33.898998 5.6409998 0.30700001 24
61.728001 10.323 1.525 2
15.427 2.635 -0.85900003 6
20.643 3.5369999 -0.82499999 62
26.482 4.5539999 -0.64300001 28
33.783001 5.8299999 -0.28999999 1
61.639 10.682 0.43599999 9
0 0 0 0
15.278 2.7179999 -0.884 32
20.247999 3.612 -0.85299999 60
26.686001 4.7750001 -0.70499998 66
34.403 6.177 -0.368 69
34.428001 6.2049999 0.171 5
87.240997 15.786 1.802 21
15.091 2.789 -0.90700001 44
20.105 3.727 -0.89200002 66
27.506001 5.112 -0.787 64
34.82 6.4920001 -0.44999999 13
34.692001 6.4910002 0.096000001 20
0 0 0 0
14.762 2.832 -0.92299998 47
20.108999 3.8659999 -0.94 64
21.656 4.1760001 -0.671 46
21.691 4.1950002 -0.331 23
34.874001 6.7680001 0.015 12
78.487 15.284 1.268 15
14.542 2.892 -0.94599998 52
20.156 4.0159998 -0.99299997 68
21.559 4.3049998 -0.72100002 51
21.528 4.3099999 -0.38100001 45
0 0 0 0
82.675003 16.656 1.14 16
14.251 2.9319999 -0.96399999 49
21.379999 4.4050002 -1.108 43
21.471001 4.4330001 -0.773 45
21.416 4.4320002 -0.43200001 38
35.373001 7.3410001 -0.156 76
35.428001 7.3769999 0.40099999 26
13.777 2.9289999 -0.97000003 41
15.654 3.3329999 -0.85299999 17
21.68 4.625 -0.838 4
21.239 4.54 -0.48500001 57
21.629 4.6350002 -0.152 15
35.638 7.6589999 0.31099999 27
13.471 2.957 -0.98699999 48
15.345 3.3729999 -0.88 43
21.612 4.7579999 -0.89600003 36
21.195 4.6739998 -0.542 57
21.482 4.75 -0.20900001 38
35.879002 7.9549999 0.21600001 15
13.276 3.006 -1.012 44
15.109 3.425 -0.91000003 51
21.518999 4.8839998 -0.954 23
21.18 4.8150001 -0.602 51
21.375 4.8699999 -0.26899999 49
58.188999 13.29 0.18700001 56
13.185 3.0769999 -1.045 49
14.372 3.3570001 -0.91000003 55
21.556999 5.0409999 -1.021 30
21.281 4.9840002 -0.66900003 46
21.409 5.0219998 -0.333 52
58.32 13.717 0.017000001 23
13.034 3.132 -1.075 63
14.023 3.3710001 -0.93199998 52
15.94 3.836 -0.80500001 0
21.635 5.2129998 -0.74699998 18
21.523001 5.1950002 -0.40000001 43
54.431999 13.165 -0.149 69
12.916 3.1930001 -1.109 58
13.564 3.3540001 -0.94599998 59
15.598 3.859 -0.838 24
23.034 5.7059999 -0.86900002 21
21.891001 5.4310002 -0.47600001 50
22.011999 5.4710002 -0.12899999 38
12.814 3.256 -1.1440001 55
0 0 0 0
15.394 3.9130001 -0.87800002 41
23.033001 5.8610001 -0.94499999 24
21.636 5.5120001 -0.542 48
21.732 5.546 -0.197 62
