# .PCD v0.7 - Point Cloud Data file format
VERSION 0.7
FIELDS x y z intensity
SIZE 4 4 4 4
TYPE F F F F
COUNT 1 1 1 1
WIDTH 1745
HEIGHT 1
VIEWPOINT 0 0 0 1 0 0 0
POINTS 1745
DATA ascii
32.748001 -7.7189999 -1.506 5
43.182999 -10.104 -1.2410001 1
16.021 -3.8010001 -1.7920001 9
18.51 -4.3520002 -1.745 13
22.33 -5.204 -1.715 14
27.249001 -6.2989998 -1.62 6
35.416 -8.1239996 -1.495 8
48.777 -11.108 -1.223 17
16.518999 -3.813 -1.781 10
19.209 -4.3920002 -1.735 14
23.226 -5.2649999 -1.6950001 11
28.434 -6.3909998 -1.5829999 6
36.687 -8.1809998 -1.4119999 5
48.783001 -10.799 -1.045 4
17.069 -3.8280001 -1.774 11
20.007999 -4.4460001 -1.7309999 15
24.357 -5.3649998 -1.686 11
29.917 -6.5349998 -1.557 6
0 0 0 0
0 0 0 0
17.627001 -3.8380001 -1.765 12
20.733 -4.4720001 -1.717 16
25.302999 -5.408 -1.659 8
31.511999 -6.6799998 -1.528 6
0 0 0 0
54.144001 -11.296 -0.78299999 28
18.195999 -3.8429999 -1.755 12
21.542 -4.507 -1.707 15
26.299999 -5.4530001 -1.633 7
32.958 -6.7740002 -1.484 6
47.154999 -9.6140003 -1.324 1
55.115002 -11.149 -0.616 23
18.819 -3.8499999 -1.747 13
22.388 -4.5370002 -1.6950001 16
27.405001 -5.5029998 -1.608 7
34.938 -6.954 -1.456 5
47.525002 -9.3809996 -1.179 4
57.030998 -11.17 -0.456 22
19.462999 -3.855 -1.74 14
23.235001 -4.5580001 -1.682 12
28.576 -5.553 -1.5829999 6
36.325001 -6.9949999 -1.397 5
49.505001 -9.4519997 -1.071 8
65.647003 -12.434 -0.31999999 11
20.120001 -3.8510001 -1.732 15
24.171 -4.5799999 -1.669 15
29.787001 -5.592 -1.554 5
38.186001 -7.1030002 -1.349 2
50.630001 -9.3369999 -0.94099998 2
59.414001 -10.865 -0.111 44
20.785999 -3.8399999 -1.721 16
24.98 -4.566 -1.646 11
31.056 -5.6230001 -1.524 5
0 0 0 0
53.419998 -9.4960003 -0.83099997 54
85.704002 -15.104 0.093000002 5
21.493999 -3.825 -1.712 17
25.896 -4.5599999 -1.626 9
32.655998 -5.6929998 -1.503 6
42.508999 -7.342 -1.247 1
54.334999 -9.2980003 -0.68900001 23
89.128998 -15.121 0.34599999 6
22.158001 -3.7939999 -1.698 18
26.82 -4.5440001 -1.605 7
34.245998 -5.7449999 -1.478 7
48.124001 -7.993 -1.276 4
55.502998 -9.1289997 -0.551 15
60.028 -9.7840004 0.396 3
22.972 -3.777 -1.693 17
27.723 -4.5100002 -1.581 7
35.548 -5.723 -1.4349999 6
48.257 -7.6929998 -1.149 4
0 0 0 0
60.259998 -9.4239998 0.55500001 51
23.697001 -3.7379999 -1.681 17
28.757999 -4.4860001 -1.562 6
36.750999 -5.671 -1.386 4
50.410999 -7.6989999 -1.069 26
0 0 0 0
60.487 -9.0559998 0.70700002 43
24.399 -3.6819999 -1.665 15
29.768 -4.441 -1.538 6
38.277 -5.6469998 -1.345 4
50.657001 -7.3909998 -0.94599998 50
50.984001 -7.3639998 -0.116 77
51.077 -7.303 0.72000003 10
25.163 -3.625 -1.653 10
30.797001 -4.3850002 -1.515 6
39.469002 -5.5560002 -1.291 2
50.905998 -7.086 -0.82999998 44
65.768997 -9.0600004 0.003 17
56.515999 -7.704 0.926 20
26.034 -3.5739999 -1.646 9
31.775999 -4.309 -1.487 6
0 0 0 0
54.352001 -7.2030001 -0.764 51
63.438 -8.3100004 0.14300001 8
56.594002 -7.336 1.049 17
26.673 -3.477 -1.624 10
33.140999 -4.2680001 -1.476 6
41.629002 -5.2950001 -1.173 1
54.710999 -6.8759999 -0.64999998 36
0 0 0 0
56.720001 -6.9660001 1.169 37
27.333 -3.3759999 -1.605 9
34.007999 -4.1459999 -1.441 6
43.387001 -5.2220001 -1.132 1
0 0 0 0
56.597 -6.6490002 0.361 22
56.555 -6.5650001 1.277 23
28.091 -3.277 -1.59 7
35.014 -4.0310001 -1.413 5
49.158001 -5.585 -1.1849999 4
56.963001 -6.3899999 -0.45100001 35
56.612 -6.27 0.46700001 19
56.792 -6.2119999 1.386 22
28.767 -3.1570001 -1.572 7
35.775002 -3.872 -1.375 5
49.198002 -5.2509999 -1.094 4
60.354 -6.3540001 -0.36700001 33
56.796001 -5.902 0.56999999 30
57.108002 -5.8590002 1.493 7
29.527 -3.039 -1.559 6
36.987 -3.75 -1.355 5
49.536999 -4.9489999 -1.0140001 4
60.208 -5.9310002 -0.26300001 47
56.459999 -5.4829998 0.66100001 37
56.967999 -5.4530001 1.5829999 6
29.986 -2.878 -1.531 5
37.460999 -3.539 -1.309 3
51.401001 -4.7810001 -0.96799999 10
60.105 -5.5050001 -0.16500001 47
56.636002 -5.112 0.75199997 42
108.496 -9.6479998 3.181 34
30.898001 -2.75 -1.527 6
38.619999 -3.3789999 -1.288 6
51.557999 -4.4390001 -0.89200002 6
60.013 -5.0830002 -0.075999998 59
57.014 -4.7509999 0.84100002 22
72.603996 -5.9549999 2.2320001 23
31.635 -2.5940001 -1.515 6
39.464001 -3.177 -1.258 5
51.669998 -4.086 -0.81900001 5
59.903999 -4.6550002 0.0080000004 48
110.481 -8.441 1.779 12
109.09 -8.1920004 3.4979999 12
32.303001 -2.4219999 -1.502 6
0 0 0 0
55.370998 -3.9920001 -0.80500001 18
59.528999 -4.2140002 0.082999997 50
0 0 0 0
107.774 -7.3460002 3.586 48
25.268 -1.716 -1.143 45
27.117001 -1.804 -0.79400003 1
55.639999 -3.628 -0.74299997 24
59.731998 -3.8139999 0.153 40
83.277 -5.2080002 1.5369999 5
106.76 -6.54 3.668 29
23.193001 -1.413 -1.022 63
27.950001 -1.665 -0.787 27
55.810001 -3.25 -0.685 24
59.464001 -3.3870001 0.213 25
85.125999 -4.7379999 1.6569999 19
108.728 -5.9190001 3.8410001 25
22.745001 -1.228 -0.97899997 75
28.577999 -1.5039999 -0.77700001 31
56.308998 -2.8900001 -0.63700002 24
58.860001 -2.9460001 0.266 16
83.374001 -4.0630002 1.698 33
108.716 -5.1609998 3.9349999 28
22.903 -1.075 -0.96499997 79
0 0 0 0
53.328999 -2.362 -0.55800003 31
58.794998 -2.5309999 0.31400001 8
53.57 -2.2360001 1.133 2
53.560001 -2.1689999 1.979 20
23.080999 -0.92000002 -0.954 49
25.141001 -0.97000003 -0.64200002 150
25.468 -0.94999999 -0.248 150
24.18 -0.87099999 0.146 32
66.179001 -2.299 1.444 55
95.801003 -3.211 3.6029999 43
23.077999 -0.75700003 -0.93800002 76
23.559999 -0.74199998 -0.58600003 60
23.77 -0.71899998 -0.21699999 81
29.563999 -0.85799998 0.19599999 6
66.389999 -1.845 1.4859999 27
95.475998 -2.5369999 3.642 45
23.052999 -0.59500003 -0.92500001 70
24.934999 -0.61000001 -0.60699999 150
30.051001 -0.69800001 -0.259 19
60.342999 -1.33 0.428 11
65.531998 -1.365 1.4960001 11
95.795998 -1.8839999 3.694 40
23.211 -0.435 -0.921 75
23.615999 -0.41299999 -0.56599998 28
30.983 -0.50400001 -0.255 24
31.301001 -0.47299999 0.233 7
65.233002 -0.90399998 1.511 7
85.763 -1.087 3.3340001 5
23.17 -0.27000001 -0.912 60
29.893999 -0.31200001 -0.70700002 41
31.171 -0.28799999 -0.248 11
81.045998 -0.65200001 0.62400001 6
65.305 -0.44400001 1.527 7
85.466003 -0.48100001 3.339 11
23.181 -0.106 -0.90799999 58
29.827 -0.1 -0.70099998 46
57.548 -0.126 -0.44999999 12
69.418999 -0.067000002 0.54299998 9
65.140999 0.0099999998 1.53 63
95.760002 0.126 3.75 41
23.124001 0.057999998 -0.90399998 49
30.150999 0.109 -0.70700002 39
33.064999 0.15800001 -0.25799999 31
33.159 0.19599999 0.25999999 2
65.594002 0.46399999 1.541 48
95.712997 0.78799999 3.7460001 46
23.231001 0.221 -0.90899998 67
30.191 0.322 -0.70999998 37
33.432999 0.39399999 -0.26300001 57
68.105003 0.88499999 0.52700001 10
80.876999 1.14 1.89 8
93.760002 1.428 3.6570001 23
23.108999 0.382 -0.90799999 79
31.226 0.55199999 -0.74000001 40
33.599998 0.63200003 -0.271 1
34.154999 0.68199998 0.257 5
80.877998 1.7029999 1.8710001 43
93.541 2.076 3.625 40
22.992001 0.54400003 -0.91100001 73
28.1 0.69400001 -0.67400002 4
34.389999 0.88700002 -0.289 42
34.505001 0.92699999 0.248 42
34.074001 0.95300001 0.77600002 7
34.16 0.99199998 1.311 10
22.879 0.69999999 -0.91500002 72
27.716 0.87900001 -0.67699999 8
34.546001 1.133 -0.30500001 25
69.300003 2.346 0.46799999 37
80.605003 2.8169999 1.8 16
111.228 4.0089998 4.2179999 20
22.868 0.861 -0.92699999 62
27.455 1.061 -0.685 28
34.924999 1.387 -0.32699999 6
35.407001 1.444 0.219 28
0 0 0 0
61.148998 2.6229999 2.2839999 11
22.825001 1.02 -0.94 77
27.087999 1.237 -0.69300002 26
35.676998 1.666 -0.35800001 21
35.789001 1.709 0.197 25
95.058998 4.6399999 2.0050001 16
60.584999 3.0220001 2.22 49
22.923 1.184 -0.96100003 67
26.799 1.4119999 -0.70700002 28
36.028999 1.933 -0.389 26
67.142998 3.674 0.31799999 3
94.475998 5.2680001 1.9170001 19
60.48 3.4360001 2.168 39
23.007999 1.351 -0.98500001 66
26.507 1.582 -0.72299999 35
36.327999 2.2019999 -0.42500001 2
55.476002 3.4189999 0.213 95
55.389999 3.47 1.074 51
55.338001 3.5239999 1.933 56
18.343 1.206 -0.80400002 1
25.671 1.711 -0.72600001 43
36.188 2.448 -0.46000001 13
36.757 2.5220001 0.103 57
36.830002 2.5639999 0.676 2
60.942001 4.303 2.0669999 32
18.349001 1.335 -0.82499999 12
24.931999 1.836 -0.73299998 71
35.755001 2.6689999 -0.495 9
37.076 2.8 0.061999999 71
106.302 8.1370001 1.832 11
64.755997 5.0219998 2.1229999 24
18.26 1.456 -0.84299999 20
24.017 1.937 -0.736 40
31.612 2.5780001 -0.477 3
60.307999 4.9720001 0.027000001 3
65.271004 5.4439998 1.044 76
65.176003 5.5009999 2.0550001 34
18.135 1.574 -0.86299998 38
23.5 2.0599999 -0.75199997 40
30.594999 2.7090001 -0.50300002 16
37.696999 3.3699999 -0.034000002 19
37.778999 3.4130001 0.55299997 22
76.167999 6.9530001 2.299 11
17.844 1.6720001 -0.875 41
23.361 2.2090001 -0.78200001 45
24.788 2.3659999 -0.44400001 49
37.981998 3.658 -0.089000002 70
38.067001 3.701 0.50099999 41
76.316002 7.494 2.191 19
17.672001 1.779 -0.89499998 49
0 0 0 0
24.601 2.517 -0.47999999 44
24.893999 2.5680001 -0.097999997 1
86.741997 9.0270004 1.006 13
76.446999 8.0310001 2.075 6
17.233999 1.855 -0.90200001 55
24.848 2.694 -0.91399997 19
24.462999 2.6719999 -0.51899999 51
24.811001 2.7309999 -0.14 22
38.653 4.289 0.382 10
82.116997 9.184 2.0910001 18
16.816999 1.927 -0.91100001 53
24.777 2.8570001 -0.95599997 31
24.363001 2.829 -0.56 58
24.652 2.8829999 -0.183 41
38.909 4.5840001 0.315 30
91.556999 10.864 2.168 18
16.504 2.006 -0.92699999 51
18.915001 2.3110001 -0.76599997 0
24.42 3.0020001 -0.60900003 48
24.565001 3.04 -0.23 51
39.146999 4.875 0.243 27
138.634 17.393999 3.0209999 39
16.253 2.0869999 -0.94599998 51
18.77 2.424 -0.79900002 17
24.570999 3.191 -0.66299999 38
24.657 3.221 -0.28099999 52
46.466 6.1069999 0.19400001 13
0 0 0 0
16.033001 2.171 -0.96899998 58
18.358999 2.497 -0.82200003 42
25.177 3.441 -0.73299998 25
25.093 3.448 -0.33899999 49
62.056 8.5769997 0.127 33
62.033001 8.6260004 1.094 20
15.837 2.2520001 -0.99299997 54
17.882 2.5539999 -0.84100002 46
26.025 3.734 -0.81699997 25
25.065001 3.615 -0.39500001 52
25.364 3.677 -0.0040000002 23
62.075001 9.0500002 0.95700002 24
15.705 2.342 -1.023 63
17.711 2.651 -0.87599999 56
25.475 3.8299999 -0.861 24
24.783001 3.7420001 -0.449 69
25.073 3.8039999 -0.063000001 53
58.041 8.849 0.75999999 56
15.666 2.4419999 -1.0599999 60
17.115999 2.678 -0.889 57
25.152 3.951 -0.912 55
24.695999 3.8940001 -0.50800002 60
24.874001 3.9400001 -0.123 62
45.562 7.25 0.48699999 10
15.486 2.52 -1.089 55
16.629 2.714 -0.90700001 55
19.23 3.1500001 -0.74699998 4
24.66 4.053 -0.57099998 61
24.740999 4.0830002 -0.185 65
54.110001 8.9729996 0.44 38
15.419 2.6140001 -1.126 59
16.094 2.7360001 -0.92199999 51
19.054001 3.2490001 -0.792 24
24.693001 4.2249999 -0.63800001 65
24.711 4.243 -0.25099999 55
25.295 4.362 0.139 6
15.301 2.698 -1.1619999 65
15.586 2.7550001 -0.93800002 56
18.707001 3.3150001 -0.82999998 54
24.82 4.4130001 -0.71100003 32
24.657 4.3990002 -0.31900001 74
25.129999 4.5009999 0.068000004 17
15.217 2.786 -1.201 59
15.318 2.8099999 -0.96700001 52
18.393 3.3829999 -0.87 50
25.018999 4.6129999 -0.78899997 5
24.726999 4.5749998 -0.391 59
25.066999 4.6550002 -0.0020000001 15
15.127 2.872 -1.242 62
15.089 2.8699999 -0.99900001 62
17.582001 3.3510001 -0.88599998 44
25.471001 4.868 -0.88099998 25
24.813999 4.757 -0.46700001 58
25.108 4.8280001 -0.077 2
15.056 2.9590001 -1.284 56
15.114 2.9749999 -1.049 54
17.049999 3.3629999 -0.91299999 57
19.525999 3.8599999 -0.736 7
25.257999 5.007 -0.55299997 6
36.779999 7.3150001 -0.226 5
14.983 3.046 -1.329 64
14.997 3.053 -1.09 57
16.485001 3.3610001 -0.93599999 55
18.986 3.8789999 -0.77700001 30
24.724001 5.0630002 -0.62099999 7
36.696999 7.5349998 -0.34200001 26
14.907 3.131 -1.374 50
14.875 3.1270001 -1.132 63
15.34 3.2290001 -0.92299998 52
18.601 3.9230001 -0.824 53
24.405001 5.1570001 -0.69300002 18
30.531 6.467 -0.38499999 1
14.993 3.247 -1.434 57
14.858 3.22 -1.183 64
15.015 3.2579999 -0.95499998 42
18.212999 3.9579999 -0.86799997 50
24.474001 5.3280001 -0.77700001 17
31.111 6.7880001 -0.49599999 8
14.938 3.332 -1.483 57
14.761 3.2950001 -1.228 59
14.812 3.3099999 -0.995 60
17.677999 3.9549999 -0.90499997 44
26.700001 5.9840002 -0.94099998 6
31.473 7.0679998 -0.61000001 11
14.895 3.421 -1.536 53
14.707 3.3789999 -1.279 57
14.618 3.3610001 -1.036 64
16.615999 3.8239999 -0.91100001 46
25.115999 5.7880001 -0.97600001 9
31.798 7.3439999 -0.72899997 11
14.797 3.4960001 -1.5829999 34
14.612 3.4519999 -1.327 59
14.575 3.4449999 -1.0880001 65
15.485 3.664 -0.90700001 48
18.306999 4.336 -0.77899998 2
0 0 0 0
14.609 3.546 -1.6210001 19
14.581 3.539 -1.381 42
14.607 3.5469999 -1.147 59
14.919 3.6240001 -0.93099999 46
17.848 4.3400002 -0.82700002 6
28.999001 7.0619998 -0.88 6
14.47 3.6059999 -1.665 11
14.677 3.655 -1.449 43
14.564 3.628 -1.201 41
14.559 3.628 -0.96499997 55
17.577999 4.3839998 -0.88300002 41
26.716 6.671 -0.912 5
14.228 3.6359999 -1.697 11
14.62 3.734 -1.5039999 48
14.429 3.684 -1.249 58
14.447 3.6900001 -1.016 46
16.636 4.2519999 -0.90100002 47
18.816999 4.8150001 -0.71600002 21
13.786 3.6110001 -1.7029999 12
14.497 3.7939999 -1.552 52
14.304 3.743 -1.298 64
14.389 3.7650001 -1.071 54
15.641 4.0939999 -0.91100001 46
18.485001 4.8429999 -0.77899998 44
13.349 3.5810001 -1.7079999 12
14.348 3.846 -1.599 24
14.297 3.8299999 -1.358 52
14.314 3.835 -1.126 56
14.823 3.9719999 -0.92500001 42
18.062 4.8429999 -0.83499998 46
12.922 3.5480001 -1.712 11
14.204 3.8959999 -1.646 13
14.259 3.908 -1.4170001 56
14.177 3.8840001 -1.176 54
14.357 3.934 -0.95700002 50
17.469999 4.789 -0.88099998 42
12.516 3.5150001 -1.715 11
14.032 3.9360001 -1.6900001 12
14.284 4.0029998 -1.484 49
14.157 3.9660001 -1.238 49
14.081 3.944 -1 54
16.802999 4.7080002 -0.92000002 47
12.111 3.477 -1.717 11
13.561 3.888 -1.697 10
14.289 4.0929999 -1.55 45
14.145 4.0489998 -1.3 56
14.043 4.0190001 -1.0599999 55
15.646 4.4780002 -0.926 39
11.721 3.4389999 -1.719 10
13.068 3.8269999 -1.697 11
14.115 4.1300001 -1.598 28
14.274 4.1729999 -1.378 55
14.01 4.0939999 -1.122 51
14.611 4.2690001 -0.93099999 41
11.369 3.4059999 -1.724 10
12.629 3.776 -1.701 10
13.978 4.1729999 -1.648 11
14.026 4.1830001 -1.42 50
14.002 4.1739998 -1.186 44
14.08 4.1960001 -0.96100003 44
11.017 3.3670001 -1.726 10
12.226 3.73 -1.707 10
13.746 4.1859999 -1.688 12
14.139 4.3010001 -1.499 43
14.021 4.2620001 -1.2539999 51
13.911 4.2270002 -1.0140001 35
10.703 3.3369999 -1.7309999 11
11.807 3.6730001 -1.709 10
13.25 4.1139998 -1.693 15
13.997 4.3400002 -1.553 36
13.914 4.3109999 -1.311 36
13.841 4.2859998 -1.075 44
10.375 3.2969999 -1.732 11
11.456 3.632 -1.716 9
12.764 4.039 -1.6950001 12
13.863 4.3800001 -1.607 20
13.89 4.3829999 -1.378 32
13.822 4.3600001 -1.141 47
10.079 3.2639999 -1.737 11
11.067 3.575 -1.716 10
12.33 3.974 -1.701 11
13.746 4.4219999 -1.663 14
13.806 4.4359999 -1.437 44
13.828 4.4390001 -1.209 46
9.7919998 3.2290001 -1.74 11
10.741 3.5309999 -1.722 10
11.938 3.9159999 -1.709 11
13.359 4.3740001 -1.6849999 12
13.883 4.54 -1.516 48
13.737 4.4879999 -1.27 47
9.5089998 3.1919999 -1.743 10
10.408 3.483 -1.726 11
11.527 3.848 -1.712 9
12.857 4.283 -1.689 12
13.788 4.5869999 -1.577 32
13.696 4.5510001 -1.336 49
9.2320004 3.1530001 -1.744 10
10.088 3.434 -1.728 11
11.153 3.7869999 -1.717 9
12.404 4.2020001 -1.6950001 11
13.628 4.6079998 -1.63 17
13.75 4.6440001 -1.413 44
8.9709997 3.1159999 -1.7460001 11
9.8000002 3.392 -1.733 11
10.782 3.7219999 -1.719 9
11.983 4.1259999 -1.7029999 10
13.445 4.6209998 -1.6799999 15
13.801 4.7360001 -1.49 45
8.7130003 3.076 -1.7460001 11
9.5050001 3.3440001 -1.735 11
10.453 3.6659999 -1.724 10
11.581 4.0510001 -1.7079999 10
12.921 4.5110002 -1.683 11
13.66 4.7610002 -1.5470001 40
8.4989996 3.049 -1.753 11
9.2209997 3.296 -1.737 10
10.126 3.608 -1.728 10
11.192 3.9760001 -1.714 9
12.456 4.415 -1.691 11
13.529 4.7870002 -1.605 21
8.25 3.006 -1.751 10
8.9659996 3.2550001 -1.7410001 10
9.8299999 3.556 -1.733 11
10.805 3.8970001 -1.715 10
12.003 4.3189998 -1.697 10
13.413 4.816 -1.664 14
8.0389996 2.974 -1.7539999 11
8.7010002 3.2060001 -1.7410001 11
9.5129995 3.493 -1.733 11
10.451 3.825 -1.719 9
11.607 4.237 -1.705 10
12.975 4.7259998 -1.681 10
7.8470001 2.9460001 -1.76 11
8.4689999 3.1659999 -1.745 10
9.243 3.4419999 -1.738 10
10.122 3.757 -1.722 10
11.195 4.1440001 -1.7079999 9
12.467 4.6040001 -1.6849999 12
7.6409998 2.9100001 -1.761 11
8.2399998 3.1240001 -1.747 10
8.974 3.3889999 -1.74 10
9.8210001 3.697 -1.729 10
10.821 4.0609999 -1.7130001 9
12.032 4.5040002 -1.694 10
7.4629998 2.8829999 -1.767 11
8.0139999 3.0810001 -1.749 11
8.7049999 3.3329999 -1.7410001 10
9.5100002 3.628 -1.73 11
10.47 3.9809999 -1.7180001 9
11.618 4.4060001 -1.702 9
7.2919998 2.8559999 -1.773 11
7.8119998 3.0439999 -1.753 11
8.4659996 3.2850001 -1.744 11
9.2309999 3.5680001 -1.734 10
10.132 3.9030001 -1.722 9
11.216 4.3080001 -1.707 9
7.1009998 2.8180001 -1.772 10
7.6090002 3.0039999 -1.755 11
8.2370005 3.2379999 -1.748 10
8.9560003 3.506 -1.7359999 10
9.7959995 3.8210001 -1.723 10
10.818 4.2069998 -1.71 9
6.9190001 2.7820001 -1.771 10
7.414 2.9649999 -1.757 10
8.0109997 3.1889999 -1.749 10
8.6899996 3.444 -1.737 10
9.5089998 3.7550001 -1.729 11
10.451 4.1129999 -1.7130001 9
6.7709999 2.756 -1.777 10
7.2379999 2.9300001 -1.762 10
7.7989998 3.142 -1.751 11
8.448 3.3889999 -1.74 10
9.2159996 3.6819999 -1.73 11
10.122 4.0310001 -1.719 9
6.5760002 2.71 -1.77 10
7.0630002 2.895 -1.765 10
7.599 3.099 -1.755 10
8.2209997 3.3369999 -1.745 10
8.9490004 3.618 -1.7359999 10
9.7880001 3.9430001 -1.721 10
6.4219999 2.6789999 -1.771 10
6.8940001 2.859 -1.768 10
7.4089999 3.0569999 -1.7589999 11
7.9970002 3.283 -1.748 11
8.6750002 3.546 -1.735 11
9.4899998 3.865 -1.726 11
6.27 2.6470001 -1.772 11
6.7340002 2.825 -1.771 9
7.2309999 3.016 -1.762 10
7.7950001 3.2360001 -1.752 11
8.4300003 3.483 -1.738 10
9.2019997 3.7880001 -1.729 10
6.131 2.6170001 -1.774 11
6.5430002 2.7750001 -1.7640001 10
7.0430002 2.97 -1.762 10
7.5819998 3.1800001 -1.752 10
8.21 3.428 -1.743 10
8.9239998 3.711 -1.73 10
5.9949999 2.5869999 -1.775 10
6.381 2.7360001 -1.762 11
6.8740001 2.9289999 -1.7640001 12
7.408 3.1400001 -1.7589999 11
7.9809999 3.3670001 -1.745 10
8.6540003 3.635 -1.732 11
5.8540001 2.5539999 -1.774 11
6.244 2.7049999 -1.767 11
6.7059999 2.888 -1.765 12
7.2140002 3.089 -1.7589999 10
7.7709999 3.3110001 -1.748 10
8.4180002 3.5699999 -1.7359999 11
5.73 2.526 -1.776 10
6.1170001 2.677 -1.771 10
6.5580001 2.852 -1.7690001 10
7.033 3.0409999 -1.76 10
7.5760002 3.2579999 -1.751 10
8.1990004 3.51 -1.7410001 10
5.6149998 2.5 -1.779 10
5.9720001 2.6400001 -1.77 11
6.3940001 2.8069999 -1.767 10
6.881 3.003 -1.767 10
7.3959999 3.211 -1.756 11
7.9720001 3.444 -1.743 10
5.4980001 2.4719999 -1.781 11
5.8390002 2.6059999 -1.771 10
6.2449999 2.7679999 -1.768 11
6.723 2.961 -1.77 10
7.204 3.155 -1.757 10
7.7680001 3.385 -1.7460001 11
5.3959999 2.4489999 -1.786 10
5.7150002 2.5739999 -1.772 10
6.1149998 2.7349999 -1.772 11
6.5440001 2.908 -1.765 10
7.0510001 3.115 -1.7640001 10
7.5650001 3.3239999 -1.748 10
5.2740002 2.4159999 -1.7819999 11
5.5970001 2.543 -1.774 11
5.9780002 2.697 -1.772 11
6.3860002 2.862 -1.765 11
6.882 3.066 -1.766 10
7.3909998 3.2750001 -1.7539999 11
5.164 2.3870001 -1.7819999 10
5.4790001 2.5120001 -1.775 10
5.848 2.661 -1.773 11
6.2350001 2.8169999 -1.7640001 11
6.6810002 3 -1.757 12
7.1929998 3.211 -1.753 11
5.0650001 2.3610001 -1.784 9
5.369 2.4820001 -1.776 10
5.7259998 2.6270001 -1.775 11
6.105 2.78 -1.767 11
6.5349998 2.957 -1.761 11
7.0089998 3.1530001 -1.752 11
4.9619999 2.332 -1.783 10
5.2740002 2.4579999 -1.781 11
5.6090002 2.5929999 -1.776 11
5.9720001 2.7409999 -1.7690001 11
6.3839998 2.9100001 -1.762 12
6.8439999 3.1010001 -1.7539999 11
4.8800001 2.313 -1.789 9
5.1680002 2.427 -1.7819999 10
5.5009999 2.562 -1.78 10
5.8520002 2.7049999 -1.772 11
6.2459998 2.8670001 -1.7640001 12
6.724 3.0680001 -1.766 9
4.7940001 2.29 -1.7920001 10
5.0570002 2.3929999 -1.779 11
5.382 2.5250001 -1.778 10
5.7379999 2.671 -1.775 11
6.1059999 2.822 -1.7640001 11
6.5349998 3.0009999 -1.757 11
4.6960001 2.2590001 -1.789 9
4.9590001 2.3629999 -1.779 12
5.2859998 2.497 -1.7819999 10
5.625 2.6359999 -1.777 10
5.9850001 2.7839999 -1.768 11
6.3889999 2.9519999 -1.7589999 10
4.6030002 2.23 -1.7869999 10
4.8730001 2.3380001 -1.7819999 10
5.1799998 2.4630001 -1.781 10
5.5079999 2.598 -1.777 10
5.868 2.747 -1.771 11
6.2449999 2.9030001 -1.758 11
4.5209999 2.2060001 -1.7869999 10
4.8010001 2.319 -1.789 10
5.0809999 2.431 -1.781 10
5.408 2.566 -1.779 10
5.7600002 2.7119999 -1.775 10
6.1290002 2.865 -1.763 11
4.4499998 2.1849999 -1.791 10
4.704 2.286 -1.785 11
4.9759998 2.3959999 -1.778 11
5.2940001 2.526 -1.777 10
5.6389999 2.6689999 -1.774 10
5.9990001 2.819 -1.7640001 11
4.375 2.161 -1.7920001 10
4.632 2.2650001 -1.79 11
4.8979998 2.3710001 -1.783 11
5.2010002 2.4960001 -1.78 10
5.527 2.6300001 -1.774 10
5.8850002 2.78 -1.767 11
4.3000002 2.1370001 -1.7920001 9
4.5440001 2.234 -1.788 10
4.822 2.3469999 -1.788 11
5.1059999 2.4619999 -1.781 10
5.428 2.596 -1.777 10
5.77 2.7379999 -1.7690001 10
4.2329998 2.1159999 -1.794 9
4.4720001 2.21 -1.79 10
4.7379999 2.3180001 -1.788 10
5.0110002 2.428 -1.779 11
5.329 2.5599999 -1.777 10
5.6589999 2.697 -1.7690001 10
4.1760001 2.098 -1.799 9
4.3990002 2.1849999 -1.791 11
4.6570001 2.289 -1.788 11
4.9219999 2.3959999 -1.78 11
5.2379999 2.527 -1.78 10
5.552 2.6570001 -1.7690001 10
4.1090002 2.075 -1.799 9
4.3340001 2.1630001 -1.793 10
4.5879998 2.2650001 -1.791 11
4.8460002 2.368 -1.7819999 10
5.1370001 2.4879999 -1.777 11
5.4569998 2.6199999 -1.772 10
4.052 2.0550001 -1.802 9
4.2610002 2.1359999 -1.7920001 10
4.506 2.234 -1.789 10
4.7729998 2.342 -1.786 10
5.0040002 2.4319999 -1.762 11
5.3579998 2.582 -1.772 10
3.9949999 2.0350001 -1.804 9
4.2069998 2.1170001 -1.7970001 10
4.4429998 2.21 -1.7920001 11
4.6929998 2.3099999 -1.785 10
4.961 2.4189999 -1.777 11
5.2620001 2.543 -1.771 10
3.941 2.016 -1.806 9
4.1469998 2.095 -1.798 10
4.369 2.181 -1.79 10
4.618 2.2809999 -1.785 11
4.8790002 2.3859999 -1.777 11
5.1739998 2.507 -1.772 10
3.878 1.99 -1.804 9
4.0869999 2.0710001 -1.799 10
4.3060002 2.1559999 -1.791 10
4.566 2.2620001 -1.793 11
4.7810001 2.3440001 -1.77 10
5.0830002 2.4690001 -1.77 10
3.8299999 1.972 -1.806 9
4.0349998 2.0510001 -1.802 10
4.2480001 2.1329999 -1.793 10
4.4879999 2.2290001 -1.79 10
4.743 2.3310001 -1.783 10
5.0120001 2.4400001 -1.775 11
3.779 1.952 -1.807 8
3.9790001 2.0280001 -1.802 10
4.191 2.1099999 -1.795 11
4.4289999 2.204 -1.793 10
4.6690001 2.299 -1.783 10
4.9400001 2.4089999 -1.777 11
3.734 1.934 -1.8099999 9
3.925 2.0050001 -1.802 10
4.1420002 2.089 -1.799 10
4.3610001 2.174 -1.79 10
4.6040001 2.27 -1.784 11
4.8639998 2.375 -1.777 10
3.6800001 1.91 -1.808 9
3.882 1.987 -1.806 10
4.085 2.0639999 -1.799 10
4.3000002 2.1459999 -1.79 10
4.5440001 2.244 -1.786 11
4.8049998 2.349 -1.781 10
3.6340001 1.89 -1.807 8
3.8340001 1.966 -1.807 10
4.0370002 2.0420001 -1.801 10
4.2459998 2.122 -1.791 10
4.4850001 2.2160001 -1.788 10
4.7379999 2.3169999 -1.7819999 10
3.592 1.8710001 -1.808 8
3.7839999 1.943 -1.806 10
3.987 2.0190001 -1.802 11
4.1900001 2.096 -1.791 10
4.4260001 2.188 -1.788 11
4.6799998 2.29 -1.784 10
3.5569999 1.854 -1.812 8
3.7460001 1.924 -1.809 10
3.9449999 1.999 -1.8049999 10
4.145 2.0739999 -1.795 10
4.368 2.1600001 -1.788 11
4.6149998 2.2579999 -1.783 11
3.5190001 1.836 -1.814 8
3.698 1.901 -1.807 9
3.904 1.979 -1.807 10
4.1069999 2.0550001 -1.8 10
4.316 2.1340001 -1.789 10
4.566 2.233 -1.7869999 11
3.4879999 1.821 -1.817 8
3.6600001 1.882 -1.808 9
3.859 1.956 -1.807 10
4.0570002 2.03 -1.799 10
4.2680001 2.109 -1.79 10
4.5029998 2.2 -1.785 11
3.4560001 1.804 -1.8200001 9
3.6140001 1.858 -1.8049999 9
3.8199999 1.9349999 -1.808 9
4.0110002 2.0050001 -1.799 10
4.2210002 2.0840001 -1.7920001 10
4.4549999 2.174 -1.7869999 10
3.4170001 1.783 -1.818 8
3.586 1.842 -1.8099999 10
3.777 1.9119999 -1.808 10
3.974 1.985 -1.802 10
4.1799998 2.0610001 -1.794 10
4.402 2.145 -1.786 10
3.3859999 1.766 -1.8200001 8
3.553 1.824 -1.812 9
3.743 1.893 -1.8099999 10
3.937 1.9630001 -1.804 10
4.1430001 2.04 -1.7970001 10
4.362 2.122 -1.79 10
3.3610001 1.751 -1.823 8
3.5209999 1.8049999 -1.812 10
3.7079999 1.872 -1.811 9
3.895 1.939 -1.803 9
4.1030002 2.016 -1.798 10
4.316 2.095 -1.79 10
3.329 1.732 -1.823 8
3.494 1.788 -1.8150001 10
3.6659999 1.847 -1.807 10
3.865 1.92 -1.806 10
4.0619998 1.9910001 -1.798 10
4.2740002 2.069 -1.791 9
3.2980001 1.712 -1.821 9
3.4690001 1.771 -1.818 9
3.638 1.8279999 -1.809 10
3.8299999 1.897 -1.807 9
4.0250001 1.9680001 -1.799 10
4.2340002 2.0439999 -1.7920001 10
3.277 1.698 -1.825 9
3.434 1.749 -1.816 9
3.6059999 1.807 -1.809 10
3.7950001 1.875 -1.806 9
3.997 1.947 -1.802 10
4.1989999 2.02 -1.794 10
3.257 1.683 -1.8279999 9
3.4119999 1.732 -1.818 9
3.582 1.79 -1.812 10
3.7679999 1.855 -1.808 10
3.961 1.923 -1.802 10
4.1659999 1.997 -1.795 10
3.2279999 1.663 -1.826 8
3.388 1.714 -1.819 9
3.5569999 1.771 -1.813 10
3.7360001 1.832 -1.807 9
3.931 1.901 -1.803 10
4.132 1.972 -1.796 10
3.2049999 1.645 -1.826 9
3.3629999 1.696 -1.819 10
3.529 1.75 -1.812 9
3.7079999 1.811 -1.807 9
3.9030001 1.8789999 -1.804 9
4.1079998 1.952 -1.8 10
3.1800001 1.626 -1.823 8
3.349 1.682 -1.824 9
3.5050001 1.7309999 -1.813 9
3.684 1.791 -1.809 9
3.8800001 1.859 -1.807 9
4.0760002 1.927 -1.8 10
3.1670001 1.612 -1.8279999 8
3.325 1.6619999 -1.823 10
3.4909999 1.715 -1.817 10
3.6589999 1.77 -1.808 9
3.8499999 1.835 -1.8049999 9
4.0489998 1.904 -1.801 10
3.1500001 1.595 -1.8279999 8
3.3050001 1.643 -1.822 9
3.4679999 1.6950001 -1.816 9
3.6389999 1.751 -1.8099999 9
3.829 1.8150001 -1.807 10
4.0219998 1.88 -1.8 10
3.1300001 1.577 -1.826 8
3.289 1.626 -1.824 9
3.451 1.678 -1.818 9
3.6159999 1.729 -1.809 8
3.802 1.791 -1.8049999 10
3.9979999 1.858 -1.801 10
3.115 1.561 -1.827 8
3.276 1.6109999 -1.826 9
3.438 1.661 -1.821 10
3.5999999 1.711 -1.811 9
3.7820001 1.771 -1.806 10
3.9760001 1.835 -1.801 10
3.1059999 1.5470001 -1.83 7
3.256 1.591 -1.823 9
3.4189999 1.641 -1.819 9
3.5780001 1.689 -1.808 9
3.7679999 1.752 -1.809 9
3.964 1.817 -1.806 10
3.092 1.529 -1.829 8
3.25 1.5779999 -1.8279999 9
3.4070001 1.624 -1.821 9
3.5650001 1.671 -1.8099999 9
3.743 1.728 -1.8049999 10
3.944 1.795 -1.806 9
3.076 1.511 -1.827 7
3.2349999 1.559 -1.826 9
3.395 1.6059999 -1.822 9
3.5539999 1.654 -1.813 9
3.734 1.711 -1.809 9
3.925 1.772 -1.8049999 10
3.0710001 1.498 -1.83 7
3.227 1.543 -1.8279999 9
3.3859999 1.59 -1.824 9
3.5420001 1.635 -1.813 9
3.7219999 1.692 -1.8099999 10
3.9070001 1.749 -1.804 10
3.0610001 1.4809999 -1.83 8
3.2130001 1.524 -1.826 9
3.375 1.572 -1.824 9
3.533 1.617 -1.8150001 9
3.7060001 1.67 -1.809 9
3.8959999 1.73 -1.806 10
3.053 1.465 -1.83 7
3.2060001 1.508 -1.827 9
3.372 1.557 -1.827 9
3.5209999 1.598 -1.814 9
3.6930001 1.649 -1.808 9
3.885 1.709 -1.807 10
3.0409999 1.446 -1.827 7
3.201 1.492 -1.829 9
3.3559999 1.536 -1.823 9
3.516 1.581 -1.816 9
3.6860001 1.631 -1.8099999 9
3.8759999 1.689 -1.808 9
3.0409999 1.433 -1.83 8
3.1930001 1.475 -1.8279999 9
3.3529999 1.52 -1.826 9
3.5139999 1.5650001 -1.819 9
3.678 1.6109999 -1.8099999 10
3.869 1.67 -1.809 9
3.0380001 1.4170001 -1.83 7
3.1900001 1.459 -1.829 9
3.346 1.501 -1.825 8
3.513 1.549 -1.822 9
3.678 1.595 -1.814 10
3.8610001 1.649 -1.809 9
3.0369999 1.403 -1.832 7
3.191 1.4450001 -1.832 8
3.3410001 1.484 -1.825 9
3.5020001 1.528 -1.819 9
3.6700001 1.575 -1.813 9
3.8570001 1.6289999 -1.8099999 10
3.03 1.385 -1.829 8
3.1889999 1.428 -1.832 9
3.3410001 1.4680001 -1.826 9
3.5039999 1.512 -1.822 9
3.6659999 1.556 -1.813 10
3.849 1.608 -1.809 9
3.0309999 1.37 -1.831 8
3.1860001 1.411 -1.831 8
3.3380001 1.45 -1.826 9
3.5 1.494 -1.821 9
3.665 1.5369999 -1.813 10
3.848 1.589 -1.8099999 9
3.0309999 1.354 -1.831 7
3.181 1.392 -1.8279999 9
3.342 1.4349999 -1.8279999 9
3.5 1.476 -1.822 8
3.665 1.52 -1.8150001 9
3.846 1.569 -1.8099999 9
3.0339999 1.339 -1.831 8
3.1889999 1.3789999 -1.832 8
3.345 1.419 -1.829 9
3.4990001 1.4579999 -1.821 9
3.665 1.501 -1.814 9
3.839 1.5470001 -1.807 9
3.04 1.326 -1.8329999 7
3.187 1.3609999 -1.83 8
3.3469999 1.402 -1.83 9
3.5020001 1.441 -1.822 8
3.6659999 1.483 -1.8150001 9
3.8540001 1.533 -1.814 9
3.0450001 1.311 -1.835 7
3.194 1.347 -1.832 8
3.345 1.383 -1.826 8
3.507 1.424 -1.823 9
3.6670001 1.4630001 -1.814 9
3.852 1.512 -1.812 9
3.0510001 1.296 -1.836 7
3.1989999 1.331 -1.832 9
3.352 1.367 -1.8279999 9
3.5120001 1.4069999 -1.824 8
3.6719999 1.4450001 -1.814 9
3.8559999 1.493 -1.812 9
3.0550001 1.28 -1.834 7
3.201 1.314 -1.83 9
3.358 1.351 -1.8279999 8
3.5179999 1.3890001 -1.824 9
3.678 1.427 -1.814 9
3.865 1.475 -1.814 9
3.059 1.2640001 -1.8329999 7
3.2130001 1.3 -1.834 9
3.3670001 1.335 -1.83 8
3.5220001 1.3710001 -1.822 9
3.688 1.411 -1.816 9
3.8710001 1.456 -1.813 9
3.0699999 1.25 -1.835 7
3.2130001 1.28 -1.829 9
3.3770001 1.3200001 -1.831 9
3.5320001 1.355 -1.823 9
3.6989999 1.3940001 -1.818 9
3.8789999 1.438 -1.813 9
3.079 1.235 -1.835 7
3.2309999 1.2690001 -1.834 8
3.3859999 1.303 -1.831 9
3.5439999 1.339 -1.825 9
3.7019999 1.374 -1.814 9
3.8889999 1.419 -1.814 9
3.0880001 1.219 -1.835 7
3.2409999 1.253 -1.834 8
3.398 1.2869999 -1.832 9
3.559 1.324 -1.827 8
3.7190001 1.359 -1.818 9
3.902 1.402 -1.8150001 9
3.098 1.204 -1.834 7
3.2539999 1.238 -1.835 9
3.408 1.271 -1.831 9
3.572 1.307 -1.8279999 8
3.7379999 1.3430001 -1.821 9
3.915 1.383 -1.8150001 9
3.1099999 1.189 -1.834 8
3.266 1.222 -1.836 9
3.424 1.256 -1.834 8
3.582 1.289 -1.827 9
3.743 1.323 -1.817 9
3.9260001 1.364 -1.813 10
3.1240001 1.174 -1.835 7
3.2750001 1.205 -1.8329999 8
3.4289999 1.2359999 -1.829 9
3.5929999 1.271 -1.825 8
3.76 1.306 -1.818 9
3.9489999 1.349 -1.817 10
3.1400001 1.16 -1.836 8
3.289 1.189 -1.8329999 9
3.448 1.222 -1.831 9
3.6110001 1.255 -1.827 8
3.779 1.29 -1.8200001 9
3.96 1.329 -1.8150001 9
3.1559999 1.145 -1.837 7
3.312 1.176 -1.837 8
3.4679999 1.207 -1.8329999 9
3.6289999 1.239 -1.827 9
3.7920001 1.271 -1.818 9
3.9790001 1.311 -1.8150001 10
3.171 1.13 -1.836 8
3.3280001 1.16 -1.837 9
3.4849999 1.1900001 -1.8329999 9
3.645 1.221 -1.826 9
3.8139999 1.255 -1.819 9
4.0050001 1.295 -1.818 10
3.1860001 1.114 -1.835 8
3.3529999 1.147 -1.841 8
3.5050001 1.175 -1.834 9
3.664 1.205 -1.826 9
3.8340001 1.237 -1.819 9
4.0279999 1.278 -1.819 9
3.2060001 1.099 -1.837 8
3.368 1.13 -1.839 8
3.5250001 1.159 -1.834 9
3.6819999 1.187 -1.825 8
3.8570001 1.221 -1.8200001 9
4.0479999 1.2589999 -1.818 9
3.227 1.085 -1.837 8
3.3900001 1.1160001 -1.84 9
3.5450001 1.143 -1.834 9
3.7079999 1.173 -1.827 9
3.8729999 1.202 -1.817 9
4.0780001 1.243 -1.8200001 10
3.2520001 1.072 -1.84 7
3.408 1.099 -1.8380001 9
3.5680001 1.127 -1.834 9
3.73 1.156 -1.827 9
3.9030001 1.187 -1.8200001 10
4.0960002 1.223 -1.817 10
3.2739999 1.057 -1.841 8
3.4319999 1.084 -1.839 9
3.592 1.112 -1.835 9
3.757 1.14 -1.8279999 9
3.931 1.17 -1.821 10
4.1300001 1.2079999 -1.8200001 10
3.293 1.041 -1.8380001 8
3.457 1.069 -1.84 9
3.615 1.095 -1.834 9
3.7750001 1.1210001 -1.824 10
3.9579999 1.153 -1.821 10
4.1570001 1.1900001 -1.819 9
3.3150001 1.025 -1.8380001 8
3.4749999 1.051 -1.836 9
3.6370001 1.0779999 -1.832 9
3.803 1.105 -1.824 10
3.9890001 1.137 -1.822 10
4.1859999 1.1720001 -1.819 9
3.342 1.011 -1.839 8
3.5039999 1.0369999 -1.8380001 9
3.6630001 1.062 -1.832 9
3.832 1.089 -1.825 10
4.0180001 1.12 -1.821 9
4.217 1.154 -1.818 10
3.368 0.99599999 -1.839 8
3.53 1.022 -1.8380001 9
3.694 1.0470001 -1.8329999 9
3.859 1.072 -1.824 9
4.0500002 1.104 -1.822 10
4.2540002 1.138 -1.8200001 10
3.3970001 0.98199999 -1.84 8
3.562 1.007 -1.84 8
3.723 1.031 -1.832 9
3.891 1.056 -1.824 9
4.0819998 1.087 -1.821 9
4.2849998 1.12 -1.818 10
3.4230001 0.96700001 -1.839 8
3.592 0.99199998 -1.84 9
3.757 1.016 -1.834 9
3.9260001 1.04 -1.825 10
4.1230001 1.072 -1.824 11
4.329 1.105 -1.821 10
3.45 0.95099998 -1.8380001 8
3.622 0.977 -1.84 9
3.7839999 0.99900001 -1.831 9
3.9630001 1.025 -1.826 9
4.1550002 1.054 -1.822 11
4.3660002 1.087 -1.8200001 10
3.4860001 0.93699998 -1.841 8
3.6500001 0.95999998 -1.8380001 9
3.8150001 0.98199999 -1.83 9
4.0029998 1.01 -1.8279999 10
4.197 1.039 -1.823 10
4.4039998 1.069 -1.819 10
3.523 0.92400002 -1.844 9
3.688 0.94599998 -1.84 9
3.848 0.96600002 -1.829 9
4.0409999 0.99400002 -1.8279999 9
4.2360001 1.021 -1.823 10
4.4450002 1.052 -1.818 10
3.556 0.90899998 -1.844 8
3.717 0.92900002 -1.837 9
3.8859999 0.95099998 -1.83 9
4.072 0.97600001 -1.825 10
4.2779999 1.005 -1.823 10
4.4910002 1.035 -1.818 10
3.586 0.89300001 -1.842 9
3.7520001 0.91399997 -1.836 9
3.927 0.93599999 -1.83 10
4.1199999 0.96200001 -1.8279999 10
4.3189998 0.98799998 -1.822 11
4.5339999 1.018 -1.817 11
3.6210001 0.87800002 -1.841 8
3.789 0.898 -1.836 10
3.9630001 0.91900003 -1.829 10
4.164 0.94599998 -1.8279999 10
4.368 0.97299999 -1.823 10
4.579 1 -1.8150001 11
3.6589999 0.86400002 -1.842 9
3.8180001 0.88099998 -1.831 9
4.0089998 0.90499997 -1.831 10
4.2049999 0.93000001 -1.827 10
4.4130001 0.95599997 -1.823 11
4.625 0.98199999 -1.814 11
3.6919999 0.84799999 -1.839 9
3.8610001 0.86699998 -1.8329999 10
4.052 0.88999999 -1.831 10
4.2480001 0.91299999 -1.826 9
4.4559999 0.93900001 -1.8200001 10
4.6799998 0.96600002 -1.814 10
3.7360001 0.83399999 -1.842 9
3.905 0.852 -1.834 10
4.0970001 0.87400001 -1.831 10
4.2989998 0.898 -1.8279999 11
4.5100002 0.92299998 -1.821 10
4.7309999 0.949 -1.813 10
3.7750001 0.81900001 -1.841 9
3.95 0.83700001 -1.834 10
4.1479998 0.86000001 -1.8329999 10
4.3520002 0.88300002 -1.8279999 10
4.5599999 0.90600002 -1.819 11
4.796 0.93400002 -1.8150001 11
3.816 0.80299997 -1.839 8
3.99 0.82099998 -1.831 10
4.1960001 0.84399998 -1.8329999 10
4.402 0.86699998 -1.827 10
4.6170001 0.88999999 -1.8200001 12
4.8579998 0.91799998 -1.8150001 11
3.858 0.78799999 -1.839 9
4.04 0.80599999 -1.8329999 10
4.2410002 0.82800001 -1.83 11
4.4549999 0.85100001 -1.827 10
4.6700001 0.87300003 -1.818 10
4.9200001 0.90100002 -1.8150001 12
3.898 0.773 -1.836 9
4.0890002 0.79100001 -1.8329999 9
4.3000002 0.81300002 -1.8329999 10
4.5079999 0.83499998 -1.826 10
4.7249999 0.85600001 -1.8150001 11
4.9899998 0.88499999 -1.817 11
3.9449999 0.75800002 -1.835 9
4.1430001 0.77700001 -1.835 10
4.3509998 0.79799998 -1.831 10
4.5689998 0.81900001 -1.827 10
4.7909999 0.84100002 -1.817 11
5.0570002 0.86900002 -1.816 11
3.9960001 0.74299997 -1.836 9
4.197 0.76200002 -1.835 10
4.401 0.78100002 -1.829 11
4.625 0.80299997 -1.825 10
4.8590002 0.82499999 -1.818 11
5.119 0.85100001 -1.812 11
4.0419998 0.72799999 -1.834 9
4.2480001 0.74699998 -1.8329999 10
4.4629998 0.76599997 -1.83 11
4.6830001 0.78600001 -1.822 11
4.9330001 0.81 -1.819 11
5.1989999 0.83499998 -1.814 12
4.0939999 0.713 -1.8329999 9
4.3119998 0.73299998 -1.836 10
4.5250001 0.75099999 -1.83 10
4.7420001 0.76899999 -1.8200001 11
5.0009999 0.79299998 -1.818 12
5.2709999 0.81800002 -1.812 11
4.151 0.69800001 -1.834 9
4.3639998 0.71700001 -1.8329999 10
4.585 0.73500001 -1.829 11
4.8130002 0.75400001 -1.8200001 10
5.0640001 0.77499998 -1.813 11
5.348 0.801 -1.8099999 11
4.2140002 0.685 -1.837 9
4.4229999 0.70099998 -1.832 10
4.6409998 0.71799999 -1.825 11
4.8889999 0.73900002 -1.822 10
5.1529999 0.76099998 -1.818 11
5.4330001 0.78500003 -1.8099999 12
4.2709999 0.67000002 -1.836 9
4.4899998 0.68699998 -1.834 11
4.7160001 0.704 -1.8279999 11
4.9569998 0.72299999 -1.8200001 10
5.2290001 0.745 -1.816 12
5.5159998 0.76800001 -1.808 12
4.3340001 0.65600002 -1.837 10
4.5510001 0.67199999 -1.832 11
4.7849998 0.68900001 -1.827 10
5.0430002 0.70899999 -1.823 11
5.3169999 0.73000002 -1.817 12
5.612 0.75300002 -1.809 12
4.395 0.64099997 -1.836 10
4.6199999 0.65700001 -1.832 11
4.8569999 0.67400002 -1.826 11
5.118 0.69300002 -1.821 11
5.395 0.713 -1.814 12
5.7119999 0.73699999 -1.8099999 12
4.46 0.62599999 -1.835 10
4.691 0.64200002 -1.832 10
4.934 0.65799999 -1.826 11
5.1950002 0.676 -1.818 11
5.4899998 0.69700003 -1.814 12
5.8119998 0.72100002 -1.809 12
4.5339999 0.61199999 -1.837 10
4.7509999 0.625 -1.826 11
5.0180001 0.64300001 -1.826 12
5.2930002 0.662 -1.821 11
5.5869999 0.68099999 -1.814 12
5.9050002 0.70300001 -1.804 12
4.5999999 0.597 -1.835 10
4.822 0.61000001 -1.824 11
5.098 0.62800002 -1.825 12
5.3800001 0.64600003 -1.8200001 12
5.6820002 0.66500002 -1.812 12
6.0300002 0.68900001 -1.809 12
4.6620002 0.58099997 -1.831 10
4.902 0.59500003 -1.824 11
5.178 0.61199999 -1.822 12
5.474 0.63 -1.819 12
5.7930002 0.64999998 -1.814 11
6.1350002 0.67199999 -1.8049999 12
4.7379999 0.56699997 -1.83 10
4.9899998 0.58099997 -1.826 11
5.276 0.59799999 -1.825 12
5.5679998 0.61400002 -1.817 12
5.9130001 0.63599998 -1.816 12
6.2729998 0.65700001 -1.809 11
4.8070002 0.551 -1.826 10
5.0760002 0.56599998 -1.825 11
5.362 0.58200002 -1.821 12
5.6750002 0.59899998 -1.817 13
6.0190001 0.61900002 -1.813 12
6.4070001 0.64200002 -1.8099999 10
4.8969998 0.537 -1.8279999 10
5.164 0.551 -1.824 12
5.4629998 0.56699997 -1.822 12
5.7880001 0.58399999 -1.818 12
6.1440001 0.60399997 -1.813 12
6.5549998 0.62699997 -1.812 11
4.9850001 0.523 -1.829 10
5.2600002 0.53600001 -1.824 11
5.5619998 0.551 -1.8200001 11
5.9000001 0.56900001 -1.817 12
6.2859998 0.58899999 -1.817 12
6.6900001 0.61000001 -1.8099999 12
5.0609999 0.50700003 -1.823 10
5.3540001 0.52100003 -1.822 12
5.6700001 0.53600001 -1.819 13
6.027 0.55400002 -1.818 12
6.4229999 0.574 -1.818 12
6.849 0.59500003 -1.812 12
5.171 0.49399999 -1.829 11
5.448 0.505 -1.8200001 11
5.7859998 0.52100003 -1.8200001 12
6.1459999 0.53799999 -1.816 11
6.5599999 0.55800003 -1.816 10
7.0050001 0.579 -1.811 13
5.2649999 0.47999999 -1.8279999 11
5.5560002 0.491 -1.8200001 12
5.9060001 0.50700003 -1.8200001 12
6.2800002 0.523 -1.817 13
6.7010002 0.542 -1.814 11
7.1750002 0.56300002 -1.811 12
5.3569999 0.46399999 -1.824 11
5.6690001 0.47600001 -1.8200001 11
6.0359998 0.49200001 -1.822 12
6.4239998 0.50800002 -1.817 11
6.8670001 0.52700001 -1.816 12
7.3520002 0.54699999 -1.8099999 13
5.4619999 0.44999999 -1.824 11
5.7779999 0.461 -1.816 13
6.1630001 0.477 -1.8200001 13
6.5689998 0.493 -1.817 11
7.0380001 0.51200002 -1.817 12
7.5349998 0.53100002 -1.809 13
5.5640001 0.435 -1.8200001 11
5.9089999 0.44800001 -1.819 11
6.2989998 0.46200001 -1.819 11
6.73 0.47799999 -1.819 12
7.2030001 0.49599999 -1.814 13
7.73 0.51499999 -1.808 13
5.6869998 0.421 -1.823 11
6.0500002 0.43399999 -1.823 11
6.448 0.447 -1.821 11
6.8930001 0.463 -1.819 12
7.3899999 0.47999999 -1.8150001 13
7.927 0.49900001 -1.804 13
5.8060002 0.40700001 -1.822 11
6.1810002 0.419 -1.821 11
6.599 0.433 -1.821 12
7.0580001 0.447 -1.816 13
7.5630002 0.46399999 -1.809 11
8.1450005 0.48300001 -1.802 13
5.941 0.39300001 -1.824 11
6.309 0.40400001 -1.817 10
6.7620001 0.41800001 -1.821 11
7.2449999 0.43200001 -1.817 12
7.7940001 0.449 -1.814 11
8.3660002 0.46599999 -1.798 14
6.0840001 0.38 -1.826 11
6.4710002 0.38999999 -1.8200001 11
6.9320002 0.403 -1.821 13
7.4289999 0.417 -1.816 12
7.9899998 0.433 -1.808 13
8.6309996 0.45100001 -1.8 12
6.21 0.36500001 -1.822 11
6.6230001 0.375 -1.818 11
7.1020002 0.38800001 -1.819 14
7.6209998 0.40099999 -1.812 13
8.2200003 0.417 -1.807 11
8.8859997 0.435 -1.796 12
6.362 0.35100001 -1.823 11
6.79 0.361 -1.819 11
7.3000002 0.373 -1.8200001 12
7.8410001 0.38600001 -1.813 10
8.4540005 0.40099999 -1.803 12
9.1599998 0.41800001 -1.7920001 13
6.5170002 0.33700001 -1.823 11
6.9590001 0.34599999 -1.817 12
7.4920001 0.35800001 -1.819 11
8.0609999 0.37099999 -1.811 11
8.7030001 0.38499999 -1.799 12
9.4659996 0.40200001 -1.791 13
6.6799998 0.32300001 -1.822 11
7.1469998 0.33199999 -1.818 11
7.6929998 0.34299999 -1.8150001 12
8.2690001 0.354 -1.802 11
8.9820004 0.36899999 -1.798 13
9.7770004 0.38600001 -1.786 13
6.8520002 0.30899999 -1.822 11
7.3429999 0.31799999 -1.817 13
7.9180002 0.32800001 -1.816 11
8.5139999 0.33899999 -1.799 11
9.2650003 0.35299999 -1.794 13
10.133 0.37 -1.785 13
7.0310001 0.29499999 -1.821 11
7.5359998 0.303 -1.814 11
8.1379995 0.31299999 -1.812 12
8.7950001 0.324 -1.8 12
9.5799999 0.33700001 -1.791 13
10.511 0.354 -1.7819999 12
7.2340002 0.28099999 -1.824 13
7.776 0.289 -1.818 11
8.3540001 0.29699999 -1.803 11
9.0679998 0.308 -1.795 12
9.9099998 0.32100001 -1.7869999 13
10.925 0.338 -1.78 13
7.4229999 0.26699999 -1.8200001 13
7.994 0.27399999 -1.814 11
8.6260004 0.28200001 -1.802 12
9.3859997 0.29300001 -1.794 13
10.289 0.30599999 -1.786 13
11.367 0.32100001 -1.776 13
7.664 0.25400001 -1.825 11
8.217 0.259 -1.807 11
8.901 0.26699999 -1.798 12
9.7010002 0.27700001 -1.788 13
10.679 0.28999999 -1.7819999 12
11.861 0.30500001 -1.774 12
7.8730001 0.23899999 -1.8200001 11
8.46 0.244 -1.803 12
9.1999998 0.252 -1.796 13
10.073 0.26199999 -1.789 13
11.117 0.27399999 -1.779 13
12.41 0.289 -1.772 14
8.0900002 0.22499999 -1.813 11
8.7299995 0.23 -1.799 12
9.5220003 0.23800001 -1.793 13
10.456 0.24699999 -1.785 12
11.599 0.259 -1.779 13
12.977 0.273 -1.766 12
8.3369999 0.211 -1.809 11
9.0240002 0.21600001 -1.7970001 12
9.8719997 0.223 -1.79 13
10.885 0.23199999 -1.784 13
12.12 0.243 -1.776 13
13.622 0.25600001 -1.762 12
8.5939999 0.197 -1.8049999 12
9.3280001 0.20100001 -1.793 13
10.246 0.208 -1.788 13
11.342 0.21600001 -1.781 13
12.67 0.227 -1.77 14
14.331 0.23999999 -1.757 12
8.8909998 0.183 -1.804 12
9.6680002 0.18700001 -1.79 13
10.66 0.19400001 -1.786 12
11.845 0.20100001 -1.778 14
13.312 0.211 -1.768 13
15.126 0.223 -1.75 12
9.1820002 0.169 -1.798 12
10.028 0.17299999 -1.7869999 12
11.095 0.17900001 -1.7819999 13
12.376 0.186 -1.773 14
13.986 0.19499999 -1.762 12
16.054001 0.207 -1.749 11
9.5120001 0.156 -1.796 12
10.428 0.15899999 -1.785 12
11.589 0.164 -1.781 13
12.984 0.17 -1.77 13
14.739 0.17900001 -1.756 11
16.988001 0.189 -1.734 12
9.8669996 0.14300001 -1.793 13
10.857 0.146 -1.7819999 12
12.117 0.15000001 -1.778 13
13.632 0.155 -1.7640001 12
15.647 0.163 -1.756 11
17.99 0.17 -1.7130001 13
10.248 0.13 -1.79 13
11.328 0.132 -1.78 12
12.685 0.13600001 -1.773 13
14.35 0.14 -1.758 12
16.535 0.146 -1.743 10
19.134001 0.152 -1.691 13
10.667 0.117 -1.788 13
11.839 0.118 -1.778 13
13.323 0.121 -1.7690001 11
15.204 0.125 -1.757 11
17.518999 0.12899999 -1.725 11
20.549 0.134 -1.675 15
11.137 0.104 -1.788 12
12.387 0.105 -1.772 13
14.022 0.107 -1.763 12
16.129 0.11 -1.752 11
18.603001 0.111 -1.702 12
22.069 0.115 -1.647 17
11.626 0.092 -1.784 12
12.999 0.092 -1.768 12
14.824 0.093000002 -1.761 12
17.075001 0.093999997 -1.735 12
19.966 0.094999999 -1.688 14
22.514 0.090000004 -1.524 35
12.163 0.079000004 -1.78 12
13.689 0.079000004 -1.766 12
15.698 0.079000004 -1.755 11
18.099001 0.078000002 -1.715 12
21.423 0.077 -1.664 16
22.572001 0.066 -1.372 66
12.753 0.067000002 -1.776 13
14.417 0.066 -1.7589999 12
16.663 0.064999998 -1.747 10
19.353001 0.061999999 -1.698 13
22.406 0.057999998 -1.585 16
22.431 0.044 -1.207 72
13.4 0.055 -1.77 12
15.283 0.052999999 -1.756 11
17.634001 0.050999999 -1.724 11
20.784 0.046999998 -1.678 15
22.552 0.037999999 -1.438 56
22.454 0.025 -1.053 64
14.117 0.044 -1.766 12
16.222 0.041000001 -1.749 9
18.771 0.037 -1.7029999 13
22.183001 0.030999999 -1.635 17
22.422001 0.02 -1.273 69
23.257 0.0080000004 -0.92799997 65
14.952 0.033 -1.763 11
17.174999 0.028999999 -1.7309999 10
20.163 0.024 -1.688 14
22.524 0.015 -1.502 55
22.416 0.0040000002 -1.1160001 70
26.938 -0.0060000001 -0.889 39
15.859 0.023 -1.758 9
18.252001 0.017999999 -1.712 12
21.658001 0.011 -1.6619999 16
22.443001 0.001 -1.342 65
22.594999 -0.0070000002 -0.97000003 69
29.783001 -0.022 -0.77600002 46
16.813999 0.013 -1.7460001 10
19.539 0.0070000002 -1.696 14
22.421 0 -1.5650001 25
22.406 -0.0089999996 -1.184 72
24 -0.018999999 -0.861 8
31.455999 -0.035999998 -0.60100001 8
17.834999 0.0040000002 -1.725 11
20.929001 -0.0020000001 -1.668 15
22.603001 -0.0099999998 -1.418 60
22.427 -0.017999999 -1.028 69
26.98 -0.029999999 -0.78100002 1
30.962999 -0.044 -0.375 8
18.959 -0.0040000002 -1.701 13
22.236 -0.011 -1.618 13
22.433001 -0.017999999 -1.251 71
23.372 -0.025 -0.90700001 37
30.861 -0.041999999 -0.67900002 39
59.504002 -0.096000001 -0.308 7
20.407 -0.011 -1.686 15
22.521 -0.017000001 -1.48 54
22.405001 -0.023 -1.092 67
26.931 -0.034000002 -0.85799998 25
31.02 -0.045000002 -0.46700001 9
66.539001 -0.111 0.117 10
21.957001 -0.016000001 -1.659 17
22.483999 -0.021 -1.318 69
22.924999 -0.026000001 -0.95700002 79
29.868 -0.039000001 -0.74400002 34
57.834 -0.085000001 -0.46599999 10
85.32 -0.13699999 0.74199998 16
22.445999 -0.018999999 -1.54 33
22.402 -0.022 -1.158 69
23.902 -0.027000001 -0.83200002 2
31.488001 -0.039000001 -0.565 4
62.722 -0.083999999 -0.07 7
65.230003 -0.093999997 1.02 3
22.528999 -0.017999999 -1.388 66
22.447001 -0.02 -1.0039999 72
29.455999 -0.028999999 -0.82099998 81
30.858999 -0.033 -0.34 3
69.844002 -0.078000002 0.40599999 9
65.442001 -0.075000003 1.4809999 46
22.407 -0.015 -1.223 72
23.586 -0.017000001 -0.889 24
31.143 -0.023 -0.64899999 35
61.787998 -0.048 -0.249 22
109.016 -0.082999997 1.4 22
85.740997 -0.064000003 2.5439999 5
22.392 -0.0099999998 -1.064 66
26.974001 -0.011 -0.82599998 14
31.07 -0.012 -0.43000001 11
69.569 -0.025 0.208 20
65.337997 -0.02 1.295 59
95.718002 -0.022 3.5039999 39
23.16 -0.0020000001 -0.93800002 60
30.736 0 -0.727 41
60.144001 0.003 -0.41 25
85.469002 0.013 0.85100001 7
65.441002 0.017000001 1.7539999 26
96.262001 0.037999999 4.2010002 41
26.924 0.0099999998 -0.90200001 33
31.15 0.015 -0.51800001 13
62.973999 0.039999999 0.012 2
65.294998 0.052000001 1.108 17
95.476997 0.092 3.2279999 37
96.258003 0.11 4.8730001 15
29.663 0.028000001 -0.78600001 36
57.335999 0.064999998 -0.55900002 22
0 0 0 0
65.168999 0.101 1.557 51
86.224998 0.152 3.5079999 5
109.701 0.221 6.3179998 53
31.525 0.052000001 -0.616 35
61.786999 0.118 -0.17 18
65.544998 0.141 0.91799998 5
95.420998 0.23 2.9419999 50
96.194 0.259 4.5830002 18
110.246 0.329 7.1129999 43
30.844 0.077 -0.38800001 0
32.793999 0.090999998 0.13500001 59
65.182999 0.2 1.362 69
95.599998 0.32499999 3.6110001 42
109.595 0.40900001 5.987 68
109.95 0.449 7.8639998 25
32.803001 0.112 -0.18700001 16
32.861 0.124 0.36300001 15
65.417 0.27000001 1.823 9
96.146004 0.43200001 4.2930002 41
110.367 0.53899997 6.79 40
0 0 0 0
32.849998 0.147 0.041000001 53
65.365997 0.31799999 1.175 35
95.383003 0.50400001 3.3169999 54
96.667999 0.551 4.9850001 7
110.267 0.67799997 7.5469999 34
0 0 0 0
32.957001 0.185 0.26499999 15
65.413002 0.39700001 1.6210001 44
95.990997 0.62699997 3.987 52
109.774 0.76999998 6.408 43
0 0 0 0
0 0 0 0
65.641998 0.454 0.97799999 4
95.454002 0.70700002 3.0209999 50
112.011 0.88800001 5.427 12
110.786 0.93599999 7.23 23
0 0 0 0
0 0 0 0
65.527 0.54299998 1.4220001 60
95.542999 0.84500003 3.674 47
109.672 1.033 6.0609999 55
111.044 1.112 8.0089998 12
0 0 0 0
0 0 0 0
65.542 0.64099997 1.8710001 7
96.390999 1.002 4.3660002 39
110.361 1.217 6.8540001 24
0 0 0 0
0 0 0 0
0 0 0 0
93.815002 1.071 3.316 9
109.83 1.326 5.7220001 63
110.136 1.405 7.5949998 42
0 0 0 0
0 0 0 0
0 0 0 0
96.436996 1.267 4.0640001 45
110.123 1.526 6.4850001 47
0 0 0 0
0 0 0 0
0 0 0 0
53.761002 0.90899998 6.8049998 22
109.436 1.6390001 5.3509998 54
109.894 1.73 7.2150002 36
0 0 0 0
0 0 0 0
53.606998 0.97399998 6.2379999 2
53.535 1.0190001 7.1459999 55
109.508 1.855 6.0970001 39
110.04 1.955 7.9710002 23
0 0 0 0
0 0 0 0
54.263 1.105 6.6859999 20
53.465 1.138 7.5040002 49
109.819 2.0869999 6.8460002 39
109.277 2.1719999 8.6450005 28
0 0 0 0
53.526001 1.1619999 6.0469999 2
54.140999 1.227 7.04 56
52.227001 1.234 7.6859999 55
109.31 2.316 7.5489998 34
110.573 2.4460001 9.4910002 20
0 0 0 0
53.123001 1.276 6.3540001 9
52.900002 1.324 7.2319999 28
52.241001 1.362 8.04 45
109.508 2.5699999 8.2860003 30
0 0 0 0
0 0 0 0
54.592999 1.446 6.8979998 33
52.519001 1.447 7.5349998 43
54.351002 1.557 8.7329998 44
110.897 2.868 9.125 25
0 0 0 0
53.974998 1.51 6.2610002 3
53.063 1.5420001 7.0619998 54
51.827999 1.564 7.7839999 76
54.359001 1.704 9.1040001 53
110.926 3.1489999 9.8629999 31
0 0 0 0
55.330002 1.692 6.7849998 33
52.236 1.659 7.3010001 43
51.424 1.693 8.0699997 2
0 0 0 0
0 0 0 0
53.868999 1.7309999 6.0489998 5
52.814999 1.76 6.8270001 25
51.834 1.79 7.586 78
53.952999 1.9299999 8.823 67
0 0 0 0
0 0 0 0
55.452999 1.937 6.592 28
52.724998 1.906 7.1609998 59
51.73 1.936 7.9120002 40
53.875999 2.0869999 9.1709995 63
0 0 0 0
54.376999 1.988 5.8979998 5
53.622002 2.029 6.7259998 24
52.396999 2.05 7.461 99
53.706001 2.1719999 8.5690002 62
54.695 2.286 9.6719999 20
0 0 0 0
54.624001 2.1589999 6.2800002 22
52.754002 2.154 6.9559999 68
51.969002 2.191 7.7360001 59
