# .PCD v0.7 - Point Cloud Data file format
VERSION 0.7
FIELDS x y z intensity
SIZE 4 4 4 4
TYPE F F F F
COUNT 1 1 1 1
WIDTH 1852
HEIGHT 1
VIEWPOINT 0 0 0 1 0 0 0
POINTS 1852
DATA ascii
0 0 0 0
48.172001 -10.268 6.7859998 41
47.971001 -10.207 7.4879999 47
0 0 0 0
0 0 0 0
0 0 0 0
0 0 0 0
49.124001 -10.135 6.7779999 1
48.471001 -9.9849997 7.4229999 64
0 0 0 0
0 0 0 0
0 0 0 0
0 0 0 0
0 0 0 0
0 0 0 0
0 0 0 0
0 0 0 0
0 0 0 0
0 0 0 0
47.675999 -9.1899996 6.283 59
0 0 0 0
0 0 0 0
0 0 0 0
0 0 0 0
0 0 0 0
0 0 0 0
46.485001 -8.632 6.6760001 23
0 0 0 0
0 0 0 0
0 0 0 0
0 0 0 0
0 0 0 0
0 0 0 0
0 0 0 0
0 0 0 0
0 0 0 0
0 0 0 0
83.559998 -14.457 10.189 25
0 0 0 0
0 0 0 0
0 0 0 0
0 0 0 0
0 0 0 0
82.622002 -13.763 9.79 47
0 0 0 0
0 0 0 0
0 0 0 0
0 0 0 0
0 0 0 0
82.524002 -13.229 9.4910002 48
84.061996 -13.431 10.914 25
0 0 0 0
0 0 0 0
0 0 0 0
0 0 0 0
82.838997 -12.748 9.2220001 44
82.876999 -12.718 10.455 33
0 0 0 0
50.625 -7.7319999 7.9089999 15
0 0 0 0
0 0 0 0
83.394997 -12.313 8.9729996 46
83 -12.215 10.16 19
0 0 0 0
50.664001 -7.4180002 7.7220001 37
50.722 -7.4099998 8.4980001 4
47.077999 -6.8670001 8.6079998 6
81.641998 -11.551 8.4720001 38
84.473 -11.91 10.015 44
85.530998 -12.022 11.415 10
50.678001 -7.1059999 7.5250001 25
47.290001 -6.6149998 7.7379999 4
47.030998 -6.5650001 8.4119997 35
80.338997 -10.878 8.0270004 32
80.734001 -10.89 9.2539997 44
85.509003 -11.496 11.073 16
51.067001 -6.8449998 7.3769999 31
50.442001 -6.7459998 8.0489998 45
47.101002 -6.2849998 8.2320004 48
80.755997 -10.448 7.7459998 28
80.439003 -10.367 8.8999996 53
85.382004 -10.965 10.714 45
46.208 -5.9169998 6.4899998 3
47.644001 -6.0819998 7.4070001 4
47.32 -6.026 8.0740004 50
70.023003 -8.6400003 6.4299998 28
70.469002 -8.6630001 7.5079999 9
82.191002 -10.066 9.974 40
49.785999 -6.0780001 6.7849998 28
47.431999 -5.7719998 7.177 62
47.186001 -5.7280002 7.8540001 35
69.475998 -8.1700001 6.0949998 29
69.071999 -8.0869999 7.0739999 53
70.253998 -8.1899996 8.2299995 38
49.723 -5.7750001 6.5650001 51
47.414001 -5.4899998 6.9710002 72
47.098 -5.4359999 7.6350002 9
69.621002 -7.7810001 5.8119998 6
69.150002 -7.6950002 6.7870002 32
49.368 -5.4699998 5.5739999 1
49.463001 -5.46 6.3200002 66
46.632999 -5.1290002 6.6560001 43
47.695 -5.2290001 7.526 48
71.227997 -7.5580001 5.6430001 11
49.485001 -5.2270002 4.645 36
49.306 -5.184 5.355 73
49.201 -5.152 6.0739999 41
46.727001 -4.8730001 6.4660001 52
0 0 0 0
83.892998 -8.434 6.2789998 28
70.146004 -7.0139999 6.2750001 11
49.646999 -4.9390001 5.171 29
49.292999 -4.8829999 5.8649998 46
47.115002 -4.6469998 6.3080001 5
47.195999 -4.6360002 7.0250001 57
94.968002 -9.0179996 6.684 12
80.959 -7.6459999 6.8779998 37
69.462997 -6.5250001 6.9219999 16
49.641998 -4.6389999 5.6799998 9
50.110001 -4.6599998 6.4780002 6
47.235001 -4.3730001 6.8130002 33
94.93 -8.4960003 6.2490001 9
80.857002 -7.1929998 6.5009999 12
72.362 -6.4000001 6.8790002 5
68.203003 -6 7.4889998 28
68.223999 -5.9699998 8.5030003 40
47.264 -4.1170001 6.5970001 44
84.606003 -7.1170001 5.177 22
99.241997 -8.2939997 7.5180001 10
72.616997 -6.0310001 6.5640001 13
68.211998 -5.631 7.171 23
68.206001 -5.6009998 8.1820002 27
68.870003 -5.6230001 9.2849998 32
97.43 -7.6760001 5.4990001 25
94.162003 -7.3660002 6.6849999 18
70.726997 -5.4949999 6.0560002 17
67.880997 -5.2399998 6.8109999 30
67.985001 -5.217 7.8280001 29
67.841003 -5.1739998 8.8170004 37
75.296997 -5.5370002 3.8859999 5
0 0 0 0
74.648003 -5.4099998 6.0320001 25
68.415001 -4.9229999 6.533 9
67.876999 -4.8509998 7.4840002 21
67.754997 -4.8130002 8.4779997 43
75.234001 -5.1490002 3.52 33
71.069 -4.823 4.3579998 5
0 0 0 0
68.013 -4.5479999 6.1659999 24
67.453003 -4.473 7.105 25
67.016998 -4.414 8.0539999 38
75.294998 -4.7729998 3.1500001 35
71.195 -4.473 4.0120001 25
72.557999 -4.5190001 5.1479998 7
74.893997 -4.6269999 6.414 7
67.268997 -4.1199999 6.7490001 16
67.031998 -4.0700002 7.7150002 35
75.269997 -4.3969998 2.7679999 40
71.191002 -4.1199999 3.654 6
71.884003 -4.1209998 4.7379999 8
83.684998 -4.7550001 6.7449999 14
74.149002 -4.1739998 7.0669999 22
67.163002 -3.7490001 7.395 32
55.825001 -2.993 1.772 2
97.888 -5.1919999 4.5289998 9
71.696999 -3.7650001 4.3639998 6
70.134003 -3.6440001 5.296 8
71.842003 -3.697 6.4829998 19
67.621002 -3.4449999 7.0999999 17
55.617001 -2.7190001 1.4809999 4
71.272003 -3.4419999 2.9300001 16
71.141998 -3.395 3.9619999 9
70.557999 -3.3310001 4.9640002 25
71.497002 -3.336 6.0799999 5
68.163002 -3.145 6.8010001 13
55.289001 -2.4419999 1.181 19
71.109001 -3.0999999 2.5510001 46
71.278999 -3.069 3.598 22
96.730003 -4.1110001 6.2979999 25
111.584 -4.6820002 8.901 25
69.941002 -2.8970001 6.6090002 9
55.737 -2.2060001 0.89300001 24
71.184998 -2.776 2.175 8
107.461 -4.1300001 4.849 32
106.331 -4.0300002 6.3559999 22
111.489 -4.1630001 8.3000002 27
112.115 -4.1220002 9.9910002 21
110.629 -3.8789999 1.173 12
109.144 -3.766 2.7460001 27
107.412 -3.6440001 4.2680001 20
71.839996 -2.3959999 3.904 5
111.313 -3.6500001 7.6820002 26
111.412 -3.5940001 9.3299999 26
58.362 -1.79 0.30199999 12
115.093 -3.4660001 2.2720001 23
107.743 -3.1819999 3.697 24
107.415 -3.1129999 5.2600002 15
72.030998 -2.0450001 4.579 13
72.136002 -2.007 5.6459999 3
58.046001 -1.5319999 -0.018999999 52
112.411 -2.9000001 1.597 9
106.797 -2.6930001 3.075 15
106.4 -2.6199999 4.618 8
110.511 -2.661 6.4190001 23
109.869 -2.582 7.9949999 20
57.655998 -1.276 -0.34400001 57
0 0 0 0
112.647 -2.3610001 2.609 21
105.356 -2.1489999 3.984 45
107.052 -2.1210001 5.6160002 25
108.193 -2.0829999 7.2670002 25
54.702 -0.98699999 -0.63499999 21
58.223 -1.015 0.171 29
81.851997 -1.377 1.433 6
108.186 -1.7589999 3.48 27
105.62 -1.655 4.9439998 33
106.954 -1.612 6.5749998 21
50.737 -0.70899999 -0.88200003 9
57.491001 -0.77100003 -0.15899999 65
109.9 -1.411 1.303 28
83.278 -1.0190001 2.2060001 18
106.16 -1.239 4.3709998 45
106.01 -1.173 5.9190001 28
49.021999 -0.49599999 -1.132 3
56.470001 -0.537 -0.47999999 33
57.851002 -0.514 0.35100001 18
81.974998 -0.68000001 1.697 13
107.292 -0.82800001 3.7980001 39
106.285 -0.755 5.3210001 29
26.872999 -0.168 -0.77999997 26
51.080002 -0.28999999 -0.73400003 6
57.356998 -0.29100001 0.015 40
109.406 -0.48899999 1.631 8
0 0 0 0
108.83 -0.359 4.822 8
24.834999 -0.061999999 -0.86799997 67
49.112999 -0.094999999 -0.99699998 5
51.966999 -0.068999998 -0.29300001 2
59.812 -0.044 0.54100001 3
83.497002 -0.0099999998 1.98 7
51.952 0.024 1.9960001 40
22.537001 0.024 -0.92299998 60
23.584 0.039000001 -0.61900002 15
23.584999 0.054000001 -0.273 134
23.660999 0.068000004 0.074000001 150
51.862 0.183 0.921 37
52.043999 0.21600001 1.688 34
20.797001 0.096000001 -0.97799999 54
25.429001 0.133 -0.82200003 61
22.712 0.133 -0.40099999 14
22.562 0.146 -0.066 66
51.855 0.36700001 0.60900003 55
64.648003 0.5 1.707 46
20.674 0.168 -1.1 63
22.643 0.197 -0.87099999 28
21.962 0.204 -0.52100003 32
22.000999 0.21799999 -0.198 71
22.009001 0.23199999 0.125 45
64.783997 0.72500002 1.3200001 34
20.649 0.236 -1.226 58
21.162001 0.25400001 -0.94300002 61
26.518 0.336 -0.79299998 40
23.070999 0.30700001 -0.34999999 101
28.077 0.391 -0.012 24
28.191999 0.41100001 0.40099999 0
20.705999 0.30399999 -1.36 61
20.726 0.317 -1.054 60
23 0.36700001 -0.83099997 1
23.365999 0.38699999 -0.5 150
28.462 0.48899999 -0.18799999 35
28.554001 0.509 0.23 20
20.788 0.37099999 -1.497 47
20.705999 0.382 -1.1849999 63
21.605 0.412 -0.91500002 56
0 0 0 0
27.827999 0.56599998 -0.35699999 3
58.049999 1.221 0.106 38
20.582001 0.43099999 -1.615 11
20.768 0.447 -1.3200001 63
20.791 0.46000001 -1.013 64
23.656 0.53899997 -0.80299997 136
27.785999 0.65100002 -0.53200001 4
29.253 0.70499998 -0.13 32
19.542 0.46700001 -1.66 14
20.914 0.51200002 -1.465 47
20.785 0.52200001 -1.147 65
0 0 0 0
22.040001 0.583 -0.56400001 9
29.406 0.796 -0.317 22
18.323999 0.49000001 -1.677 12
20.677 0.56599998 -1.584 13
20.846001 0.58399999 -1.286 60
20.886 0.59799999 -0.97799999 60
22.056999 0.64600003 -0.70499998 28
29.166 0.87300003 -0.5 45
17.228001 0.50800002 -1.691 11
19.788 0.59600002 -1.645 14
20.938 0.64399999 -1.428 60
20.787001 0.65200001 -1.107 71
22.08 0.70700002 -0.84799999 53
28.797001 0.94199997 -0.68000001 32
16.311001 0.52499998 -1.71 11
18.593 0.61000001 -1.669 12
20.804001 0.69499999 -1.556 20
20.806 0.708 -1.245 68
21.073 0.73100001 -0.94700003 65
25.417999 0.89899999 -0.764 18
15.479 0.537 -1.725 11
17.382999 0.61299998 -1.675 11
20.174 0.72500002 -1.64 15
20.924999 0.76499999 -1.388 59
20.827999 0.77600002 -1.072 71
22.385 0.84899998 -0.81800002 17
14.737 0.54699999 -1.742 10
16.466 0.62099999 -1.697 12
18.878 0.72399998 -1.661 13
20.888 0.815 -1.524 26
20.872 0.82800001 -1.21 59
21.402 0.86299998 -0.921 61
13.979 0.551 -1.747 10
15.621 0.625 -1.714 12
17.747 0.722 -1.679 12
20.424999 0.84399998 -1.626 15
21.049 0.884 -1.359 54
20.867001 0.89099997 -1.036 59
13.295 0.55400002 -1.752 11
14.851 0.62800002 -1.7309999 11
16.718 0.71700001 -1.6950001 14
19.148001 0.83399999 -1.651 13
20.964001 0.92699999 -1.492 40
20.886999 0.93699998 -1.173 64
12.664 0.55400002 -1.755 11
14.121 0.62599999 -1.7410001 10
15.843 0.713 -1.712 12
18.009001 0.82300001 -1.674 12
20.683001 0.95899999 -1.6109999 15
20.965 0.986 -1.318 63
12.097 0.55400002 -1.761 11
13.392 0.62099999 -1.744 11
15.057 0.708 -1.73 10
16.950001 0.80800003 -1.6900001 12
19.445999 0.94 -1.6440001 13
21.066999 1.033 -1.464 41
11.563 0.551 -1.765 12
12.733 0.61500001 -1.747 11
14.285 0.699 -1.74 11
16.018 0.79500002 -1.707 11
18.223 0.91600001 -1.666 12
20.794001 1.0599999 -1.587 15
11.079 0.54799998 -1.7690001 13
12.173 0.61000001 -1.7539999 11
13.556 0.68800002 -1.745 11
15.2 0.78200001 -1.724 11
17.145 0.89300001 -1.684 15
19.681999 1.039 -1.635 14
10.626 0.54400003 -1.772 12
11.625 0.602 -1.757 12
12.882 0.676 -1.748 10
14.449 0.76700002 -1.738 10
16.219 0.87199998 -1.7029999 12
18.485001 1.007 -1.66 12
10.218 0.53899997 -1.776 11
11.154 0.59500003 -1.7640001 13
12.289 0.66399997 -1.7539999 11
13.69 0.74900001 -1.742 11
15.379 0.852 -1.721 11
17.363001 0.97399998 -1.679 11
9.8360004 0.53399998 -1.781 11
10.69 0.58700001 -1.767 13
11.761 0.653 -1.761 12
12.994 0.73000002 -1.744 10
14.596 0.83099997 -1.735 11
16.381001 0.94400001 -1.697 13
9.4619999 0.52700001 -1.7819999 11
10.271 0.57800001 -1.772 12
11.241 0.63999999 -1.763 13
12.387 0.713 -1.75 11
13.835 0.80599999 -1.7410001 11
15.531 0.91600001 -1.716 12
9.125 0.51999998 -1.786 12
9.8760004 0.56900001 -1.775 11
10.779 0.62800002 -1.768 12
11.847 0.69800001 -1.757 12
13.12 0.78200001 -1.743 11
14.753 0.889 -1.732 11
8.8280001 0.51300001 -1.7920001 11
9.5200005 0.55900002 -1.78 11
10.354 0.61500001 -1.771 12
11.33 0.68000001 -1.761 12
12.506 0.75999999 -1.749 11
13.966 0.85799998 -1.737 11
8.5150003 0.50400001 -1.791 11
9.1730003 0.54799998 -1.781 11
9.96 0.602 -1.775 11
10.875 0.66500002 -1.767 13
11.952 0.73900002 -1.755 11
13.255 0.829 -1.7410001 11
8.2460003 0.49599999 -1.795 11
8.8549995 0.53799999 -1.784 11
9.5860004 0.58899999 -1.778 11
10.432 0.648 -1.7690001 12
11.424 0.71700001 -1.758 12
12.618 0.801 -1.745 11
7.9910002 0.48699999 -1.798 11
8.559 0.52700001 -1.7869999 11
9.2460003 0.57599998 -1.781 12
10.047 0.63200003 -1.775 11
10.968 0.69800001 -1.765 13
12.06 0.77600002 -1.752 11
7.763 0.479 -1.8049999 11
8.2799997 0.51599997 -1.79 11
8.9169998 0.56199998 -1.783 12
9.6750002 0.616 -1.78 11
10.538 0.67900002 -1.771 12
11.539 0.75099999 -1.758 12
7.513 0.46799999 -1.803 11
8.0290003 0.50599998 -1.795 11
8.6239996 0.54900002 -1.7869999 11
9.3140001 0.59899998 -1.78 11
10.105 0.65700001 -1.771 12
11.049 0.727 -1.762 12
7.2820001 0.458 -1.804 11
7.7870002 0.495 -1.799 11
8.3430004 0.53600001 -1.791 11
8.9849997 0.583 -1.783 11
9.7379999 0.639 -1.776 11
10.609 0.70300001 -1.767 13
7.0679998 0.447 -1.804 11
7.559 0.484 -1.803 10
8.0819998 0.523 -1.795 11
8.6929998 0.56800002 -1.789 11
9.3660002 0.61900002 -1.776 12
10.186 0.68000001 -1.77 12
6.8740001 0.43799999 -1.807 10
7.3150001 0.47099999 -1.801 11
7.835 0.509 -1.799 11
8.3909998 0.551 -1.788 11
9.0539999 0.60100001 -1.783 12
9.809 0.65799999 -1.774 12
6.6890001 0.42699999 -1.8099999 11
7.0999999 0.458 -1.801 11
7.5929999 0.495 -1.799 12
8.1389999 0.53600001 -1.795 11
8.7519999 0.583 -1.7869999 12
9.4530001 0.63700002 -1.779 12
6.5149999 0.417 -1.814 11
6.8990002 0.44600001 -1.803 11
7.3709998 0.48199999 -1.802 13
7.895 0.52100003 -1.799 11
8.46 0.565 -1.79 11
9.118 0.61500001 -1.7819999 12
6.3470001 0.40599999 -1.817 11
6.7140002 0.43399999 -1.806 10
7.1620002 0.46799999 -1.8049999 11
7.6589999 0.50599998 -1.803 11
8.198 0.54699999 -1.794 11
8.8100004 0.59399998 -1.785 12
6.191 0.39500001 -1.8200001 11
6.5370002 0.42199999 -1.808 11
6.954 0.454 -1.8049999 11
7.4190001 0.48899999 -1.801 13
7.9510002 0.52999997 -1.798 12
8.5200005 0.574 -1.7869999 11
6.033 0.384 -1.8200001 11
6.3769999 0.41100001 -1.813 11
6.7659998 0.44 -1.807 11
7.2160001 0.47400001 -1.8049999 11
7.6950002 0.51099998 -1.7970001 11
8.2659998 0.55500001 -1.794 12
5.8870001 0.373 -1.823 11
6.2160001 0.398 -1.8150001 11
6.592 0.42699999 -1.811 11
7.006 0.45899999 -1.8049999 12
7.474 0.495 -1.8 13
7.993 0.53500003 -1.793 13
5.7410002 0.361 -1.823 11
6.0640001 0.38600001 -1.817 11
6.4310002 0.414 -1.8150001 11
6.8169999 0.44299999 -1.807 11
7.2729998 0.47799999 -1.804 12
7.7449999 0.51499999 -1.793 11
5.605 0.34999999 -1.823 11
5.9190001 0.37400001 -1.819 12
6.2690001 0.40000001 -1.817 12
6.6409998 0.42899999 -1.8099999 11
7.0640001 0.461 -1.8049999 11
7.5219998 0.49700001 -1.796 13
5.4829998 0.33899999 -1.827 10
5.777 0.361 -1.821 12
6.119 0.38699999 -1.8200001 11
6.4780002 0.414 -1.814 11
6.8639998 0.44400001 -1.8049999 11
7.3130002 0.47799999 -1.8 12
5.3530002 0.32699999 -1.826 11
5.638 0.34799999 -1.821 12
5.9749999 0.373 -1.823 12
6.3119998 0.39899999 -1.8150001 12
6.6859999 0.428 -1.807 11
7.112 0.46000001 -1.802 11
5.2350001 0.315 -1.827 10
5.5120001 0.336 -1.823 11
5.8280001 0.36000001 -1.823 13
6.1570001 0.384 -1.817 11
6.5279999 0.412 -1.812 11
6.9039998 0.44100001 -1.799 11
5.1149998 0.303 -1.826 10
5.3930001 0.324 -1.826 11
5.6999998 0.34599999 -1.826 12
6.0139999 0.37 -1.8200001 12
6.3590002 0.396 -1.812 12
6.7290001 0.42399999 -1.803 11
4.9970002 0.29100001 -1.824 9
5.2690001 0.31099999 -1.825 10
5.5619998 0.33199999 -1.825 11
5.8829999 0.35600001 -1.824 12
6.2080002 0.38 -1.816 12
6.5630002 0.40700001 -1.806 11
4.9029999 0.28 -1.829 10
5.1539998 0.29800001 -1.826 11
5.4400001 0.31900001 -1.827 11
5.7389998 0.34 -1.823 12
6.0549998 0.36399999 -1.816 12
6.408 0.38999999 -1.8099999 11
4.8010001 0.26800001 -1.83 10
5.0430002 0.285 -1.827 10
5.3270001 0.30500001 -1.83 10
5.6129999 0.32600001 -1.826 12
5.9200001 0.34799999 -1.8200001 12
6.243 0.37200001 -1.809 12
4.711 0.257 -1.834 10
4.941 0.273 -1.8279999 11
5.2010002 0.29100001 -1.827 11
5.4819999 0.31099999 -1.825 11
5.79 0.333 -1.823 13
6.092 0.35499999 -1.8099999 12
4.6199999 0.245 -1.836 10
4.8369999 0.25999999 -1.8279999 11
5.0939999 0.278 -1.8279999 10
5.3569999 0.296 -1.823 10
5.6479998 0.317 -1.819 12
5.967 0.33899999 -1.8150001 12
4.5310001 0.233 -1.836 10
4.7410002 0.248 -1.829 10
4.9920001 0.26499999 -1.83 11
5.2519999 0.28200001 -1.826 11
5.5110002 0.301 -1.816 11
5.8369999 0.32300001 -1.818 13
4.4499998 0.222 -1.84 10
4.658 0.236 -1.8329999 11
4.8829999 0.25099999 -1.8279999 12
5.1459999 0.26800001 -1.8279999 11
5.408 0.28600001 -1.822 11
5.704 0.30599999 -1.818 13
4.3660002 0.20999999 -1.84 10
4.5700002 0.223 -1.835 11
4.7870002 0.23800001 -1.8279999 12
5.0479999 0.255 -1.832 10
5.3010001 0.27200001 -1.825 11
5.5840001 0.28999999 -1.8200001 11
4.277 0.197 -1.837 10
4.4829998 0.20999999 -1.835 10
4.7020001 0.22499999 -1.832 12
4.9320002 0.23999999 -1.827 11
5.1890001 0.25600001 -1.824 11
5.4689999 0.27500001 -1.822 11
4.197 0.185 -1.837 9
4.402 0.198 -1.837 10
4.6149998 0.211 -1.834 11
4.8400002 0.226 -1.829 12
5.0869999 0.242 -1.826 10
5.3559999 0.259 -1.823 11
4.1220002 0.17299999 -1.8380001 9
4.3169999 0.185 -1.835 10
4.5339999 0.199 -1.837 11
4.7420001 0.212 -1.8279999 11
4.9879999 0.227 -1.827 11
5.25 0.243 -1.825 11
4.0479999 0.162 -1.8380001 9
4.2410002 0.17299999 -1.837 11
4.4520001 0.186 -1.8380001 11
4.652 0.198 -1.8279999 11
4.8870001 0.212 -1.826 11
5.1500001 0.227 -1.827 10
3.974 0.15000001 -1.836 8
4.1630001 0.16 -1.835 10
4.3740001 0.17200001 -1.8380001 11
4.5770001 0.184 -1.832 11
4.7930002 0.197 -1.825 11
5.0440001 0.212 -1.825 11
3.921 0.138 -1.8430001 9
4.0900002 0.148 -1.835 10
4.2940001 0.15899999 -1.837 10
4.494 0.171 -1.832 10
4.7080002 0.183 -1.827 11
4.954 0.197 -1.827 10
3.8629999 0.127 -1.847 8
4.0229998 0.13600001 -1.836 10
4.2270002 0.147 -1.841 11
4.4190001 0.15700001 -1.835 11
4.6269999 0.169 -1.829 11
4.8569999 0.18099999 -1.826 10
3.799 0.115 -1.847 9
3.964 0.124 -1.841 10
4.1479998 0.133 -1.8380001 10
4.3429999 0.14399999 -1.834 10
4.5539999 0.155 -1.8329999 11
4.7690001 0.16599999 -1.826 10
3.73 0.103 -1.844 8
3.8959999 0.111 -1.84 9
4.0760002 0.12 -1.837 10
4.277 0.13 -1.8380001 11
4.474 0.14 -1.832 10
4.6950002 0.15099999 -1.83 10
3.675 0.090999998 -1.846 8
3.8340001 0.098999999 -1.84 9
4.0139999 0.108 -1.839 9
4.197 0.117 -1.835 10
4.4000001 0.126 -1.834 10
4.618 0.13699999 -1.8329999 11
3.6259999 0.079999998 -1.85 8
3.786 0.086999997 -1.846 9
3.9549999 0.094999999 -1.842 9
4.1370001 0.103 -1.839 10
4.3330002 0.112 -1.836 9
4.5349998 0.122 -1.831 10
3.5699999 0.068000004 -1.85 8
3.73 0.075000003 -1.848 8
3.8889999 0.082000002 -1.84 9
4.0689998 0.090000004 -1.8380001 10
4.2600002 0.097999997 -1.835 9
4.4679999 0.107 -1.834 10
3.516 0.056000002 -1.85 8
3.6689999 0.063000001 -1.845 9
3.839 0.07 -1.845 9
4.0029998 0.077 -1.837 10
4.1929998 0.085000001 -1.835 10
4.3909998 0.093000002 -1.832 10
3.461 0.045000002 -1.848 8
3.6170001 0.050999999 -1.847 9
3.78 0.057 -1.844 9
3.944 0.064000003 -1.8380001 9
4.1329999 0.071000002 -1.8380001 9
4.3340001 0.079000004 -1.8380001 10
3.4159999 0.033 -1.851 8
3.579 0.039000001 -1.855 9
3.7279999 0.045000002 -1.846 9
3.895 0.050999999 -1.8430001 9
4.0679998 0.057 -1.837 10
4.2680001 0.064000003 -1.8380001 10
3.365 0.022 -1.85 8
3.52 0.027000001 -1.851 9
3.677 0.032000002 -1.848 9
3.835 0.037999999 -1.841 8
4.013 0.044 -1.84 10
4.2010002 0.050000001 -1.837 9
3.319 0.0099999998 -1.851 7
3.474 0.015 -1.853 9
3.6289999 0.02 -1.85 9
3.7839999 0.025 -1.8430001 9
3.944 0.029999999 -1.835 9
4.1350002 0.035999998 -1.836 10
3.2780001 0 -1.853 7
3.4260001 0.003 -1.852 8
3.5780001 0.0070000002 -1.849 9
3.734 0.012 -1.845 9
3.8970001 0.017000001 -1.839 9
4.0799999 0.022 -1.837 9
3.2379999 -0.012 -1.855 7
3.3770001 -0.0080000004 -1.851 8
3.53 -0.0040000002 -1.85 9
3.688 0 -1.847 9
3.839 0.003 -1.837 9
4.0229998 0.0080000004 -1.837 9
3.198 -0.023 -1.857 7
3.3380001 -0.02 -1.854 8
3.484 -0.016000001 -1.85 9
3.648 -0.013 -1.852 8
3.799 -0.0089999996 -1.8430001 8
3.9690001 -0.0049999999 -1.8380001 9
3.152 -0.034000002 -1.854 7
3.2880001 -0.030999999 -1.85 8
3.441 -0.028000001 -1.851 8
3.5940001 -0.025 -1.848 8
3.75 -0.022 -1.8430001 9
3.9219999 -0.018999999 -1.841 9
3.1210001 -0.046 -1.859 7
3.257 -0.043000001 -1.8559999 8
3.4000001 -0.041000001 -1.853 8
3.5539999 -0.037999999 -1.851 9
3.7060001 -0.035 -1.845 9
3.8710001 -0.032000002 -1.841 8
3.0829999 -0.057 -1.86 6
3.217 -0.055 -1.8559999 8
3.359 -0.052999999 -1.853 8
3.5190001 -0.050999999 -1.8559999 8
3.6589999 -0.048 -1.845 8
3.826 -0.046 -1.8430001 8
3.049 -0.068000004 -1.8609999 6
3.178 -0.067000002 -1.855 8
3.3210001 -0.064999998 -1.854 8
3.467 -0.063000001 -1.851 8
3.6170001 -0.061000001 -1.846 8
3.7780001 -0.059999999 -1.842 8
3.0079999 -0.079000004 -1.858 6
3.1459999 -0.078000002 -1.859 7
3.2780001 -0.077 -1.852 8
3.431 -0.075999998 -1.854 8
3.5769999 -0.074000001 -1.847 8
3.7360001 -0.072999999 -1.844 8
0 0 0 0
3.1070001 -0.090000004 -1.857 7
3.2460001 -0.089000002 -1.855 8
3.388 -0.088 -1.852 8
3.539 -0.086999997 -1.849 9
3.694 -0.086999997 -1.844 8
1.5779999 -0.054000001 -0.99699998 2
3.0769999 -0.101 -1.86 7
3.2090001 -0.101 -1.855 7
3.355 -0.1 -1.854 8
3.506 -0.1 -1.852 8
3.661 -0.1 -1.849 8
1.53 -0.059 -0.977 2
3.0420001 -0.113 -1.859 7
3.1719999 -0.113 -1.854 8
3.3169999 -0.113 -1.854 8
3.467 -0.113 -1.852 8
3.6170001 -0.114 -1.847 8
1.49 -0.064000003 -0.963 3
3.0090001 -0.124 -1.859 7
3.1429999 -0.125 -1.8559999 7
3.2839999 -0.125 -1.854 8
3.431 -0.126 -1.852 8
3.5810001 -0.127 -1.848 8
1.46 -0.068999998 -0.95300001 5
0 0 0 0
3.1199999 -0.13699999 -1.862 7
3.247 -0.13699999 -1.852 7
3.391 -0.138 -1.85 8
3.5480001 -0.14 -1.85 8
1.437 -0.074000001 -0.94700003 5
1.615 -0.079999998 -1.018 1
3.0840001 -0.148 -1.858 7
3.2190001 -0.15000001 -1.855 7
3.3599999 -0.15099999 -1.851 8
3.52 -0.154 -1.854 8
0 0 0 0
1.5599999 -0.083999999 -0.99299997 2
3.0539999 -0.16 -1.858 7
3.188 -0.162 -1.855 7
3.3280001 -0.164 -1.852 8
3.4779999 -0.16599999 -1.849 8
0 0 0 0
1.517 -0.089000002 -0.97500002 2
3.0239999 -0.17200001 -1.858 6
3.1630001 -0.17399999 -1.858 7
3.299 -0.176 -1.852 8
3.45 -0.18000001 -1.852 8
0 0 0 0
1.49 -0.093999997 -0.96600002 3
3.0020001 -0.183 -1.8609999 6
3.1329999 -0.186 -1.857 6
3.2750001 -0.189 -1.855 7
3.418 -0.192 -1.851 8
0 0 0 0
1.462 -0.097999997 -0.95599997 4
0 0 0 0
3.1070001 -0.198 -1.857 6
3.2449999 -0.20200001 -1.855 8
3.3889999 -0.206 -1.851 7
0 0 0 0
1.439 -0.104 -0.94999999 4
1.632 -0.114 -1.029 1
3.0810001 -0.20999999 -1.857 6
3.221 -0.214 -1.8559999 7
3.362 -0.21799999 -1.852 7
0 0 0 0
1.419 -0.109 -0.94400001 5
1.561 -0.116 -0.99199998 1
3.0550001 -0.222 -1.857 6
3.1949999 -0.227 -1.8559999 7
3.339 -0.23100001 -1.854 7
0 0 0 0
0 0 0 0
1.538 -0.121 -0.98500001 2
3.0369999 -0.234 -1.86 6
3.1659999 -0.23800001 -1.853 7
3.3199999 -0.245 -1.857 7
0 0 0 0
0 0 0 0
1.5140001 -0.126 -0.977 2
3.0150001 -0.24600001 -1.86 6
3.1489999 -0.25099999 -1.857 7
3.293 -0.257 -1.855 7
0 0 0 0
0 0 0 0
1.489 -0.131 -0.96799999 2
2.993 -0.25799999 -1.859 6
3.1240001 -0.26300001 -1.854 7
3.2679999 -0.27000001 -1.854 7
0 0 0 0
0 0 0 0
1.469 -0.13600001 -0.96100003 2
2.9590001 -0.26800001 -1.85 5
3.112 -0.27599999 -1.86 7
3.2460001 -0.28200001 -1.853 7
0 0 0 0
0 0 0 0
1.449 -0.141 -0.95499998 2
0 0 0 0
3.0929999 -0.28799999 -1.86 6
3.233 -0.29499999 -1.857 7
0 0 0 0
0 0 0 0
1.431 -0.145 -0.94800001 4
1.605 -0.16 -1.016 1
3.0699999 -0.30000001 -1.857 6
3.2079999 -0.30700001 -1.854 7
0 0 0 0
0 0 0 0
0 0 0 0
1.567 -0.163 -0.99699998 1
3.059 -0.31200001 -1.8609999 7
3.198 -0.32100001 -1.858 7
0 0 0 0
0 0 0 0
0 0 0 0
1.553 -0.169 -0.99400002 1
3.0420001 -0.324 -1.86 7
3.177 -0.333 -1.8559999 7
0 0 0 0
0 0 0 0
0 0 0 0
1.533 -0.17299999 -0.986 1
3.0250001 -0.336 -1.859 7
3.165 -0.34599999 -1.858 6
0 0 0 0
0 0 0 0
0 0 0 0
1.521 -0.17900001 -0.98299998 1
3.0139999 -0.34799999 -1.86 6
3.1440001 -0.35699999 -1.853 7
0 0 0 0
0 0 0 0
0 0 0 0
1.505 -0.184 -0.977 2
3.0009999 -0.361 -1.86 7
3.138 -0.37099999 -1.857 6
0 0 0 0
0 0 0 0
0 0 0 0
1.494 -0.189 -0.97299999 2
2.994 -0.373 -1.862 7
3.1300001 -0.384 -1.86 7
0 0 0 0
0 0 0 0
0 0 0 0
1.4859999 -0.19499999 -0.972 2
2.9760001 -0.384 -1.858 6
3.1199999 -0.396 -1.859 7
0 0 0 0
0 0 0 0
0 0 0 0
1.478 -0.20100001 -0.97000003 2
0 0 0 0
3.108 -0.40900001 -1.858 7
0 0 0 0
0 0 0 0
0 0 0 0
1.477 -0.207 -0.972 2
2.9619999 -0.40900001 -1.86 7
3.0999999 -0.421 -1.858 6
0 0 0 0
0 0 0 0
0 0 0 0
1.47 -0.213 -0.97000003 2
2.9319999 -0.41800001 -1.845 7
3.1010001 -0.435 -1.863 7
0 0 0 0
0 0 0 0
0 0 0 0
1.467 -0.219 -0.97000003 2
0 0 0 0
3.0929999 -0.447 -1.8609999 6
0 0 0 0
0 0 0 0
0 0 0 0
1.466 -0.22499999 -0.97000003 2
0 0 0 0
3.0880001 -0.46000001 -1.862 6
0 0 0 0
0 0 0 0
0 0 0 0
1.456 -0.23 -0.96499997 2
0 0 0 0
3.0910001 -0.47400001 -1.865 6
0 0 0 0
0 0 0 0
0 0 0 0
1.462 -0.237 -0.97000003 2
0 0 0 0
3.0869999 -0.486 -1.864 6
0 0 0 0
0 0 0 0
0 0 0 0
1.46 -0.243 -0.96899998 2
0 0 0 0
3.086 -0.49900001 -1.865 6
0 0 0 0
0 0 0 0
0 0 0 0
0 0 0 0
1.891 -0.31799999 -1.197 6
3.085 -0.51099998 -1.864 6
0 0 0 0
0 0 0 0
0 0 0 0
1.462 -0.25600001 -0.97100002 2
0 0 0 0
3.0910001 -0.52499998 -1.8660001 6
0 0 0 0
0 0 0 0
0 0 0 0
1.465 -0.26199999 -0.972 2
0 0 0 0
3.0899999 -0.537 -1.865 6
0 0 0 0
0 0 0 0
0 0 0 0
1.472 -0.26899999 -0.97600001 2
0 0 0 0
3.092 -0.55000001 -1.863 6
0 0 0 0
0 0 0 0
0 0 0 0
1.475 -0.27599999 -0.977 2
2.0510001 -0.37799999 -1.294 11
3.0999999 -0.56300002 -1.865 7
0 0 0 0
0 0 0 0
0 0 0 0
1.4809999 -0.28200001 -0.97899997 2
2.9330001 -0.55199999 -1.848 9
3.102 -0.57599998 -1.863 7
0 0 0 0
0 0 0 0
0 0 0 0
1.489 -0.28999999 -0.98199999 2
0 0 0 0
3.1159999 -0.58999997 -1.867 7
0 0 0 0
0 0 0 0
0 0 0 0
1.5039999 -0.29800001 -0.99000001 2
2.9779999 -0.58200002 -1.868 6
3.1229999 -0.60299999 -1.8660001 6
0 0 0 0
0 0 0 0
0 0 0 0
1.512 -0.30500001 -0.99199998 2
2.99 -0.59600002 -1.869 6
3.128 -0.61500001 -1.863 7
0 0 0 0
0 0 0 0
0 0 0 0
1.524 -0.31299999 -0.99699998 3
2.993 -0.60699999 -1.865 6
3.145 -0.63 -1.867 7
0 0 0 0
0 0 0 0
0 0 0 0
1.529 -0.31999999 -0.99699998 3
3.007 -0.62 -1.867 6
3.158 -0.64300001 -1.868 7
0 0 0 0
0 0 0 0
0 0 0 0
1.534 -0.32600001 -0.99599999 3
3.02 -0.63300002 -1.867 7
3.1730001 -0.65700001 -1.868 6
0 0 0 0
0 0 0 0
0 0 0 0
1.544 -0.333 -0.99800003 2
3.0369999 -0.64700001 -1.869 6
3.1889999 -0.671 -1.869 7
0 0 0 0
0 0 0 0
0 0 0 0
1.572 -0.34400001 -1.011 2
3.0539999 -0.66000003 -1.8710001 7
3.2030001 -0.68400002 -1.868 7
0 0 0 0
0 0 0 0
0 0 0 0
1.755 -0.38999999 -1.124 2
3.066 -0.67199999 -1.868 7
3.223 -0.69800001 -1.869 7
0 0 0 0
0 0 0 0
0 0 0 0
0 0 0 0
3.0910001 -0.68699998 -1.872 6
3.2420001 -0.71200001 -1.87 7
0 0 0 0
0 0 0 0
0 0 0 0
1.622 -0.37 -1.026 0
3.099 -0.69800001 -1.8660001 6
3.2620001 -0.72600001 -1.87 7
0 0 0 0
0 0 0 0
0 0 0 0
2.974 -0.68699998 -1.8710001 6
3.1240001 -0.71200001 -1.869 7
3.2820001 -0.74000001 -1.869 7
0 0 0 0
0 0 0 0
1.49 -0.35299999 -0.97899997 4
2.9960001 -0.69999999 -1.872 6
3.148 -0.727 -1.8710001 7
3.306 -0.75400001 -1.869 7
0 0 0 0
0 0 0 0
1.5190001 -0.36399999 -0.991 2
3.0139999 -0.71200001 -1.87 6
3.165 -0.73900002 -1.868 7
3.332 -0.76899999 -1.8710001 7
0 0 0 0
0 0 0 0
1.5369999 -0.37200001 -0.995 2
3.0420001 -0.727 -1.874 6
3.1960001 -0.75400001 -1.872 8
3.3559999 -0.78299999 -1.869 8
0 0 0 0
0 0 0 0
1.727 -0.42199999 -1.109 2
3.0669999 -0.74000001 -1.874 6
3.223 -0.76800001 -1.873 7
3.385 -0.79799998 -1.87 8
0 0 0 0
0 0 0 0
2.911 -0.71799999 -1.8559999 6
3.096 -0.75400001 -1.877 7
3.2520001 -0.78299999 -1.874 7
3.4170001 -0.81400001 -1.872 8
0 0 0 0
0 0 0 0
2.9760001 -0.741 -1.881 6
3.1229999 -0.76800001 -1.876 7
3.2809999 -0.79699999 -1.874 8
3.4419999 -0.82800001 -1.869 8
0 0 0 0
0 0 0 0
3 -0.75300002 -1.88 6
3.1440001 -0.77899998 -1.872 7
3.3099999 -0.81099999 -1.874 7
3.477 -0.84299999 -1.8710001 8
0 0 0 0
0 0 0 0
3.02 -0.764 -1.875 6
3.174 -0.79299998 -1.873 7
3.339 -0.82499999 -1.873 7
3.5079999 -0.85799998 -1.869 8
0 0 0 0
1.571 -0.405 -1.017 2
3.0480001 -0.77700001 -1.874 7
3.2019999 -0.80599999 -1.8710001 8
3.3699999 -0.83899999 -1.8710001 8
3.549 -0.875 -1.872 8
0 0 0 0
0 0 0 0
3.085 -0.79100001 -1.878 7
3.2420001 -0.82200003 -1.876 7
3.4070001 -0.85399997 -1.873 8
3.5840001 -0.88999999 -1.8710001 8
0 0 0 0
2.9660001 -0.77600002 -1.882 6
3.1159999 -0.80500001 -1.878 7
3.279 -0.83700001 -1.878 7
3.444 -0.86900002 -1.873 8
3.6229999 -0.90600002 -1.8710001 8
0 0 0 0
2.994 -0.78799999 -1.88 6
3.1470001 -0.81699997 -1.877 7
3.312 -0.85000002 -1.876 8
3.4760001 -0.88300002 -1.87 8
3.665 -0.92299998 -1.872 8
1.501 -0.40200001 -0.98199999 2
3.0250001 -0.80000001 -1.88 7
3.184 -0.83099997 -1.8789999 7
3.345 -0.86299998 -1.874 8
3.5179999 -0.89899999 -1.872 8
3.7 -0.93699998 -1.868 8
1.625 -0.43700001 -1.051 3
3.0569999 -0.81199998 -1.878 7
3.217 -0.84399998 -1.877 8
3.3870001 -0.87900001 -1.876 8
3.552 -0.91299999 -1.868 7
3.744 -0.95300001 -1.868 8
0 0 0 0
3.0969999 -0.82599998 -1.881 7
3.253 -0.85699999 -1.877 8
3.428 -0.89399999 -1.877 8
3.6029999 -0.93000001 -1.872 8
3.7880001 -0.96899998 -1.867 9
2.9749999 -0.80699998 -1.881 6
3.1289999 -0.838 -1.878 7
3.2920001 -0.87099999 -1.876 8
3.4619999 -0.90600002 -1.873 8
3.6400001 -0.94400001 -1.868 9
3.836 -0.986 -1.867 9
3.0139999 -0.81999999 -1.883 6
3.1630001 -0.85000002 -1.877 8
3.3369999 -0.88700002 -1.8789999 8
3.506 -0.92199999 -1.873 8
3.684 -0.95899999 -1.867 8
3.885 -1.003 -1.867 8
3.046 -0.83200002 -1.881 6
3.2060001 -0.86400002 -1.8789999 8
3.3789999 -0.90100002 -1.8789999 8
3.5550001 -0.93800002 -1.875 8
3.7379999 -0.977 -1.87 8
3.9360001 -1.02 -1.8660001 8
3.0869999 -0.84500003 -1.881 7
3.2479999 -0.87800002 -1.8789999 9
3.4289999 -0.91600001 -1.882 8
3.605 -0.954 -1.877 8
3.786 -0.99299997 -1.869 8
4 -1.04 -1.87 9
3.125 -0.85699999 -1.88 7
3.29 -0.89099997 -1.8789999 8
3.4690001 -0.92900002 -1.8789999 7
3.6489999 -0.96799999 -1.874 9
3.839 -1.0089999 -1.869 8
4.0599999 -1.059 -1.872 9
3.1689999 -0.87 -1.882 7
3.3369999 -0.90499997 -1.8789999 8
3.5120001 -0.94300002 -1.877 8
3.6949999 -0.98199999 -1.872 9
3.895 -1.026 -1.869 8
4.1170001 -1.076 -1.87 9
3.207 -0.88200003 -1.8789999 7
3.3870001 -0.92000002 -1.882 8
3.5610001 -0.95700002 -1.876 8
3.7539999 -1 -1.875 9
3.9519999 -1.043 -1.869 9
4.1760001 -1.094 -1.869 9
3.256 -0.89600003 -1.881 8
3.4360001 -0.935 -1.883 8
3.618 -0.97399998 -1.88 9
3.8080001 -1.015 -1.874 8
4.0120001 -1.061 -1.869 10
4.2379999 -1.112 -1.868 9
3.3050001 -0.91000003 -1.883 7
3.484 -0.94800001 -1.882 9
3.668 -0.98799998 -1.878 9
3.8610001 -1.031 -1.872 9
4.072 -1.0779999 -1.869 9
4.3119998 -1.133 -1.8710001 9
3.352 -0.92299998 -1.882 7
3.5320001 -0.96200001 -1.88 9
3.7219999 -1.003 -1.877 9
3.9230001 -1.048 -1.874 9
4.1469998 -1.099 -1.874 10
4.3769999 -1.151 -1.869 9
3.3989999 -0.935 -1.88 7
3.5880001 -0.97600001 -1.881 9
3.773 -1.017 -1.874 8
3.9820001 -1.064 -1.872 8
4.21 -1.1160001 -1.872 9
4.4510002 -1.171 -1.869 9
3.454 -0.94999999 -1.882 8
3.6370001 -0.98900002 -1.878 9
3.8299999 -1.0319999 -1.873 9
4.0570002 -1.084 -1.878 9
4.2779999 -1.1339999 -1.8710001 9
4.5250001 -1.191 -1.869 10
3.5109999 -0.96399999 -1.8839999 8
3.7 -1.005 -1.881 9
3.8929999 -1.048 -1.874 9
4.1170001 -1.099 -1.874 9
4.3540001 -1.153 -1.873 10
4.598 -1.209 -1.8660001 9
3.556 -0.97500002 -1.878 8
3.7490001 -1.018 -1.876 9
3.9530001 -1.063 -1.872 9
4.1880002 -1.117 -1.875 10
4.4229999 -1.171 -1.8710001 10
4.6789999 -1.23 -1.8660001 10
3.618 -0.99000001 -1.881 8
3.812 -1.033 -1.877 9
4.0240002 -1.081 -1.875 9
4.2589998 -1.1339999 -1.875 9
4.5040002 -1.191 -1.872 9
4.7639999 -1.251 -1.8660001 10
3.6760001 -1.0039999 -1.881 9
3.8699999 -1.046 -1.874 10
4.0970001 -1.098 -1.877 9
4.3319998 -1.152 -1.874 9
4.5739999 -1.207 -1.868 9
4.8590002 -1.274 -1.869 10
3.7390001 -1.018 -1.881 8
3.9319999 -1.061 -1.872 10
4.1719999 -1.115 -1.878 10
4.4060001 -1.169 -1.873 9
4.6620002 -1.228 -1.869 10
4.9390001 -1.293 -1.864 10
3.799 -1.0319999 -1.88 8
4.006 -1.0779999 -1.875 9
4.2410002 -1.131 -1.876 10
4.4860001 -1.187 -1.873 9
4.75 -1.248 -1.869 10
5.04 -1.316 -1.8660001 10
3.8640001 -1.046 -1.8789999 9
4.086 -1.096 -1.88 9
4.323 -1.149 -1.878 9
4.5609999 -1.204 -1.869 9
4.849 -1.271 -1.872 10
5.1430001 -1.339 -1.8660001 10
3.9219999 -1.058 -1.875 9
4.1560001 -1.11 -1.878 10
4.3959999 -1.165 -1.875 10
4.6560001 -1.224 -1.872 10
4.9380002 -1.29 -1.869 11
5.223 -1.3559999 -1.858 10
3.994 -1.072 -1.875 8
4.23 -1.126 -1.877 10
4.4790001 -1.182 -1.875 10
4.75 -1.244 -1.874 10
5.0359998 -1.311 -1.869 10
5.3379998 -1.381 -1.859 10
4.073 -1.089 -1.878 9
4.309 -1.142 -1.877 10
4.5609999 -1.199 -1.874 10
4.8369999 -1.262 -1.8710001 10
5.1339998 -1.331 -1.867 11
5.4460001 -1.403 -1.857 10
4.152 -1.104 -1.88 9
4.3870001 -1.1569999 -1.875 10
4.6469998 -1.216 -1.872 10
4.9349999 -1.2819999 -1.8710001 11
5.2140002 -1.346 -1.857 10
5.572 -1.429 -1.859 11
4.2249999 -1.118 -1.877 9
4.4689999 -1.173 -1.874 9
4.743 -1.235 -1.874 10
5.0339999 -1.301 -1.87 10
5.3319998 -1.37 -1.859 10
5.7080002 -1.4579999 -1.863 10
4.3060002 -1.133 -1.877 9
4.5570002 -1.189 -1.874 10
4.8379998 -1.253 -1.873 11
5.1409998 -1.322 -1.87 11
5.4549999 -1.3940001 -1.8609999 11
5.8330002 -1.482 -1.8609999 11
4.3930001 -1.149 -1.878 9
4.6479998 -1.206 -1.873 10
4.9429998 -1.273 -1.874 11
5.2459998 -1.341 -1.868 10
5.6030002 -1.424 -1.869 10
5.9629998 -1.507 -1.859 10
4.4770002 -1.164 -1.877 9
4.7340002 -1.22 -1.87 11
5.0450001 -1.291 -1.873 11
5.3520002 -1.36 -1.865 11
5.7140002 -1.443 -1.864 11
6.1020002 -1.533 -1.858 10
4.5669999 -1.179 -1.877 10
4.836 -1.238 -1.8710001 10
5.1529999 -1.3099999 -1.873 11
5.4840002 -1.385 -1.869 10
5.8509998 -1.4680001 -1.865 10
6.2659998 -1.564 -1.862 10
4.651 -1.192 -1.873 10
4.9349999 -1.255 -1.87 11
5.256 -1.326 -1.87 10
5.6020002 -1.405 -1.867 10
5.9829998 -1.4910001 -1.863 10
6.4050002 -1.5880001 -1.857 10
4.7399998 -1.205 -1.87 10
5.0409999 -1.272 -1.87 11
5.3629999 -1.344 -1.867 10
5.7290001 -1.426 -1.8660001 11
6.1339998 -1.518 -1.864 11
6.5700002 -1.617 -1.857 10
4.8400002 -1.221 -1.87 9
5.152 -1.29 -1.87 11
5.4850001 -1.363 -1.867 11
5.8649998 -1.449 -1.8660001 10
6.2800002 -1.5420001 -1.862 11
6.7189999 -1.641 -1.851 11
4.948 -1.237 -1.8710001 10
5.2639999 -1.307 -1.869 9
5.6110001 -1.383 -1.8660001 10
5.9990001 -1.469 -1.863 10
6.4349999 -1.567 -1.8609999 10
6.9099998 -1.674 -1.854 11
5.0549998 -1.253 -1.8710001 10
5.3740001 -1.322 -1.8660001 10
5.7449999 -1.404 -1.867 10
6.152 -1.494 -1.865 10
6.585 -1.59 -1.857 12
7.0830002 -1.702 -1.85 11
5.164 -1.268 -1.87 10
5.4949999 -1.34 -1.8660001 10
5.881 -1.424 -1.867 11
6.296 -1.515 -1.862 11
6.7459998 -1.615 -1.853 11
7.3109999 -1.7410001 -1.857 9
5.2740002 -1.283 -1.868 11
5.6209998 -1.358 -1.865 10
6.0110002 -1.442 -1.862 10
6.4439998 -1.536 -1.858 10
6.9310002 -1.643 -1.854 11
7.506 -1.77 -1.853 10
5.395 -1.299 -1.868 11
5.7480001 -1.374 -1.862 11
6.158 -1.462 -1.862 11
6.6059999 -1.559 -1.857 11
7.1269999 -1.673 -1.8559999 10
7.7140002 -1.802 -1.851 10
5.5079999 -1.312 -1.864 10
5.8860002 -1.393 -1.863 10
6.3119998 -1.483 -1.862 11
6.7750001 -1.582 -1.855 12
7.3309999 -1.7029999 -1.8559999 10
7.9460001 -1.836 -1.852 11
5.6500001 -1.331 -1.868 9
6.026 -1.41 -1.8609999 10
6.4619999 -1.502 -1.858 11
6.9530001 -1.6059999 -1.854 11
7.5450001 -1.734 -1.857 10
8.1619997 -1.8660001 -1.845 11
5.7849998 -1.347 -1.868 10
6.1719999 -1.427 -1.86 11
6.6339998 -1.524 -1.859 12
7.1680002 -1.637 -1.86 10
7.7410002 -1.7589999 -1.851 11
8.4139996 -1.902 -1.844 11
5.9159999 -1.3609999 -1.8660001 10
6.3200002 -1.444 -1.857 11
6.8010001 -1.544 -1.8559999 11
7.3600001 -1.661 -1.857 10
7.9720001 -1.789 -1.85 11
8.6870003 -1.9400001 -1.844 11
6.0599999 -1.377 -1.865 10
6.4770002 -1.461 -1.855 11
6.9850001 -1.566 -1.855 10
7.5580001 -1.684 -1.853 10
8.1999998 -1.817 -1.846 11
8.9709997 -1.978 -1.842 12
6.2049999 -1.391 -1.862 10
6.6430001 -1.479 -1.853 11
7.1950002 -1.592 -1.859 10
7.7789998 -1.711 -1.852 11
8.4530001 -1.849 -1.844 11
9.2740002 -2.0190001 -1.841 11
6.3660002 -1.408 -1.862 11
6.8119998 -1.4960001 -1.85 11
7.3889999 -1.612 -1.8559999 10
8.0050001 -1.7359999 -1.849 12
8.7220001 -1.882 -1.842 12
9.5790005 -2.056 -1.836 12
6.5250001 -1.4220001 -1.86 11
6.9980001 -1.515 -1.85 11
7.592 -1.633 -1.853 11
8.2349997 -1.761 -1.845 12
9.0089998 -1.916 -1.841 12
9.9110003 -2.098 -1.834 11
6.6739998 -1.433 -1.853 11
7.2119999 -1.538 -1.854 10
7.8080001 -1.655 -1.85 12
8.4849997 -1.7869999 -1.842 11
9.3199997 -1.9529999 -1.842 12
10.27 -2.141 -1.832 11
6.8499999 -1.449 -1.852 11
7.4250002 -1.559 -1.8559999 11
8.0349998 -1.676 -1.847 12
8.7580004 -1.816 -1.841 12
9.6219997 -1.985 -1.836 11
10.65 -2.1860001 -1.829 12
7.066 -1.47 -1.859 9
7.6199999 -1.574 -1.851 11
8.2620001 -1.696 -1.842 11
9.0439997 -1.845 -1.839 12
9.9519997 -2.02 -1.8329999 12
11.062 -2.234 -1.827 11
7.2540002 -1.484 -1.857 10
7.8260002 -1.59 -1.846 11
8.5179996 -1.719 -1.841 12
9.3470001 -1.876 -1.839 12
10.298 -2.0550001 -1.829 12
11.47 -2.2780001 -1.821 11
7.4310002 -1.494 -1.85 12
8.0559998 -1.608 -1.845 12
8.7770004 -1.7410001 -1.839 12
9.6529999 -1.903 -1.835 11
10.683 -2.095 -1.8279999 12
11.93 -2.3280001 -1.818 12
7.658 -1.512 -1.853 11
8.2819996 -1.624 -1.84 11
9.0690002 -1.767 -1.839 12
9.9779997 -1.932 -1.832 12
11.072 -2.132 -1.823 12
12.435 -2.382 -1.8150001 11
7.8660002 -1.524 -1.849 11
8.5279999 -1.64 -1.837 12
9.3649998 -1.79 -1.836 12
10.331 -1.962 -1.829 12
11.508 -2.174 -1.821 12
12.991 -2.441 -1.8150001 10
8.085 -1.536 -1.846 11
8.7919998 -1.658 -1.835 12
9.6719999 -1.812 -1.8329999 12
10.711 -1.994 -1.827 13
11.977 -2.2179999 -1.8200001 11
13.566 -2.4990001 -1.8099999 10
8.3120003 -1.5470001 -1.841 11
9.0760002 -1.677 -1.835 12
10.004 -1.837 -1.832 12
11.101 -2.0250001 -1.824 12
12.45 -2.2579999 -1.814 10
14.198 -2.562 -1.807 11
8.5600004 -1.5599999 -1.839 11
9.3710003 -1.6950001 -1.8329999 12
10.354 -1.86 -1.829 12
11.52 -2.0569999 -1.8200001 12
12.988 -2.3050001 -1.812 10
14.864 -2.6240001 -1.802 10
8.8339996 -1.574 -1.84 13
9.6689997 -1.711 -1.83 13
10.72 -1.8839999 -1.827 13
11.98 -2.092 -1.818 11
13.548 -2.352 -1.808 10
15.522 -2.6789999 -1.789 10
9.1079998 -1.585 -1.8380001 12
10.009 -1.73 -1.83 12
11.104 -1.906 -1.823 13
12.462 -2.125 -1.8150001 10
14.178 -2.4030001 -1.8049999 10
16.281 -2.744 -1.778 10
9.4090004 -1.599 -1.8380001 12
10.345 -1.745 -1.826 12
11.513 -1.929 -1.818 12
12.99 -2.1619999 -1.813 11
14.837 -2.454 -1.801 11
17.091999 -2.8099999 -1.766 11
9.7019997 -1.608 -1.834 12
10.692 -1.758 -1.821 13
11.956 -1.952 -1.8150001 11
13.527 -2.194 -1.806 10
15.476 -2.4949999 -1.7869999 9
18.009001 -2.8859999 -1.757 12
10.017 -1.617 -1.831 12
11.078 -1.775 -1.819 13
12.437 -1.978 -1.814 11
14.145 -2.234 -1.806 11
16.219999 -2.5450001 -1.778 10
19.021999 -2.967 -1.747 13
10.353 -1.626 -1.829 12
11.467 -1.7869999 -1.814 13
12.939 -2.0009999 -1.811 10
14.751 -2.266 -1.7970001 11
17.006001 -2.595 -1.768 11
20.139 -3.0550001 -1.7359999 15
10.69 -1.631 -1.823 13
11.904 -1.802 -1.812 11
13.479 -2.0250001 -1.807 11
15.415 -2.299 -1.789 10
17.888 -2.6500001 -1.757 12
21.343 -3.1429999 -1.72 16
11.059 -1.637 -1.8200001 12
12.361 -1.816 -1.809 10
14.052 -2.0480001 -1.803 11
16.103001 -2.3299999 -1.779 9
18.827 -2.7060001 -1.745 13
22.638 -3.233 -1.701 18
11.447 -1.643 -1.817 12
12.852 -1.83 -1.808 12
14.634 -2.066 -1.795 11
16.841 -2.3599999 -1.766 10
19.92 -2.7709999 -1.737 14
24.006001 -3.3180001 -1.673 14
11.869 -1.648 -1.8150001 11
13.37 -1.841 -1.8049999 13
15.277 -2.086 -1.789 10
17.695999 -2.3989999 -1.7589999 11
21.035 -2.8299999 -1.721 16
25.500999 -3.4070001 -1.641 10
12.324 -1.653 -1.8150001 11
13.908 -1.849 -1.799 11
15.952 -2.1029999 -1.779 9
18.596001 -2.4319999 -1.7460001 13
22.382 -2.904 -1.71 18
27.277 -3.5139999 -1.6109999 7
12.786 -1.652 -1.8099999 11
14.482 -1.855 -1.7920001 11
16.646999 -2.1140001 -1.766 10
19.608 -2.4690001 -1.7359999 14
23.627001 -2.9530001 -1.6799999 14
29.150999 -3.6159999 -1.5700001 6
13.281 -1.652 -1.807 13
15.079 -1.858 -1.785 11
17.393999 -2.125 -1.752 11
20.653 -2.5020001 -1.721 15
25.160999 -3.0220001 -1.659 10
31.570999 -3.7620001 -1.539 6
13.793 -1.647 -1.802 12
15.707 -1.858 -1.775 10
18.306 -2.1459999 -1.749 12
21.865 -2.54 -1.709 17
26.596001 -3.0639999 -1.619 7
33.604 -3.839 -1.4680001 5
14.363 -1.643 -1.799 12
16.381001 -1.855 -1.765 10
19.221001 -2.1559999 -1.7359999 13
23.132 -2.5710001 -1.689 18
28.438999 -3.1329999 -1.587 7
35.754002 -3.905 -1.385 6
14.921 -1.631 -1.791 11
17.077 -1.848 -1.753 10
20.238001 -2.168 -1.726 15
24.591999 -2.608 -1.673 12
30.337999 -3.1889999 -1.545 6
38.915001 -4.053 -1.318 6
15.507 -1.615 -1.7819999 11
17.871 -1.842 -1.744 11
21.323999 -2.175 -1.7130001 16
25.948 -2.6199999 -1.638 9
32.699001 -3.27 -1.508 6
42.714001 -4.23 -1.244 1
16.121 -1.596 -1.771 9
18.711 -1.831 -1.733 13
22.52 -2.1789999 -1.698 18
27.400999 -2.6240001 -1.598 6
34.952999 -3.312 -1.444 5
47.414001 -4.447 -1.1569999 3
16.775 -1.572 -1.76 10
19.629 -1.817 -1.722 14
23.666 -2.1659999 -1.671 20
29.254 -2.648 -1.569 6
37.209 -3.329 -1.364 6
49.237 -4.3590002 -0.97600001 4
17.478001 -1.544 -1.749 11
20.566999 -1.795 -1.707 16
25.089001 -2.1630001 -1.655 15
31.247999 -2.661 -1.531 7
39.681 -3.3399999 -1.274 4
53.361 -4.441 -0.81800002 44
18.252001 -1.5140001 -1.74 12
21.650999 -1.773 -1.696 17
26.443001 -2.1370001 -1.623 11
33.245998 -2.6530001 -1.479 6
47.564999 -3.747 -1.316 2
0 0 0 0
19.073999 -1.478 -1.73 13
22.806 -1.742 -1.681 19
27.908001 -2.1029999 -1.587 7
35.297001 -2.6229999 -1.413 5
47.800999 -3.5050001 -1.112 4
55.515999 -4.0159998 -0.36399999 35
19.982 -1.437 -1.721 15
23.941 -1.696 -1.6569999 20
29.743999 -2.075 -1.558 6
37.672001 -2.589 -1.342 5
49.717999 -3.368 -0.94099998 3
59.622002 -3.9779999 -0.13500001 57
20.902 -1.385 -1.706 16
25.271999 -1.647 -1.638 16
31.488001 -2.0179999 -1.512 6
40.361 -2.546 -1.265 1
53.84 -3.342 -0.79000002 24
59.68 -3.648 0.113 33
21.993 -1.332 -1.699 18
26.511999 -1.5779999 -1.605 12
33.453999 -1.956 -1.466 6
48.130001 -2.7639999 -1.308 2
53.513 -3.017 -0.56400001 7
55.408001 -3.066 0.33399999 6
23.017 -1.262 -1.6799999 19
27.981001 -1.503 -1.575 8
35.077 -1.848 -1.391 5
48.186001 -2.49 -1.112 5
55.5 -2.8110001 -0.36199999 34
55.285 -2.747 0.54900002 25
24.183001 -1.187 -1.665 20
29.469 -1.414 -1.539 6
0 0 0 0
50.096001 -2.299 -0.958 7
58.877998 -2.642 -0.154 67
55.116001 -2.4189999 0.76099998 51
25.305 -1.094 -1.641 18
31.145 -1.313 -1.503 6
0 0 0 0
53.709999 -2.155 -0.82200003 21
58.667999 -2.2939999 0.067000002 35
55.805 -2.1259999 0.98100001 9
26.604 -0.99400002 -1.6210001 13
32.880001 -1.193 -1.46 6
0 0 0 0
55.465 -1.897 -0.63800001 24
58.505001 -1.942 0.285 10
0 0 0 0
28.018999 -0.88 -1.6 10
34.509998 -1.048 -1.403 4
48.541 -1.423 -1.177 4
57.451 -1.625 -0.45100001 54
61.056999 -1.664 0.51899999 3
0 0 0 0
22.708 -0.57700002 -1.212 65
24.731001 -0.602 -0.91399997 37
48.710999 -1.1339999 -1.003 4
57.990002 -1.289 -0.24699999 66
110.524 -2.3469999 1.331 9
106.621 -2.1500001 3.0239999 33
21.493999 -0.414 -1.069 56
25.914 -0.472 -0.86500001 40
50.664001 -0.87 -0.86400002 7
57.852001 -0.935 -0.045000002 52
83.216003 -1.2589999 1.289 7
108.407 -1.528 3.4430001 29
21.436001 -0.28299999 -0.991 68
26.983 -0.32800001 -0.80800003 26
54.445999 -0.60399997 -0.74400002 26
57.895 -0.58399999 0.148 36
81.866997 -0.73699999 1.541 5
107.25 -0.85399997 3.76 37
22.527 -0.15700001 -0.96399999 70
28.452 -0.169 -0.75599998 3
56.57 -0.278 -0.58600003 34
57.529999 -0.223 0.336 3
81.959 -0.23100001 1.808 27
51.950001 -0.090000004 1.988 27
23.745001 -0.017000001 -0.93800002 74
45.502998 0.014 -1.0599999 1
23.482 0.030999999 -0.167 17
23.943001 0.057 0.21600001 63
51.808998 0.178 1.306 46
52.283001 0.234 2.1630001 40
24.76 0.13600001 -0.89899999 70
22.658001 0.149 -0.456 26
22.598 0.17200001 -0.090999998 131
21.709 0.18700001 0.26199999 0
64.665001 0.62599999 1.825 17
94.538002 1.011 4.1919999 21
21.993999 0.259 -0.73100001 26
0 0 0 0
27.924999 0.38699999 -0.028999999 27
93.786003 1.398 1.41 34
93.703003 1.4960001 2.918 51
94.699997 1.617 4.4759998 30
23.645 0.42899999 -0.71600002 81
28.209999 0.54299998 -0.40000001 28
58.214001 1.183 0.108 56
65.057999 1.39 1.166 10
93.845001 2.1059999 3.191 50
108.261 2.549 5.4239998 26
22.011 0.54299998 -0.602 36
29.014 0.74699998 -0.329 74
29.362 0.78600001 0.13699999 24
63.761002 1.775 1.3200001 25
84.408997 2.4400001 3.102 5
108.098 3.2460001 5.71 50
29.18 0.91100001 -0.71799999 34
29.905001 0.96399999 -0.257 76
30.006001 0.99800003 0.22 10
63.793999 2.1889999 1.49 3
94.660004 3.3499999 3.727 35
84.304001 3.075 4.6700001 7
30.611 1.154 -0.67299998 35
57.929001 2.2420001 -0.34999999 20
83.543999 3.3210001 0.82800001 13
63.845001 2.605 1.653 20
94.350998 3.9549999 3.9530001 40
108.021 4.6459999 6.2540002 48
29.784 1.319 -0.579 22
31.159 1.4119999 -0.109 1
31.249001 1.448 0.38699999 13
63.734001 3.0190001 1.806 12
94.439003 4.5760002 4.184 48
108.152 5.3540001 6.5170002 38
31.408001 1.596 -0.53500003 28
31.573999 1.637 -0.035999998 39
107.195 5.6700001 1.58 43
92.091003 4.9650002 2.822 37
94.739998 5.2129998 4.415 29
108.635 6.0970001 6.796 30
31.893 1.8329999 -0.47 61
32.001999 1.872 0.035 20
92.139 5.487 1.566 28
91.804001 5.5599999 3.0190001 40
106.286 6.552 5.1869998 20
107.854 6.763 6.9809999 29
31.042 1.992 -0.389 1
66.616997 4.342 0.21799999 38
79.269997 5.2449999 1.516 31
91.852997 6.1750002 3.214 43
107.138 7.323 5.4549999 33
59.671001 4.145 3.987 3
32.68 2.319 -0.34099999 52
32.803001 2.3610001 0.176 37
32.365002 2.3610001 0.685 2
32.415001 2.3989999 1.2 21
59.563999 4.4710002 3.151 10
58.709 4.4720001 4.039 7
32.395 2.5190001 -0.273 150
33.049999 2.6010001 0.242 2
78.739998 6.276 1.8200001 28
109.378 8.8330002 4.2600002 20
59.390999 4.8610001 3.2550001 25
58.405998 4.8429999 4.1279998 45
32.950001 2.7839999 -0.21699999 2
81.589996 6.9770002 0.74699998 11
0 0 0 0
59.327999 5.1939998 2.4170001 15
58.908001 5.223 3.3340001 43
76.824997 6.8979998 5.5669999 6
33.847 3.0929999 -0.163 15
33.959999 3.1370001 0.37 58
77.176003 7.2080002 2.0580001 11
59.186001 5.5900002 2.513 35
58.518002 5.5910001 3.4100001 44
77 7.4400001 5.7080002 13
34.243999 3.3659999 -0.109 33
34.263 3.4030001 0.42899999 3
59.812 5.9990001 1.692 6
58.174999 5.8959999 2.563 61
58.640999 6.0079999 3.5109999 38
57.604 5.9660001 4.3610001 31
53.84 5.6700001 -0.088 27
53.672001 5.7020001 0.75400001 51
53.610001 5.75 1.596 39
53.609001 5.803 2.441 17
58.394001 6.3870001 3.5829999 8
53.823002 5.948 4.1539998 21
34.846001 3.9130001 -0.0070000002 75
34.826 3.9430001 0.53799999 2
59.056 6.7459998 1.841 23
58.957001 6.7940001 2.767 40
53.591999 6.2340002 3.3610001 14
75.459 8.8599997 5.9260001 32
58.634998 6.9889998 0.063000001 3
76.063004 9.1389999 1.273 86
59.474998 7.2059999 1.9299999 6
59.377998 7.2589998 2.8629999 36
59.341999 7.3189998 3.7969999 22
53.651001 6.6750002 4.2810001 3
35.419998 4.4749999 0.081 31
104.549 13.305 1.876 8
63.243 8.1110001 2.1270001 37
59.284 7.665 2.927 58
59.605999 7.7690001 3.882 31
62.056 8.1610003 5.0240002 40
62.946999 8.3999996 0.213 34
0 0 0 0
63.181999 8.5509996 2.1930001 17
59.063999 8.0550003 2.9790001 3
59.595001 8.1920004 3.9449999 14
62.216 8.6230001 5.1009998 11
36.036999 5.0679998 0.15700001 53
89.063004 12.608 1.7819999 42
63.728001 9.0839996 2.2739999 4
63.894001 9.1739998 3.2839999 19
63.686001 9.2130003 4.277 20
63.971001 9.3269997 5.3080001 20
36.301998 5.3670001 0.19 41
0 0 0 0
73.978996 11.074 2.7030001 7
75.414001 11.366 3.941 5
85.226997 12.938 5.796 15
64.043999 9.7919998 5.3660002 7
78.323997 12.14 0.46799999 6
80.142998 12.491 1.7309999 27
74.787003 11.728 2.7869999 19
86.758003 13.69 4.5960002 22
87.291 13.869 5.9990001 10
0 0 0 0
36.866001 5.9780002 0.244 15
90.470001 14.753 2.013 6
75.066002 12.313 2.846 11
89.883003 14.835 4.8189998 6
85.892998 14.265 5.9580002 7
0 0 0 0
37.122002 6.2870002 0.26499999 33
89.471001 15.234 2.036 14
0 0 0 0
0 0 0 0
85.908997 14.888 6.0040002 7
0 0 0 0
37.338001 6.5960002 0.28200001 8
71.625 12.712 1.661 13
71.400002 12.739 2.773 38
0 0 0 0
0 0 0 0
0 0 0 0
59.837002 11.011 0.47099999 60
71.152 13.151 1.6720001 12
71.121002 13.205 2.783 27
0 0 0 0
0 0 0 0
56.173 10.611 4.8540001 14
45.428001 8.6899996 0.36500001 18
71.975998 13.827 1.704 7
70.811996 13.668 2.7850001 23
0 0 0 0
55.894001 10.905 3.9579999 18
55.082001 10.807 4.7709999 13
45.294998 8.9960003 0.36899999 6
56.112 11.191 1.3329999 14
56.039001 11.227 2.21 40
55.733002 11.218 3.0739999 36
55.987 11.328 3.97 25
56.671001 11.53 4.914 20
56.056 11.547 0.45300001 44
0 0 0 0
71.512001 14.853 2.819 36
0 0 0 0
0 0 0 0
54.987 11.591 4.7680001 13
75.462997 16.1 0.60000002 4
113.726 24.355 2.6830001 28
71.549004 15.381 2.8110001 13
113.043 24.41 6.2189999 24
113.942 24.723 8.0649996 18
0 0 0 0
44.040001 9.7189999 0.33899999 4
120.252 26.632 2.8069999 40
115.415 25.66 4.5050001 25
112.282 25.063999 6.151 26
112.308 25.186001 7.9239998 17
114.954 25.902 9.9320002 30
44.261002 10.097 0.32499999 43
0 0 0 0
0 0 0 0
112.4 25.927 6.119 33
112.971 26.169001 7.9359999 24
114.219 26.584999 9.8319998 25
52.312 12.324 0.35699999 67
73.719002 17.422001 1.6619999 29
57.588001 13.657 2.2030001 3
57.521 13.692 3.1070001 32
57.361 13.712 4.0050001 23
113.296 27.202 9.7080002 34
52.380001 12.729 0.32800001 19
57.198002 13.942 1.255 28
57.116001 13.968 2.152 11
56.832001 13.947 3.0380001 32
56.685001 13.968 3.927 29
113.605 28.124001 9.6750002 27
63.542999 15.921 0.35299999 55
131.715 33.089001 2.803 33
113.978 28.724001 4.2199998 28
