# .PCD v0.7 - Point Cloud Data file format
VERSION 0.7
FIELDS x y z intensity
SIZE 4 4 4 4
TYPE F F F F
COUNT 1 1 1 1
WIDTH 1865
HEIGHT 1
VIEWPOINT 0 0 0 1 0 0 0
POINTS 1865
DATA ascii
8.217 0.81 -1.804 12
8.8360004 0.87599999 -1.793 11
9.5799999 0.95499998 -1.788 11
10.432 1.0470001 -1.779 12
6.948 0.68699998 -1.812 11
7.4130001 0.73699999 -1.806 13
7.967 0.796 -1.808 11
8.5530005 0.85900003 -1.798 11
9.2360001 0.93300003 -1.79 12
10.021 1.0190001 -1.779 13
6.7620001 0.67699999 -1.8150001 11
7.191 0.72299999 -1.806 12
7.7119999 0.77999997 -1.806 11
8.2779999 0.84200001 -1.801 11
8.9139996 0.912 -1.7920001 11
9.651 0.99299997 -1.7819999 11
6.5879998 0.667 -1.819 11
6.9819999 0.70999998 -1.806 12
7.4840002 0.76499999 -1.809 12
8.0190001 0.824 -1.803 11
8.6370001 0.89300001 -1.798 11
9.3219995 0.96899998 -1.788 12
6.4099998 0.65600002 -1.819 10
6.7909999 0.69800001 -1.809 11
7.2620001 0.75 -1.809 13
7.7870002 0.80800003 -1.808 11
8.3529997 0.87199998 -1.8 11
9.0030003 0.94499999 -1.791 12
6.2420001 0.64399999 -1.8200001 10
6.6069999 0.685 -1.8099999 11
7.059 0.73500001 -1.811 12
7.5479999 0.79000002 -1.808 11
8.0909996 0.852 -1.802 11
8.7069998 0.92199999 -1.795 11
6.086 0.634 -1.822 10
6.4400001 0.67299998 -1.813 11
6.8579998 0.72000003 -1.811 11
7.329 0.773 -1.8099999 11
7.8610001 0.83399999 -1.808 11
8.4219999 0.898 -1.796 11
5.9349999 0.62199998 -1.823 10
6.2680001 0.66000003 -1.813 11
6.6729999 0.70599997 -1.812 11
7.1160002 0.75599998 -1.809 12
7.6110001 0.81300002 -1.806 12
8.1630001 0.87599999 -1.8 11
5.7930002 0.611 -1.824 11
6.1160002 0.648 -1.816 11
6.5040002 0.69199997 -1.816 11
6.9109998 0.73900002 -1.809 11
7.3839998 0.79299998 -1.806 11
7.9299998 0.85600001 -1.806 11
5.6589999 0.60000002 -1.827 10
5.9790001 0.63599998 -1.822 11
6.3379998 0.67699999 -1.818 10
6.73 0.72299999 -1.813 11
7.178 0.77499998 -1.809 12
7.664 0.83099997 -1.801 11
5.5240002 0.588 -1.8279999 11
5.835 0.62400001 -1.824 12
6.1750002 0.66299999 -1.819 11
6.5580001 0.70700002 -1.8150001 11
6.9780002 0.755 -1.8099999 11
7.4439998 0.81 -1.804 12
5.3959999 0.57599998 -1.829 10
5.6919999 0.61000001 -1.824 12
6.0349998 0.64999998 -1.824 11
6.3829999 0.69 -1.816 11
6.7820001 0.736 -1.8099999 12
7.23 0.78899997 -1.8049999 12
5.2740002 0.56400001 -1.83 11
5.5599999 0.597 -1.825 10
5.8839998 0.634 -1.824 11
6.2179999 0.67299998 -1.816 11
6.6100001 0.71899998 -1.814 12
7.027 0.76800001 -1.806 12
5.1669998 0.55400002 -1.834 11
5.434 0.58399999 -1.827 12
5.7340002 0.61900002 -1.822 12
6.0679998 0.65799999 -1.818 12
6.4390001 0.70099998 -1.8150001 11
6.8319998 0.74699998 -1.806 11
5.053 0.542 -1.835 11
5.322 0.57200003 -1.832 11
5.6160002 0.60600001 -1.8279999 11
5.9289999 0.64300001 -1.822 12
6.276 0.68300003 -1.816 11
6.6570001 0.72799999 -1.809 12
4.9359999 0.52899998 -1.8329999 10
5.1950002 0.55800003 -1.829 11
5.4759998 0.59100002 -1.825 11
5.7940001 0.62800002 -1.825 11
6.1259999 0.66600001 -1.818 12
6.5009999 0.70999998 -1.814 11
4.829 0.51700002 -1.8329999 10
5.0900002 0.546 -1.8329999 12
5.3709998 0.579 -1.8329999 12
5.658 0.61199999 -1.825 11
5.9840002 0.64999998 -1.821 11
6.3200002 0.68900001 -1.811 10
4.7259998 0.50400001 -1.8329999 9
4.9780002 0.53299999 -1.8329999 11
5.2550001 0.56400001 -1.834 12
5.527 0.59600002 -1.826 10
5.836 0.63200003 -1.8200001 11
6.165 0.67000002 -1.812 11
4.6409998 0.493 -1.8380001 9
4.8730001 0.51999998 -1.8329999 11
5.1370001 0.55000001 -1.8329999 13
5.4130001 0.58200002 -1.829 12
5.7059999 0.61500001 -1.823 12
6.0139999 0.65100002 -1.812 12
4.546 0.48100001 -1.8380001 9
4.7680001 0.50599998 -1.832 11
5.0349998 0.537 -1.836 11
5.2950001 0.56599998 -1.83 12
5.5780001 0.59899998 -1.823 10
5.8850002 0.634 -1.816 11
4.4580002 0.46900001 -1.839 9
4.678 0.49399999 -1.835 10
4.9239998 0.52200001 -1.834 11
5.1900001 0.55199999 -1.834 12
5.4549999 0.58200002 -1.824 12
5.7519999 0.61699998 -1.818 12
4.3720002 0.458 -1.839 9
4.5809999 0.48100001 -1.834 10
4.823 0.50800002 -1.835 11
5.0799999 0.537 -1.834 11
5.3400002 0.56599998 -1.826 12
5.632 0.60000002 -1.821 11
4.29 0.44600001 -1.84 9
4.4980001 0.46900001 -1.837 11
4.7199998 0.493 -1.8329999 10
4.9780002 0.52200001 -1.835 11
5.2350001 0.551 -1.829 12
5.5120001 0.58200002 -1.823 12
4.2030001 0.433 -1.8380001 9
4.4120002 0.456 -1.837 10
4.6350002 0.47999999 -1.836 11
4.868 0.50599998 -1.832 11
5.1240001 0.53500003 -1.829 12
5.3979998 0.56599998 -1.825 11
4.1259999 0.421 -1.8380001 9
4.329 0.44299999 -1.8380001 10
4.5430002 0.46599999 -1.836 10
4.77 0.491 -1.832 10
5.0310001 0.51999998 -1.834 12
5.2919998 0.54900002 -1.8279999 12
4.0539999 0.40900001 -1.841 9
4.2470002 0.43000001 -1.8380001 11
4.4689999 0.454 -1.841 10
4.6719999 0.47600001 -1.83 10
4.9250002 0.50400001 -1.832 11
5.1830001 0.53200001 -1.829 11
3.98 0.398 -1.84 9
4.1690001 0.417 -1.8380001 9
4.3839998 0.44 -1.841 10
4.5890002 0.46200001 -1.8329999 10
4.8210001 0.48699999 -1.83 11
5.0770001 0.51499999 -1.8279999 11
3.9170001 0.38600001 -1.844 9
4.1009998 0.405 -1.841 10
4.2989998 0.426 -1.839 10
4.5149999 0.449 -1.8380001 10
4.7309999 0.472 -1.83 11
4.9819999 0.49900001 -1.831 11
3.8540001 0.375 -1.846 9
4.0190001 0.39199999 -1.837 10
4.224 0.41299999 -1.839 11
4.428 0.43399999 -1.836 10
4.6440001 0.45699999 -1.832 10
4.8839998 0.48199999 -1.83 10
3.7880001 0.36300001 -1.846 8
3.96 0.38 -1.842 9
4.1440001 0.39899999 -1.837 10
4.3470001 0.41999999 -1.836 10
4.559 0.442 -1.832 10
4.7930002 0.46700001 -1.831 10
3.7219999 0.35100001 -1.845 8
3.891 0.368 -1.841 9
4.073 0.38600001 -1.8380001 10
4.2719998 0.40599999 -1.837 10
4.4829998 0.428 -1.835 10
4.7049999 0.44999999 -1.832 9
3.6670001 0.33899999 -1.849 8
3.8329999 0.35600001 -1.845 9
4.0009999 0.373 -1.837 10
4.1989999 0.39199999 -1.8380001 10
4.4060001 0.41299999 -1.837 10
4.618 0.43399999 -1.832 10
3.6029999 0.32699999 -1.847 9
3.766 0.34299999 -1.8430001 8
3.941 0.36000001 -1.84 9
4.1290002 0.37799999 -1.8380001 10
4.3249998 0.398 -1.835 10
4.5370002 0.419 -1.832 11
3.5439999 0.315 -1.846 8
3.717 0.33199999 -1.849 9
3.878 0.347 -1.842 9
4.0599999 0.36500001 -1.8380001 9
4.2519999 0.38299999 -1.834 9
4.4679999 0.40400001 -1.836 10
3.493 0.30399999 -1.848 8
3.6600001 0.31999999 -1.85 9
3.8199999 0.33500001 -1.8430001 9
3.9890001 0.35100001 -1.836 9
4.1890001 0.36899999 -1.8380001 10
4.3909998 0.389 -1.835 10
3.448 0.29300001 -1.853 8
3.605 0.308 -1.851 9
3.766 0.322 -1.846 9
3.931 0.33700001 -1.839 9
4.1220002 0.35499999 -1.839 10
4.3210001 0.37400001 -1.836 9
3.3900001 0.28099999 -1.85 7
3.553 0.296 -1.852 8
3.707 0.31 -1.845 10
3.869 0.324 -1.839 9
4.059 0.34099999 -1.839 9
4.25 0.359 -1.836 9
3.339 0.27000001 -1.849 7
3.493 0.28299999 -1.849 8
3.6570001 0.29699999 -1.848 9
3.8169999 0.31099999 -1.842 9
3.99 0.32699999 -1.837 9
4.1849999 0.34400001 -1.837 10
3.2909999 0.25799999 -1.85 7
3.441 0.271 -1.848 8
3.5999999 0.285 -1.847 8
3.763 0.29800001 -1.844 9
3.9219999 0.31200001 -1.8329999 9
4.1139998 0.329 -1.834 9
3.2420001 0.24699999 -1.849 8
3.395 0.259 -1.85 8
3.553 0.27200001 -1.849 9
3.7090001 0.285 -1.844 8
3.8729999 0.29899999 -1.837 9
4.0539999 0.31400001 -1.835 9
3.2019999 0.236 -1.852 7
3.3510001 0.248 -1.852 8
3.4949999 0.259 -1.845 9
3.661 0.273 -1.846 9
3.823 0.28600001 -1.84 9
3.993 0.30000001 -1.834 9
3.155 0.22400001 -1.85 7
3.296 0.235 -1.847 8
3.454 0.24699999 -1.849 8
3.609 0.25999999 -1.845 9
3.7679999 0.27200001 -1.84 9
3.9330001 0.285 -1.832 9
3.118 0.214 -1.853 7
3.2590001 0.22400001 -1.851 8
3.408 0.235 -1.849 8
3.563 0.24699999 -1.847 8
3.7249999 0.259 -1.844 9
3.8900001 0.27200001 -1.8380001 9
3.0840001 0.20299999 -1.857 6
3.2160001 0.212 -1.851 8
3.3659999 0.223 -1.851 8
3.52 0.234 -1.85 8
3.681 0.24600001 -1.847 9
3.8399999 0.25799999 -1.839 8
3.0420001 0.192 -1.8559999 6
3.175 0.20100001 -1.851 7
3.323 0.211 -1.851 7
3.474 0.222 -1.85 8
3.6329999 0.233 -1.847 8
3.793 0.244 -1.841 9
1.587 0.094999999 -0.98000002 0
3.141 0.19 -1.854 7
3.28 0.199 -1.851 7
3.428 0.20900001 -1.849 8
3.585 0.22 -1.846 9
3.7420001 0.23 -1.84 8
1.7359999 0.098999999 -1.086 2
3.1010001 0.178 -1.854 7
3.237 0.18700001 -1.849 8
3.3859999 0.197 -1.848 7
3.536 0.206 -1.844 8
3.7049999 0.21699999 -1.846 9
1.557 0.083999999 -0.98500001 2
3.0680001 0.167 -1.857 7
3.207 0.176 -1.855 7
3.352 0.184 -1.852 7
3.5020001 0.19400001 -1.849 8
3.665 0.204 -1.848 8
1.512 0.077 -0.96899998 2
3.033 0.156 -1.857 6
3.165 0.163 -1.852 7
3.3110001 0.17200001 -1.852 7
3.4630001 0.18099999 -1.85 8
3.6170001 0.19 -1.846 8
1.475 0.07 -0.95599997 3
2.9890001 0.14399999 -1.851 7
3.1329999 0.152 -1.855 7
3.273 0.16 -1.851 7
3.424 0.168 -1.851 8
3.576 0.177 -1.846 8
1.4400001 0.064000003 -0.94400001 4
1.693 0.075999998 -1.0599999 2
3.096 0.14 -1.853 7
3.2349999 0.147 -1.851 7
3.3800001 0.155 -1.848 8
3.539 0.163 -1.848 8
0 0 0 0
1.562 0.064999998 -0.98900002 2
3.0599999 0.12800001 -1.852 7
3.1989999 0.13500001 -1.85 7
3.3429999 0.142 -1.847 7
3.5020001 0.15000001 -1.849 8
0 0 0 0
1.52 0.057999998 -0.97299999 2
3.0369999 0.117 -1.857 6
3.1659999 0.123 -1.85 6
3.309 0.13 -1.848 7
3.4630001 0.13699999 -1.847 8
0 0 0 0
1.487 0.050999999 -0.96100003 3
1.641 0.057 -1.013 0
3.1359999 0.111 -1.851 7
3.2780001 0.117 -1.849 7
3.428 0.124 -1.848 8
0 0 0 0
1.461 0.045000002 -0.954 4
0 0 0 0
3.1110001 0.1 -1.855 6
3.2409999 0.105 -1.846 7
3.4000001 0.111 -1.85 7
0 0 0 0
1.433 0.039000001 -0.94499999 5
1.581 0.044 -0.99599999 1
3.0739999 0.088 -1.85 6
3.2119999 0.093000002 -1.847 7
3.362 0.097999997 -1.847 7
0 0 0 0
1.409 0.034000002 -0.93800002 5
1.548 0.037999999 -0.98400003 2
3.05 0.075999998 -1.853 6
3.1919999 0.081 -1.853 7
3.3399999 0.085000001 -1.852 7
0 0 0 0
0 0 0 0
1.518 0.030999999 -0.97299999 2
3.0250001 0.064000003 -1.854 6
3.1600001 0.068000004 -1.85 7
3.312 0.072999999 -1.853 7
0 0 0 0
0 0 0 0
1.487 0.025 -0.96200001 2
1.599 0.028000001 -0.98799998 0
3.135 0.056000002 -1.852 7
3.279 0.059999999 -1.85 7
0 0 0 0
0 0 0 0
1.461 0.018999999 -0.95300001 3
0 0 0 0
3.1159999 0.044 -1.855 6
3.257 0.046999998 -1.853 7
0 0 0 0
0 0 0 0
1.442 0.013 -0.94800001 3
1.596 0.016000001 -1.002 1
3.086 0.032000002 -1.852 6
3.224 0.035 -1.849 7
0 0 0 0
0 0 0 0
1.421 0.0080000004 -0.94099998 4
1.559 0.0089999996 -0.98699999 1
3.0610001 0.02 -1.851 6
3.1989999 0.022 -1.848 7
0 0 0 0
0 0 0 0
1.404 0.0020000001 -0.93699998 4
1.53 0.003 -0.97500002 2
3.046 0.0080000004 -1.855 7
3.1819999 0.0099999998 -1.851 7
0 0 0 0
0 0 0 0
0 0 0 0
1.513 -0.0020000001 -0.97100002 2
3.0209999 -0.003 -1.852 7
3.1630001 -0.001 -1.853 6
0 0 0 0
0 0 0 0
0 0 0 0
1.4960001 -0.0080000004 -0.96700001 2
3.003 -0.015 -1.853 6
3.141 -0.014 -1.852 7
0 0 0 0
0 0 0 0
0 0 0 0
1.475 -0.014 -0.95899999 2
2.957 -0.026000001 -1.836 6
3.1270001 -0.026000001 -1.855 7
0 0 0 0
0 0 0 0
0 0 0 0
1.457 -0.018999999 -0.95300001 2
0 0 0 0
3.1159999 -0.039000001 -1.859 6
0 0 0 0
0 0 0 0
0 0 0 0
1.441 -0.025 -0.94800001 2
1.646 -0.028000001 -1.033 1
3.089 -0.050999999 -1.852 6
0 0 0 0
0 0 0 0
0 0 0 0
1.427 -0.029999999 -0.94300002 2
1.571 -0.033 -0.991 1
3.0780001 -0.063000001 -1.855 6
0 0 0 0
0 0 0 0
0 0 0 0
1.418 -0.035999998 -0.94099998 2
1.556 -0.039000001 -0.986 1
3.066 -0.075000003 -1.8559999 6
0 0 0 0
0 0 0 0
0 0 0 0
0 0 0 0
1.54 -0.045000002 -0.98000002 2
3.0599999 -0.086999997 -1.86 6
0 0 0 0
0 0 0 0
0 0 0 0
0 0 0 0
1.523 -0.050000001 -0.97299999 2
3.0420001 -0.098999999 -1.857 6
0 0 0 0
0 0 0 0
0 0 0 0
0 0 0 0
1.518 -0.056000002 -0.97399998 2
3.033 -0.111 -1.858 6
0 0 0 0
0 0 0 0
0 0 0 0
0 0 0 0
1.511 -0.061999999 -0.972 2
3.029 -0.124 -1.8609999 6
0 0 0 0
0 0 0 0
0 0 0 0
0 0 0 0
1.498 -0.068000004 -0.96700001 2
3.01 -0.13500001 -1.855 6
0 0 0 0
0 0 0 0
0 0 0 0
0 0 0 0
1.492 -0.074000001 -0.96499997 2
3.0079999 -0.148 -1.857 6
0 0 0 0
0 0 0 0
0 0 0 0
0 0 0 0
1.4809999 -0.079000004 -0.95999998 2
3 -0.15899999 -1.8559999 6
0 0 0 0
0 0 0 0
0 0 0 0
0 0 0 0
1.483 -0.086000003 -0.963 2
1.679 -0.096000001 -1.04 0
0 0 0 0
0 0 0 0
0 0 0 0
0 0 0 0
1.48 -0.092 -0.96200001 2
1.613 -0.098999999 -1.001 0
0 0 0 0
0 0 0 0
0 0 0 0
0 0 0 0
1.475 -0.097000003 -0.95999998 2
1.601 -0.104 -0.99400002 0
0 0 0 0
0 0 0 0
0 0 0 0
0 0 0 0
1.482 -0.104 -0.96499997 2
1.602 -0.111 -0.995 0
0 0 0 0
0 0 0 0
0 0 0 0
0 0 0 0
1.483 -0.11 -0.96600002 2
1.602 -0.118 -0.99599999 0
0 0 0 0
0 0 0 0
0 0 0 0
0 0 0 0
1.482 -0.116 -0.96499997 2
1.612 -0.125 -1.002 0
0 0 0 0
0 0 0 0
0 0 0 0
0 0 0 0
1.485 -0.122 -0.96700001 2
2.9879999 -0.244 -1.855 6
0 0 0 0
0 0 0 0
0 0 0 0
0 0 0 0
1.4859999 -0.12800001 -0.96600002 2
3.0009999 -0.25600001 -1.8609999 6
0 0 0 0
0 0 0 0
0 0 0 0
0 0 0 0
1.494 -0.13500001 -0.97000003 2
3.007 -0.26899999 -1.863 6
0 0 0 0
0 0 0 0
0 0 0 0
0 0 0 0
1.499 -0.141 -0.972 2
3.0139999 -0.28099999 -1.864 6
0 0 0 0
0 0 0 0
0 0 0 0
0 0 0 0
1.506 -0.147 -0.97500002 2
3.0209999 -0.29300001 -1.864 7
0 0 0 0
0 0 0 0
0 0 0 0
0 0 0 0
1.5140001 -0.154 -0.977 2
3.029 -0.30599999 -1.864 6
0 0 0 0
0 0 0 0
0 0 0 0
0 0 0 0
1.533 -0.162 -0.98699999 2
3.04 -0.31799999 -1.865 7
0 0 0 0
0 0 0 0
0 0 0 0
0 0 0 0
1.543 -0.168 -0.99000001 2
3.05 -0.331 -1.865 6
0 0 0 0
0 0 0 0
0 0 0 0
0 0 0 0
1.564 -0.176 -1 1
3.059 -0.34299999 -1.864 6
0 0 0 0
0 0 0 0
0 0 0 0
0 0 0 0
1.5880001 -0.185 -1.011 1
3.073 -0.35499999 -1.865 7
0 0 0 0
0 0 0 0
0 0 0 0
0 0 0 0
0 0 0 0
3.0840001 -0.368 -1.863 7
0 0 0 0
0 0 0 0
0 0 0 0
1.449 -0.18000001 -0.95999998 2
2.0780001 -0.257 -1.311 4
3.0999999 -0.38 -1.864 6
0 0 0 0
0 0 0 0
0 0 0 0
1.4680001 -0.18799999 -0.96799999 2
2.971 -0.377 -1.865 8
3.1159999 -0.39300001 -1.864 7
0 0 0 0
0 0 0 0
0 0 0 0
1.484 -0.19499999 -0.97299999 2
2.9920001 -0.38999999 -1.868 6
3.135 -0.40599999 -1.865 7
0 0 0 0
0 0 0 0
0 0 0 0
1.505 -0.20299999 -0.98100001 2
3.0109999 -0.403 -1.869 6
3.1500001 -0.41800001 -1.862 7
0 0 0 0
0 0 0 0
0 0 0 0
1.529 -0.211 -0.991 2
3.023 -0.414 -1.865 7
3.1689999 -0.43099999 -1.862 7
0 0 0 0
0 0 0 0
0 0 0 0
1.5599999 -0.22 -1.0039999 1
3.0510001 -0.428 -1.869 7
3.198 -0.44499999 -1.8660001 7
0 0 0 0
0 0 0 0
0 0 0 0
1.5930001 -0.23 -1.018 1
3.069 -0.44 -1.868 6
3.221 -0.458 -1.8660001 7
0 0 0 0
0 0 0 0
1.439 -0.214 -0.95899999 3
0 0 0 0
3.0999999 -0.45300001 -1.873 6
3.243 -0.47099999 -1.8660001 8
0 0 0 0
0 0 0 0
1.466 -0.222 -0.97000003 2
2.9619999 -0.44499999 -1.8660001 6
3.1170001 -0.465 -1.869 6
3.2739999 -0.486 -1.868 7
0 0 0 0
0 0 0 0
1.498 -0.23100001 -0.98400003 2
2.994 -0.45899999 -1.8710001 5
3.142 -0.47799999 -1.868 7
3.3 -0.49900001 -1.868 7
0 0 0 0
0 0 0 0
1.523 -0.23899999 -0.99199998 2
3.017 -0.47099999 -1.87 6
3.1670001 -0.49000001 -1.868 7
3.329 -0.51200002 -1.868 7
0 0 0 0
0 0 0 0
1.553 -0.248 -1.003 1
3.0409999 -0.48199999 -1.868 6
3.1949999 -0.50300002 -1.868 8
3.359 -0.52600002 -1.869 7
0 0 0 0
0 0 0 0
1.623 -0.264 -1.039 1
3.073 -0.49599999 -1.8710001 6
3.227 -0.51700002 -1.87 7
3.3929999 -0.54000002 -1.87 7
0 0 0 0
0 0 0 0
0 0 0 0
3.1029999 -0.50800002 -1.872 7
3.2650001 -0.53100002 -1.874 7
3.428 -0.55500001 -1.8710001 8
0 0 0 0
1.476 -0.249 -0.97500002 3
2.9809999 -0.49900001 -1.872 6
3.125 -0.51899999 -1.867 7
3.2939999 -0.54400003 -1.872 7
3.464 -0.56900001 -1.872 8
0 0 0 0
1.516 -0.259 -0.991 2
3.0209999 -0.51300001 -1.8789999 6
3.171 -0.53399998 -1.875 7
3.3269999 -0.55699998 -1.8710001 8
3.494 -0.58200002 -1.869 8
0 0 0 0
1.562 -0.271 -1.011 2
3.0450001 -0.52399999 -1.875 7
3.2030001 -0.54699999 -1.875 7
3.365 -0.57099998 -1.873 7
3.5339999 -0.597 -1.87 8
0 0 0 0
1.665 -0.292 -1.066 3
3.0769999 -0.53600001 -1.874 7
3.234 -0.56 -1.873 7
3.3940001 -0.58399999 -1.869 8
3.576 -0.61199999 -1.872 8
1.448 -0.25999999 -0.96499997 3
0 0 0 0
3.115 -0.55000001 -1.877 7
3.2709999 -0.57300001 -1.874 7
3.4430001 -0.59899998 -1.875 8
3.612 -0.62599999 -1.869 8
1.494 -0.271 -0.98500001 2
2.9990001 -0.53899997 -1.8789999 6
3.145 -0.56099999 -1.873 7
3.3080001 -0.58600003 -1.873 7
3.473 -0.61199999 -1.869 8
3.655 -0.64099997 -1.869 8
1.536 -0.28099999 -1.001 2
3.0320001 -0.551 -1.878 7
3.1800001 -0.57300001 -1.872 7
3.348 -0.59899998 -1.874 8
3.523 -0.62699997 -1.874 8
3.7 -0.65600002 -1.869 8
1.584 -0.29300001 -1.02 2
3.062 -0.56199998 -1.875 7
3.2219999 -0.58700001 -1.875 8
3.3929999 -0.61400002 -1.876 8
3.5680001 -0.64200002 -1.875 8
3.747 -0.671 -1.87 8
0 0 0 0
3.1029999 -0.574 -1.877 7
3.2609999 -0.59899998 -1.874 8
3.4349999 -0.62699997 -1.876 8
3.612 -0.65600002 -1.874 8
3.7939999 -0.68599999 -1.868 8
2.9890001 -0.56300002 -1.8789999 6
3.138 -0.58600003 -1.875 7
3.3050001 -0.61299998 -1.876 7
3.4749999 -0.63999999 -1.874 8
3.655 -0.67000002 -1.8710001 8
3.8410001 -0.70099998 -1.867 8
3.03 -0.57499999 -1.881 6
3.184 -0.59899998 -1.878 7
3.355 -0.62699997 -1.88 8
3.523 -0.65499997 -1.875 8
3.7 -0.68400002 -1.87 8
3.8929999 -0.71600002 -1.8660001 8
3.062 -0.58499998 -1.876 6
3.22 -0.611 -1.875 7
3.392 -0.639 -1.876 8
3.572 -0.66900003 -1.876 8
3.7520001 -0.699 -1.87 9
3.9449999 -0.73199999 -1.8660001 9
3.1070001 -0.59799999 -1.8789999 7
3.267 -0.62400001 -1.877 8
3.447 -0.65399998 -1.881 8
3.6229999 -0.68300003 -1.877 8
3.8099999 -0.71499997 -1.873 9
4.006 -0.74900001 -1.867 9
3.152 -0.61000001 -1.88 7
3.3099999 -0.63599998 -1.876 7
3.494 -0.667 -1.88 9
3.6719999 -0.69700003 -1.876 9
3.8540001 -0.72799999 -1.867 9
4.0669999 -0.76499999 -1.868 9
3.191 -0.62099999 -1.878 7
3.3629999 -0.64999998 -1.8789999 8
3.5380001 -0.68000001 -1.877 8
3.723 -0.71100003 -1.874 8
3.915 -0.74400002 -1.869 9
4.1329999 -0.78299999 -1.87 9
3.2379999 -0.634 -1.878 7
3.414 -0.66299999 -1.88 9
3.5899999 -0.69300002 -1.877 8
3.776 -0.72500002 -1.873 8
3.9749999 -0.75999999 -1.869 9
4.2069998 -0.801 -1.874 9
3.283 -0.64600003 -1.878 7
3.467 -0.67699999 -1.883 8
3.6500001 -0.708 -1.88 8
3.826 -0.73900002 -1.87 9
4.0370002 -0.77600002 -1.87 9
4.263 -0.81599998 -1.869 9
3.3380001 -0.65899998 -1.881 7
3.5209999 -0.69099998 -1.883 9
3.7 -0.72100002 -1.878 9
3.8900001 -0.75400001 -1.8710001 9
4.1149998 -0.79400003 -1.875 9
4.3400002 -0.83499998 -1.872 9
3.3889999 -0.67199999 -1.881 7
3.5650001 -0.70200002 -1.878 9
3.7579999 -0.73500001 -1.878 9
3.9530001 -0.76999998 -1.872 9
4.1750002 -0.80900002 -1.873 9
4.4029999 -0.85000002 -1.868 10
3.4460001 -0.685 -1.8839999 8
3.6259999 -0.71600002 -1.881 9
3.8099999 -0.74800003 -1.874 9
4.0240002 -0.78600001 -1.875 9
4.244 -0.82599998 -1.872 10
4.4840002 -0.86900002 -1.87 10
3.4960001 -0.69700003 -1.882 8
3.6760001 -0.72799999 -1.877 10
3.8740001 -0.76300001 -1.875 10
4.0890002 -0.801 -1.875 9
4.3189998 -0.84299999 -1.873 10
4.552 -0.88499999 -1.8660001 10
3.5539999 -0.70999998 -1.883 8
3.7349999 -0.741 -1.877 9
3.9330001 -0.77600002 -1.873 9
4.158 -0.81699997 -1.875 9
4.3899999 -0.85900003 -1.872 10
4.6370001 -0.90399998 -1.868 9
3.6059999 -0.72100002 -1.88 8
3.7969999 -0.755 -1.877 9
4.0050001 -0.792 -1.876 10
4.2319999 -0.833 -1.876 9
4.4679999 -0.87599999 -1.872 10
4.7160001 -0.92199999 -1.865 10
3.6670001 -0.73400003 -1.881 9
3.8629999 -0.76899999 -1.878 9
4.0770001 -0.80699998 -1.877 9
4.3070002 -0.84899998 -1.876 9
4.5359998 -0.89099997 -1.8660001 10
4.803 -0.94 -1.864 10
3.734 -0.74900001 -1.883 8
3.9230001 -0.78200001 -1.875 9
4.1469998 -0.82200003 -1.876 9
4.3829999 -0.86500001 -1.875 10
4.6230001 -0.90899998 -1.868 10
4.8969998 -0.95899999 -1.865 10
3.7920001 -0.75999999 -1.88 8
3.993 -0.796 -1.876 10
4.224 -0.838 -1.878 9
4.461 -0.88099998 -1.874 10
4.71 -0.926 -1.867 10
4.9910002 -0.97899997 -1.865 11
3.858 -0.773 -1.881 8
4.0669999 -0.81 -1.877 9
4.296 -0.852 -1.875 10
4.5380001 -0.89600003 -1.8710001 10
4.8039999 -0.94499999 -1.868 9
5.0929999 -0.99900001 -1.865 11
3.928 -0.787 -1.881 9
4.1430001 -0.82499999 -1.878 9
4.3779998 -0.86799997 -1.876 10
4.6240001 -0.912 -1.87 9
4.8990002 -0.963 -1.868 10
5.198 -1.0190001 -1.864 11
3.984 -0.79699999 -1.874 9
4.2199998 -0.83999997 -1.878 10
4.4619999 -0.88300002 -1.876 10
4.711 -0.92900002 -1.869 10
4.994 -0.98100001 -1.8660001 11
5.2969999 -1.0369999 -1.8609999 11
4.0640001 -0.81199998 -1.877 9
4.2950001 -0.85299999 -1.876 10
4.5440001 -0.898 -1.874 10
4.809 -0.94700003 -1.87 10
5.0939999 -0.99900001 -1.865 11
5.3930001 -1.0549999 -1.854 10
4.1399999 -0.82499999 -1.877 9
4.3720002 -0.86699998 -1.874 10
4.631 -0.91399997 -1.873 10
4.9070001 -0.96399999 -1.87 10
5.2090001 -1.02 -1.867 11
5.5149999 -1.076 -1.855 11
4.2259998 -0.83999997 -1.8789999 9
4.4629998 -0.88200003 -1.875 10
4.7150002 -0.92799997 -1.869 10
5.0040002 -0.98100001 -1.868 11
5.3140001 -1.038 -1.864 11
5.6409998 -1.099 -1.8559999 11
4.309 -0.85399997 -1.88 9
4.5500002 -0.89700001 -1.875 10
4.8200002 -0.94499999 -1.873 10
5.1100001 -0.99800003 -1.869 11
5.4029999 -1.052 -1.855 10
5.7729998 -1.1210001 -1.857 11
4.3860002 -0.866 -1.877 10
4.6370001 -0.91100001 -1.873 10
4.9200001 -0.96200001 -1.872 11
5.223 -1.017 -1.869 11
5.559 -1.079 -1.8660001 10
5.921 -1.146 -1.86 10
4.48 -0.88099998 -1.88 9
4.7280002 -0.92500001 -1.8710001 10
5.0289998 -0.97899997 -1.874 12
5.3249998 -1.033 -1.865 11
5.678 -1.098 -1.864 10
6.0560002 -1.1670001 -1.858 10
4.5580001 -0.89200002 -1.874 9
4.8200002 -0.93900001 -1.869 11
5.1230001 -0.99299997 -1.868 12
5.4439998 -1.051 -1.864 11
5.8210001 -1.12 -1.8660001 11
6.197 -1.189 -1.8559999 12
4.6500001 -0.90499997 -1.873 9
4.9239998 -0.954 -1.869 11
5.2389998 -1.011 -1.869 12
5.5669999 -1.0700001 -1.863 10
5.9489999 -1.1390001 -1.863 11
6.3540001 -1.2130001 -1.855 10
4.7420001 -0.91799998 -1.8710001 10
5.0370002 -0.97000003 -1.8710001 12
5.3470001 -1.026 -1.8660001 11
5.7080002 -1.091 -1.867 10
6.092 -1.16 -1.862 10
6.52 -1.238 -1.8559999 10
4.8379998 -0.93099999 -1.869 9
5.1389999 -0.98400003 -1.868 11
5.467 -1.0420001 -1.865 11
5.8390002 -1.109 -1.865 11
6.2350001 -1.1799999 -1.859 12
6.6859999 -1.262 -1.854 11
4.9419999 -0.94499999 -1.869 10
5.2480001 -0.99800003 -1.865 11
5.6040001 -1.061 -1.868 11
5.9759998 -1.128 -1.863 10
6.3860002 -1.201 -1.8559999 11
6.8639998 -1.2869999 -1.853 11
5.0539999 -0.95899999 -1.87 10
5.369 -1.0140001 -1.865 12
5.7280002 -1.077 -1.865 12
6.1139998 -1.145 -1.86 11
6.5619998 -1.225 -1.859 11
7.0560002 -1.314 -1.854 12
5.1609998 -0.972 -1.867 10
5.4889998 -1.029 -1.863 11
5.8779998 -1.097 -1.868 12
6.2750001 -1.1670001 -1.8609999 11
6.7270002 -1.2460001 -1.855 11
7.2410002 -1.3380001 -1.849 12
5.2789998 -0.986 -1.867 11
5.6220002 -1.045 -1.864 11
6.0089998 -1.112 -1.864 10
6.4260001 -1.1849999 -1.857 11
6.908 -1.2690001 -1.854 11
7.4619999 -1.367 -1.852 12
5.3969998 -0.99900001 -1.8660001 10
5.7519999 -1.0599999 -1.862 10
6.1560001 -1.1289999 -1.862 11
6.6009998 -1.206 -1.859 11
7.1240001 -1.298 -1.86 11
7.6739998 -1.3940001 -1.85 11
5.5209999 -1.012 -1.865 10
5.9000001 -1.077 -1.865 11
6.3060002 -1.146 -1.86 11
6.7649999 -1.225 -1.855 12
7.2979999 -1.317 -1.853 12
7.9120002 -1.424 -1.851 12
5.6620002 -1.028 -1.868 9
6.033 -1.09 -1.8609999 10
6.4660001 -1.163 -1.858 11
6.9559999 -1.247 -1.8559999 11
7.5079999 -1.341 -1.852 11
8.165 -1.455 -1.852 11
5.796 -1.041 -1.8660001 10
6.1810002 -1.105 -1.859 11
6.632 -1.181 -1.8559999 12
7.1469998 -1.268 -1.854 12
7.744 -1.369 -1.854 10
8.434 -1.4859999 -1.853 12
5.9369998 -1.054 -1.865 10
6.3299999 -1.119 -1.855 11
6.8109999 -1.199 -1.855 12
7.3649998 -1.291 -1.857 11
7.9770002 -1.3940001 -1.853 11
8.698 -1.515 -1.849 12
6.0900002 -1.069 -1.8660001 11
6.506 -1.136 -1.857 11
7.006 -1.2180001 -1.8559999 11
7.5780001 -1.313 -1.855 12
8.217 -1.419 -1.849 11
8.993 -1.548 -1.849 12
6.2210002 -1.0779999 -1.858 11
6.6599998 -1.149 -1.851 12
7.2020001 -1.237 -1.8559999 12
7.8039999 -1.335 -1.855 11
8.493 -1.448 -1.852 12
9.283 -1.5779999 -1.845 12
6.3909998 -1.0930001 -1.8609999 10
6.8340001 -1.164 -1.849 11
7.414 -1.257 -1.857 11
8.0469999 -1.359 -1.855 12
8.757 -1.474 -1.848 12
9.6059999 -1.6109999 -1.8430001 13
6.5669999 -1.108 -1.862 11
7.0440001 -1.183 -1.854 12
7.6300001 -1.275 -1.855 10
8.2740002 -1.378 -1.849 11
9.0620003 -1.5039999 -1.849 12
9.9510002 -1.646 -1.84 12
6.7220001 -1.118 -1.8559999 12
7.2280002 -1.196 -1.849 13
7.8569999 -1.294 -1.854 11
8.5489998 -1.402 -1.849 12
9.349 -1.528 -1.8430001 12
10.327 -1.683 -1.84 12
6.9050002 -1.13 -1.855 11
7.434 -1.211 -1.848 12
8.1000004 -1.314 -1.854 12
8.8260002 -1.426 -1.848 12
9.6899996 -1.5599999 -1.844 12
10.7 -1.716 -1.834 12
7.0869999 -1.142 -1.852 12
7.6750002 -1.23 -1.853 11
8.3430004 -1.331 -1.85 12
9.1190004 -1.449 -1.846 12
10.036 -1.589 -1.841 12
11.122 -1.755 -1.831 12
7.2969999 -1.155 -1.853 12
7.908 -1.2460001 -1.852 12
8.6129999 -1.351 -1.849 12
9.4309998 -1.473 -1.844 12
10.408 -1.619 -1.8380001 12
11.581 -1.796 -1.829 11
7.5380001 -1.173 -1.86 11
8.1409998 -1.26 -1.849 11
8.8929996 -1.37 -1.848 12
9.7600002 -1.497 -1.842 12
10.8 -1.65 -1.835 12
12.093 -1.841 -1.829 10
7.7160001 -1.178 -1.848 12
8.3870001 -1.274 -1.845 12
9.1899996 -1.3890001 -1.846 13
10.107 -1.521 -1.839 12
11.218 -1.682 -1.831 11
12.615 -1.8839999 -1.826 10
7.9619999 -1.192 -1.851 11
8.6680002 -1.291 -1.848 13
9.4960003 -1.4069999 -1.842 12
10.483 -1.546 -1.836 12
11.673 -1.715 -1.827 12
13.204 -1.932 -1.824 11
8.21 -1.204 -1.85 12
8.9519997 -1.3049999 -1.845 12
9.8280001 -1.426 -1.839 12
10.886 -1.572 -1.8329999 13
12.186 -1.752 -1.827 11
13.825 -1.98 -1.8200001 11
8.4650002 -1.214 -1.848 12
9.2519999 -1.3200001 -1.8430001 12
10.194 -1.447 -1.839 12
11.305 -1.597 -1.829 11
12.718 -1.789 -1.824 12
14.451 -2.0239999 -1.809 11
8.75 -1.227 -1.85 12
9.559 -1.332 -1.84 13
10.556 -1.464 -1.834 13
11.769 -1.624 -1.827 11
13.284 -1.825 -1.819 12
15.165 -2.075 -1.803 11
9.04 -1.237 -1.85 12
9.8769999 -1.344 -1.835 11
10.951 -1.482 -1.831 13
12.275 -1.653 -1.827 11
13.89 -1.862 -1.814 11
15.922 -2.1240001 -1.7920001 9
9.3260002 -1.244 -1.845 12
10.244 -1.359 -1.835 12
11.376 -1.501 -1.8279999 12
12.818 -1.682 -1.824 13
14.553 -1.9 -1.807 11
16.759001 -2.1789999 -1.7819999 10
9.6370001 -1.252 -1.842 12
10.607 -1.37 -1.831 13
11.858 -1.522 -1.8279999 11
13.383 -1.709 -1.8200001 12
15.276 -1.941 -1.803 9
17.687 -2.237 -1.771 11
9.9560003 -1.258 -1.8380001 12
10.998 -1.381 -1.827 12
12.342 -1.541 -1.825 12
14 -1.738 -1.816 11
16.011 -1.977 -1.79 9
18.722 -2.3 -1.76 13
10.317 -1.266 -1.8380001 13
11.429 -1.393 -1.825 12
12.866 -1.559 -1.821 12
14.63 -1.762 -1.808 11
16.837999 -2.017 -1.78 10
19.886 -2.3699999 -1.751 14
10.677 -1.27 -1.8329999 12
11.889 -1.405 -1.824 12
13.45 -1.579 -1.821 11
15.328 -1.789 -1.8 9
17.761999 -2.0610001 -1.771 11
21.195999 -2.447 -1.74 16
11.078 -1.275 -1.831 12
12.385 -1.416 -1.823 13
14.041 -1.595 -1.814 12
16.035 -1.8099999 -1.786 9
18.804001 -2.109 -1.761 13
22.521 -2.5120001 -1.715 18
11.488 -1.278 -1.827 11
12.884 -1.423 -1.817 13
14.668 -1.609 -1.806 11
16.875999 -1.8380001 -1.778 10
19.924 -2.1559999 -1.748 14
24.108 -2.5929999 -1.694 14
11.947 -1.281 -1.826 12
13.459 -1.432 -1.8150001 12
15.345 -1.6210001 -1.796 11
17.813 -1.867 -1.77 11
21.181999 -2.2060001 -1.733 16
25.709999 -2.6600001 -1.656 9
12.451 -1.283 -1.825 13
14.041 -1.436 -1.808 11
16.077999 -1.632 -1.786 9
18.806999 -1.8940001 -1.758 13
22.552999 -2.2550001 -1.714 18
27.593 -2.74 -1.619 6
12.953 -1.281 -1.8200001 12
14.673 -1.439 -1.802 11
16.888 -1.642 -1.776 10
19.934 -1.923 -1.747 15
24.068001 -2.3050001 -1.691 16
29.808001 -2.8340001 -1.58 7
13.486 -1.276 -1.8150001 11
15.335 -1.438 -1.7920001 10
17.791 -1.653 -1.767 11
21.193001 -1.9529999 -1.735 16
25.681999 -2.348 -1.658 9
32.395 -2.9400001 -1.536 6
14.063 -1.2690001 -1.8099999 12
16.013 -1.432 -1.779 9
18.752001 -1.6619999 -1.757 13
22.410999 -1.97 -1.712 18
27.415001 -2.3889999 -1.6210001 7
34.715 -3.0009999 -1.4579999 6
14.671 -1.26 -1.804 12
16.774 -1.427 -1.7690001 10
19.823 -1.67 -1.747 14
23.952 -1.999 -1.697 20
29.691 -2.457 -1.594 6
37.533001 -3.079 -1.375 8
15.302 -1.2460001 -1.795 11
17.615 -1.419 -1.7589999 11
20.969 -1.6720001 -1.732 16
25.43 -2.0079999 -1.664 14
31.777 -2.4849999 -1.535 6
40.080002 -3.105 -1.2539999 1
15.965 -1.227 -1.784 11
18.535999 -1.409 -1.75 12
22.283001 -1.675 -1.719 18
26.966 -2.006 -1.619 6
34.195999 -2.517 -1.47 6
47.018002 -3.4260001 -1.224 5
16.695999 -1.206 -1.773 10
19.554001 -1.396 -1.739 14
23.634001 -1.668 -1.698 20
29.108 -2.03 -1.5930001 6
36.723999 -2.533 -1.388 3
49.050999 -3.345 -1.024 4
17.517 -1.182 -1.765 11
20.660999 -1.376 -1.727 16
25.138 -1.654 -1.673 17
31.371 -2.0380001 -1.554 6
39.966 -2.566 -1.3049999 1
53.361 -3.385 -0.84200001 29
18.4 -1.154 -1.756 12
21.898001 -1.355 -1.716 17
26.583 -1.622 -1.632 7
33.396 -2.01 -1.484 6
47.285 -2.809 -1.3049999 3
55.07 -3.2260001 -0.59299999 35
19.346001 -1.119 -1.745 14
23.101999 -1.316 -1.691 19
28.386 -1.5930001 -1.596 6
36.056 -1.992 -1.419 4
49.095001 -2.674 -1.109 7
58.916 -3.1619999 -0.34299999 62
20.379999 -1.079 -1.734 15
24.504999 -1.274 -1.669 19
30.514999 -1.561 -1.564 7
38.384998 -1.931 -1.322 8
53.013 -2.6229999 -0.93699998 44
59.076 -2.875 -0.057 52
21.541 -1.0319999 -1.724 17
25.952999 -1.22 -1.6390001 15
32.619999 -1.505 -1.511 6
41.438 -1.874 -1.224 1
53.102001 -2.3570001 -0.68099999 9
54.606998 -2.378 0.208 3
22.752001 -0.97299999 -1.706 19
27.599001 -1.156 -1.607 8
34.757 -1.425 -1.441 7
47.588001 -1.911 -1.1799999 5
57.990002 -2.2780001 -0.47099999 34
54.669998 -2.099 0.465 26
24.042999 -0.903 -1.686 21
29.51 -1.082 -1.575 7
37.414001 -1.3380001 -1.372 6
49.493 -1.728 -0.99299997 6
58.423 -1.989 -0.20200001 73
54.733002 -1.816 0.71700001 55
25.391001 -0.81999999 -1.658 13
31.408001 -0.986 -1.527 6
0 0 0 0
53.624001 -1.5880001 -0.82700002 27
58.373001 -1.677 0.064999998 29
54.818001 -1.527 0.96799999 37
27.033001 -0.73000002 -1.6390001 10
33.424 -0.87 -1.47 5
47.862 -1.204 -1.313 2
55.911999 -1.357 -0.61000001 28
60.785999 -1.421 0.34 9
116.758 -2.625 2.579 10
28.663 -0.61900002 -1.6059999 8
35.533001 -0.736 -1.404 6
48.125999 -0.95200002 -1.1059999 5
57.59 -1.087 -0.373 64
108.768 -1.957 1.0829999 35
108.673 -1.852 2.872 26
30.481001 -0.49200001 -1.571 7
37.898998 -0.57599998 -1.3279999 6
49.834999 -0.713 -0.92699999 4
57.519001 -0.76999998 -0.123 78
0 0 0 0
106.359 -1.227 3.2639999 44
22.146999 -0.236 -1.045 67
0 0 0 0
53.813 -0.47 -0.76899999 25
57.839001 -0.45300001 0.12 27
112.203 -0.778 2.0699999 16
104.949 -0.62900001 3.6559999 38
23.089001 -0.117 -0.99000001 70
44.563 -0.185 -1.182 2
56.695 -0.182 -0.57499999 55
81.402 -0.186 0.50400001 8
82.668999 -0.11 1.863 32
104.961 -0.044 4.079 61
24.228001 0.011 -0.93900001 74
48.348999 0.068999998 -1.084 5
56.862 0.133 -0.34799999 81
83.356003 0.27599999 0.85000002 43
82.934998 0.35499999 2.1989999 5
105.75 0.55199999 4.526 45
25.865999 0.16 -0.89700001 51
50.327 0.36199999 -0.92299998 11
56.645 0.46000001 -0.118 54
81.419998 0.73799998 1.153 37
115.645 1.1619999 3.5209999 10
106.463 1.175 4.9749999 32
0 0 0 0
51.27 0.662 -0.74000001 36
56.909 0.79100001 0.102 18
83.081001 1.233 1.497 15
51.396 0.81599998 1.762 45
106.276 1.79 5.369 33
23.007999 0.41 -0.616 126
23.129999 0.43399999 -0.245 150
25.636 0.50700003 0.14300001 24
51.278999 1.0650001 1.119 46
51.780998 1.125 1.9680001 24
51.923 1.181 2.816 39
21.789 0.51700002 -0.50099999 72
21.4 0.528 -0.146 99
27.271999 0.70099998 0.25400001 3
64.087997 1.712 1.635 57
93.735001 2.596 3.9059999 42
108.168 3.108 6.2600002 41
22.532 0.66900003 -0.43399999 118
27.597 0.84600002 -0.088 45
93.334999 2.9560001 1.207 26
93.146004 3.0409999 2.7060001 48
93.802002 3.1630001 4.244 42
107.889 3.747 6.6220002 32
27.253 0.97299999 -0.428 4
57.625999 2.1159999 0.021 50
63.445 2.3940001 1.044 22
84.087997 3.2590001 2.7390001 5
107.552 4.2820001 5.2379999 29
108.639 4.4400001 7.0450001 36
28.784 1.206 -0.34999999 58
28.941 1.242 0.112 9
63.212002 2.7750001 1.2589999 19
106.181 4.7719998 3.822 26
107.628 4.9460001 5.605 47
109.429 5.1469998 7.4629998 37
29.237 1.404 -0.257 47
29.452 1.443 0.211 3
83.656998 4.1830001 1.941 16
94 4.7989998 3.6900001 39
0 0 0 0
109.123 5.8119998 7.7979999 22
57.568001 3.122 -0.317 5
83.280998 4.6009998 0.87099999 9
63.319 3.5639999 1.675 10
93.911003 5.382 3.9879999 38
107.526 6.2789998 6.2919998 38
0 0 0 0
30.639 1.853 -0.071000002 1
30.660999 1.886 0.41600001 0
63.294998 3.9619999 1.873 4
93.93 5.9840002 4.2839999 43
107.986 6.994 6.6550002 27
0 0 0 0
30.989 2.072 0.023 25
91.781998 6.2329998 1.53 8
91.536003 6.3130002 2.9860001 21
94.150002 6.6020002 4.579 16
107.393 7.645 6.941 23
0 0 0 0
31.364 2.3010001 0.118 24
78.796997 5.8590002 1.548 4
91.273003 6.8800001 3.2449999 41
105.848 8.0950003 5.4520001 26
107.618 8.3509998 7.2639999 27
106.905 8.4219999 8.9320002 8
66.972 5.3460002 0.44600001 31
78.408997 6.3379998 1.765 42
91.111 7.4619999 3.4990001 39
106.531 8.842 5.789 26
106.41 8.9530001 7.4819999 36
108.485 9.2489996 9.3629999 8
32.132999 2.776 0.30399999 23
31.639999 2.7650001 0.80000001 3
31.836 2.8150001 1.3099999 7
59.110001 5.2919998 3.372 20
107.044 9.7069998 7.8150001 38
108.592 9.9759998 9.665 45
31.823 2.9560001 0.38499999 134
78.259003 7.3509998 2.184 12
58.037998 5.5149999 2.54 6
59.09 5.6810002 3.5250001 45
57.710999 5.6170001 4.3639998 49
108.315 10.668 9.9209995 35
86.427002 8.6040001 1.2690001 18
76.542999 7.698 2.3310001 7
58.174 5.914 2.6930001 35
58.216 5.9840002 3.619 14
107.345 11.159 8.3830004 50
108.848 11.447 10.239 26
0 0 0 0
58.581001 6.2849998 1.928 31
58.074001 6.2950001 2.8299999 46
58.445 6.401 3.7750001 28
109.418 12.109 8.8079996 23
0 0 0 0
92.067001 10.401 1.795 21
58.386002 6.6599998 2.059 33
57.544998 6.625 2.938 48
57.188 6.6500001 3.8269999 52
52.623001 6.1810002 4.3579998 2
52.632 6.2480001 5.198 41
74.386002 8.908 1.618 10
57.834 6.987 2.168 58
58.182999 7.0939999 3.099 62
58.233002 7.1680002 4.0240002 39
52.789001 6.5599999 4.4879999 24
52.351002 6.5710001 5.2859998 12
52.991001 6.71 1.267 47
52.941002 6.7579999 2.0969999 43
52.823002 6.802 2.9260001 47
58.349998 7.5819998 4.1560001 6
74.359001 9.7519999 6.4770002 36
52.495998 6.9530001 5.4109998 9
73.573997 9.8210001 1.908 8
58.606998 7.888 2.4419999 48
58.618 7.9549999 3.3659999 26
53.013 7.2540002 3.882 32
74.460999 10.279 6.6350002 32
0 0 0 0
62.451 8.7679996 1.74 7
58.681999 8.302 2.556 37
58.942001 8.4069996 3.4979999 38
61.533001 8.8439999 4.6220002 6
52.694 7.6409998 4.796 8
50.220001 7.3470001 5.3709998 1
62.564999 9.2209997 1.858 32
58.988998 8.757 2.677 13
58.983002 8.8199997 3.605 57
61.403999 9.2550001 4.723 27
61.472 9.3380003 5.7030001 21
50.181999 7.6880002 5.4549999 23
73.505997 11.347 2.3080001 20
62.967999 9.7880001 2.964 28
61.650002 9.6499996 3.872 6
74.779999 11.797 5.8800001 5
0 0 0 0
0 0 0 0
73.995003 11.945 2.4430001 36
73.389 11.926 3.573 21
62.874001 10.289 4.0500002 28
63.117001 10.404 5.0619998 40
56.326 9.3549995 5.4130001 35
49.757 8.3299999 5.5739999 7
74.860001 12.617 2.585 32
86.411003 14.656 4.3369999 22
84.640999 14.448 5.579 21
0 0 0 0
0 0 0 0
50.646 8.8380003 5.7480001 19
74.232002 13.039 2.6659999 12
85.847 15.171 4.427 10
85.333 15.181 5.7449999 21
0 0 0 0
58.187 10.493 5.7589998 26
50.862 9.243 5.8439999 4
74.433998 13.617 2.77 4
89.028 16.378 4.7059999 10
85.056 15.744 5.8340001 9
0 0 0 0
51.013 9.5649996 5.1129999 28
50.741001 9.5830002 5.8940001 14
70.68 13.438 2.714 11
0 0 0 0
0 0 0 0
0 0 0 0
50.868 9.9090004 5.1599998 8
50.808998 9.967 5.9629998 5
70.499001 13.917 2.7820001 38
0 0 0 0
0 0 0 0
0 0 0 0
55.277 11.17 5.6680002 25
51.401001 10.457 6.0900002 20
70.144997 14.359 2.836 34
0 0 0 0
0 0 0 0
55.384998 11.525 4.8530002 37
55.123001 11.542 5.7049999 44
51.355 10.824 6.1360002 31
70.128998 14.871 2.8970001 34
0 0 0 0
54.847 11.748 3.987 26
54.269001 11.688 4.803 24
53.662998 11.628 5.6020002 22
50.362999 10.981 6.0609999 9
55.228001 12.114 2.322 36
55.034 12.127 3.1760001 29
55.224998 12.235 4.0560002 28
55.874001 12.444 4.987 15
53.728001 12.034 5.6490002 4
50.186001 11.311 6.0780001 65
71.026001 16.103001 3.0309999 29
113.311 25.802999 6.6110001 22
0 0 0 0
54.228001 12.479 4.8769999 5
50.687 11.729 5.3649998 8
50.893002 11.848 6.1999998 19
112.19 26.264 4.8499999 38
112.225 26.389999 6.6110001 32
112.726 26.636999 8.4160004 31
0 0 0 0
50.544998 12.072 5.3800001 27
51.074001 12.271 6.2519999 5
111.448 26.929001 4.8670001 52
111.421 27.033001 6.6139998 29
112.093 27.323999 8.4209995 28
114.666 28.086 10.431 14
50.77 12.503 5.427 24
52.870998 13.095 6.4970002 13
110.841 27.610001 4.8740001 23
111.39 27.857 6.6469998 37
112.12 28.17 8.4630003 46
113.703 28.702 10.386 18
50.931 12.924 5.4640002 18
52.206001 13.323 6.4359999 18
56.796001 14.575 2.51 34
56.654999 14.597 3.3940001 39
56.380001 14.587 4.2680001 2
56.467999 14.679 5.171 44
56.145 14.667 6.0370002 5
52.23 13.722 6.4549999 9
56.075001 14.814 2.4860001 32
55.93 14.83 3.359 33
55.757999 14.847 4.23 3
123.021 32.902 11.288 16
60.689999 16.309 6.5380001 9
58.923 15.92 7.2919998 24
113.127 30.735001 5.0139999 29
113.787 31.023001 6.836 28
113.462 31.061001 8.6099997 26
0 0 0 0
60.228001 16.639 6.4910002 7
58.715 16.306 7.27 21
112.717 31.476999 4.9819999 28
114.268 32.028 6.855 30
113.473 31.931 8.6040001 26
118.315 33.438 10.854 27
59.473999 16.885 6.408 30
55.349998 15.794 6.8530002 39
112.527 32.287998 4.9510002 37
111.903 32.23 6.691 10
112.379 32.491001 8.5 30
118.06 34.27 10.813 15
58.083 16.938 6.2490001 18
55.297001 16.205999 6.8400002 8
112.141 33.050999 4.901 40
112.399 33.237 6.6869998 31
112.628 33.422001 8.4899998 38
0 0 0 0
57.924999 17.333 6.2199998 18
56.088001 16.865 6.9260001 16
112.822 34.112999 4.881 10
112.478 34.111 6.6459999 23
111.95 34.071999 8.3940001 18
58.063 17.740999 5.2810001 15
59.050999 18.124001 6.3210001 7
56.032001 17.275999 6.9029999 36
111.322 34.514999 4.7589998 13
112.216 34.893002 6.5760002 14
57.648998 17.987 4.2950001 17
56.583 17.719 5.1220002 9
59.066002 18.575001 6.296 2
58.709999 18.549 7.2069998 32
113.363 36.016998 4.7719998 10
56.773998 18.087999 3.2909999 7
57.486 18.375 4.2480001 18
0 0 0 0
0 0 0 0
55.497002 17.962 6.7839999 9
116.554 37.93 4.822 25
0 0 0 0
56.290001 18.426001 4.1220002 12
0 0 0 0
55.354 18.254999 5.835 25
55.006001 18.216999 6.691 9
116.452 38.786999 4.7199998 15
117.27 39.164001 6.618 20
119.996 40.202999 8.6949997 16
55.846001 18.775999 4.9439998 10
55.398998 18.698 5.7989998 29
53.41 18.101999 6.4580002 32
115.048 39.216 4.5539999 28
116.532 39.824001 6.4689999 42
118.966 40.777 8.5100002 29
63.412998 21.805 5.5580001 19
55.653999 19.212 5.7800002 18
53.067001 18.396 6.3740001 20
114.729 40.007999 4.4169998 34
115.621 40.411999 6.3000002 40
0 0 0 0
62.834999 22.094 5.4460001 33
54.831001 19.353001 5.6430001 26
53.219002 18.861 6.3429999 6
114.01 40.641998 4.2600002 15
116.623 41.669998 6.223 15
0 0 0 0
0 0 0 0
54.202999 19.546 5.5209999 9
54.257 19.643 6.4109998 9
113.293 41.259998 4.0879998 34
113.731 41.516998 5.9320002 34
115.025 42.099998 7.8509998 15
0 0 0 0
54.577 20.103001 5.4970002 8
55.483002 20.517 6.494 20
113.003 42.037998 3.9230001 28
0 0 0 0
114.176 42.675999 7.645 19
80.908997 30.327 6.7309999 39
54.536999 20.511 5.4250002 19
56.176998 21.208 6.5079999 24
112.616 42.768002 3.747 26
114.483 43.563999 5.652 15
104.678 39.93 6.8610001 12
81.123001 31.035999 6.638 21
54.390999 20.877001 5.3379998 28
54.299 20.915001 6.2210002 24
114.762 44.48 3.638 11
122.386 47.523998 5.8540001 12
104.834 40.803001 6.7140002 16
81.528999 31.815001 6.5500002 15
62.889 24.618999 6.0809999 26
54.129002 21.263 6.125 35
132.383 52.330002 3.973 15
64.057999 25.368999 2.961 21
73.044998 28.989 4.5650001 112
63.335999 25.202 4.9910002 10
62.162998 24.808001 5.9190001 5
54.334 21.759001 6.0679998 27
63.928001 25.764999 1.807 34
63.884998 25.788 2.8429999 20
63.539001 25.702 3.862 21
72.653999 29.464001 5.6040001 6
61.299999 24.933001 5.7350001 18
60.292 24.604 6.6360002 40
16.181999 6.6459999 0.426 2
72.672997 29.895 3.1029999 115
63.639 26.225 3.7550001 8
62.326 25.749001 4.7010002 10
61.452 25.461 5.6469998 25
60.946999 25.336 6.6069999 30
15.892 6.6490002 0.38800001 34
72.468002 30.365 2.9530001 150
72.433998 30.409 4.1370001 38
94.347 39.695 6.941 38
60.069 25.343 5.4089999 45
60.848999 25.752001 6.4889998 29
15.558 6.6290002 0.34799999 48
94.149002 40.173 3.6489999 6
95.181999 40.686001 5.25 8
94.008003 40.269001 6.7360001 21
59.958 25.752001 5.2870002 6
60.981998 26.273001 6.3889999 25
15.327 6.6490002 0.30899999 48
0 0 0 0
112.558 48.966999 5.973 11
93.528999 40.778999 6.5110002 19
79.593002 34.792 6.8590002 7
0 0 0 0
15.22 6.7189999 0.273 53
16.018 7.0799999 0.551 0
0 0 0 0
93.556 41.494999 6.3119998 23
76.634003 34.074001 6.4429998 20
62.73 27.976 6.322 26
15.087 6.777 0.235 52
15.697 7.0580001 0.50300002 24
0 0 0 0
97.183998 43.847 6.3369999 24
63.366001 28.653999 5.1890001 10
62.111 28.169001 6.1259999 37
14.956 6.8330002 0.197 46
15.46 7.0689998 0.45899999 35
0 0 0 0
101.58 46.592999 6.3920002 9
63.205002 29.056999 5.0320001 10
62.237 28.690001 5.9970002 10
14.863 6.9029999 0.15700001 45
15.236 7.0830002 0.414 47
0 0 0 0
0 0 0 0
0 0 0 0
76.231003 35.707001 7.1700001 7
14.779 6.9759998 0.117 44
15.109 7.1370001 0.37200001 48
33.612 15.898 1.387 21
155.733 73.768997 9.0360003 22
0 0 0 0
0 0 0 0
14.7 7.0489998 0.077 47
14.993 7.1929998 0.329 48
33.228001 15.96 1.284 49
145.32401 69.906998 8.0539999 19
0 0 0 0
0 0 0 0
14.596 7.1090002 0.035 55
14.899 7.2589998 0.28600001 48
15.447 7.5320001 0.55599999 6
130.172 63.568001 6.8759999 15
133.743 65.441002 9.3149996 54
0 0 0 0
14.548 7.1929998 -0.0060000001 44
14.841 7.3410001 0.242 47
15.411 7.6279998 0.51099998 22
129.94099 64.408997 6.506 15
0 0 0 0
0 0 0 0
14.477 7.2659998 -0.050000001 46
14.756 7.4070001 0.197 46
15.247 7.658 0.46200001 41
0 0 0 0
0 0 0 0
131.935 66.608002 10.714 22
14.431 7.348 -0.093000002 45
14.662 7.4660001 0.152 47
15.117 7.7030001 0.41299999 44
24.4 12.446 1.08 10
128.158 65.471001 7.8590002 27
131.761 67.449997 10.325 22
14.406 7.4400001 -0.139 45
14.592 7.5349998 0.106 48
14.975 7.737 0.36300001 46
23.441 12.124 0.96799999 38
0 0 0 0
180.043 93.433998 13.591 31
14.369 7.5250001 -0.185 40
14.551 7.619 0.059999999 44
14.914 7.8119998 0.315 47
22.855 11.981 0.87300003 38
23.688 12.435 1.3099999 26
172.44299 90.699997 12.501 28
14.32 7.6009998 -0.23100001 41
14.483 7.6859999 0.012 48
14.838 7.8759999 0.26699999 47
22.433001 11.916 0.787 44
22.952999 12.207 1.2 36
24.162001 12.873 1.678 18
14.33 7.7069998 -0.28 44
14.456 7.7719998 -0.035 42
14.803 7.96 0.21699999 47
22.135 11.91 0.70499998 43
22.459999 12.098 1.102 40
23.344 12.596 1.548 39
14.357 7.822 -0.33000001 37
14.438 7.8629999 -0.082999997 46
14.765 8.0410004 0.168 49
15.354 8.3649998 0.43900001 0
22.131001 12.071 1.015 38
22.695 12.398 1.432 33
14.382 7.9349999 -0.382 45
14.436 7.961 -0.13500001 48
14.715 8.1140003 0.116 49
15.267 8.4219999 0.38499999 2
21.899 12.091 0.93099999 47
22.181 12.265 1.327 42
14.371 8.0279999 -0.433 43
14.449 8.0649996 -0.186 44
14.673 8.1890001 0.064999998 44
15.339 8.5629997 0.333 2
21.724001 12.139 0.85000002 44
21.922001 12.265 1.238 46
14.422 8.1540003 -0.48800001 43
14.461 8.1689997 -0.23800001 50
14.684 8.2930002 0.012 45
21.370001 12.07 0.38999999 36
21.466999 12.134 0.76499999 46
21.681999 12.271 1.149 44
14.686 8.4020004 -0.55299997 34
14.513 8.2939997 -0.292 40
14.695 8.3950005 -0.039999999 44
21.176001 12.098 0.31 58
21.283001 12.167 0.68300003 46
21.464001 12.284 1.063 49
14.541 8.415 -0.60299999 36
14.562 8.4169998 -0.34900001 40
14.75 8.5209999 -0.094999999 44
21.146 12.216 0.23199999 47
21.136999 12.217 0.602 41
21.280001 12.311 0.97899997 43
14.749 8.6300001 -0.66900003 39
14.651 8.5620003 -0.40799999 38
14.895 8.6999998 -0.152 42
20.931999 12.224 0.152 54
21.011 12.273 0.52200001 47
21.134001 12.357 0.89499998 43
15.081 8.9200001 -0.74400002 34
14.864 8.7790003 -0.47099999 34
14.963 8.8310003 -0.20999999 9
20.860001 12.307 0.074000001 54
20.872999 12.319 0.44100001 51
20.99 12.398 0.81199998 42
15.931 9.5209999 -0.85000002 29
20.877001 12.459 -0.74299997 17
20.853001 12.433 -0.373 43
20.759001 12.372 -0.0049999999 55
20.757 12.373 0.36000001 54
20.846001 12.434 0.73000002 48
15.879 9.5860004 -0.91000003 23
15.884 9.5749998 -0.62900001 6
20.771 12.506 -0.45300001 52
20.702999 12.458 -0.083999999 40
20.657 12.432 0.28 55
20.737 12.486 0.64899999 35
13.107 7.9899998 -0.80500001 3
15.821 9.6280003 -0.69 20
20.844 12.671 -0.537 37
20.587999 12.508 -0.16500001 43
20.577999 12.5 0.2 53
20.607 12.524 0.565 49
12.822 7.8920002 -0.84200001 13
15.773 9.691 -0.75300002 23
20.806999 12.766 -0.62099999 30
20.868999 12.794 -0.25099999 30
20.497999 12.565 0.118 50
20.499001 12.57 0.48199999 50
12.595 7.8239999 -0.88 37
15.725 9.7489996 -0.815 23
20.754999 12.849 -0.704 22
20.629999 12.761 -0.331 21
20.429001 12.632 0.035 49
20.399 12.618 0.39899999 53
12.336 7.7329998 -0.91500002 43
15.678 9.8070002 -0.88 33
15.685 9.7959995 -0.59799999 0
20.447001 12.756 -0.412 49
20.327999 12.676 -0.046 49
20.297001 12.659 0.315 54
11.987 7.5780001 -0.94 37
13.102 8.2650003 -0.79000002 1
15.63 9.842 -0.66100001 11
20.417999 12.843 -0.49599999 38
20.295 12.758 -0.12800001 36
20.219999 12.711 0.233 47
11.544 7.3590002 -0.95599997 33
12.835 8.1619997 -0.829 14
15.594 9.8979998 -0.72500002 22
20.354 12.902 -0.57800001 54
20.27 12.841 -0.20999999 55
20.16 12.771 0.152 46
11.05 7.0999999 -0.963 47
12.467 7.9899998 -0.85900003 32
15.553 9.948 -0.78899997 30
20.316 12.976 -0.66299999 34
20.198999 12.892 -0.29300001 51
20.084999 12.816 0.068000004 54
10.564 6.8400002 -0.96700001 49
12.258 7.915 -0.898 36
15.515 9.9969997 -0.85299999 30
20.209 13.001 -0.745 19
20.188999 12.976 -0.37799999 45
20.114 12.924 -0.014 41
10.368 6.7610002 -0.99599999 36
11.864 7.7150002 -0.921 37
15.484 10.046 -0.91799998 30
15.474 10.023 -0.63499999 6
14.177 9.1739998 -0.32499999 0
20.150999 13.033 -0.097000003 36
10.131 6.652 -1.018 40
11.284 7.388 -0.92500001 39
12.858 8.3979998 -0.81900001 4
13.944 9.0909996 -0.63200003 14
13.96 9.0909996 -0.37900001 37
20.143999 13.111 -0.182 37
10.107 6.6799998 -1.061 38
10.717 7.0609999 -0.926 47
12.487 8.2080002 -0.84899998 34
13.893 9.1140003 -0.69 30
13.841 9.0679998 -0.435 32
13.914 9.1090002 -0.184 21
10.117 6.7290001 -1.107 37
10.445 6.9239998 -0.949 42
12.2 8.0670004 -0.88200003 43
13.782 9.0950003 -0.74400002 31
13.675 9.0109997 -0.48800001 34
13.71 9.026 -0.23899999 28
10.209 6.8299999 -1.163 31
10.197 6.7989998 -0.972 37
11.84 7.8730001 -0.90799999 36
13.571 9.0050001 -0.79100001 29
13.498 8.9420004 -0.53899997 30
13.672 9.0480003 -0.29699999 30
10.068 6.7729998 -1.192 41
10.219 6.8509998 -1.0190001 38
11.407 7.6240001 -0.92500001 44
13.044 8.6990004 -0.81699997 31
13.468 8.967 -0.597 33
13.575 9.0279999 -0.352 29
10.039 6.789 -1.234 37
10.116 6.816 -1.054 35
10.876 7.3060002 -0.93000001 44
12.495 8.3730001 -0.83700001 38
13.471 9.0109997 -0.65499997 35
13.462 8.993 -0.40700001 27
10.054 6.8319998 -1.2819999 40
10.132 6.8590002 -1.101 36
10.649 7.1859999 -0.958 41
12.202 8.2130003 -0.87099999 36
13.53 9.0889997 -0.71600002 29
13.352 8.9569998 -0.461 34
10.13 6.915 -1.3380001 42
10.051 6.8340001 -1.137 40
10.185 6.902 -0.96100003 41
11.873 8.0240002 -0.89899999 39
13.444 9.0670004 -0.76899999 29
13.287 8.948 -0.51599997 28
10.116 6.9330001 -1.381 39
10.015 6.836 -1.178 43
9.9910002 6.796 -0.986 52
11.411 7.7399998 -0.91399997 37
13.26 8.974 -0.81599998 31
13.296 8.9849997 -0.57300001 33
10.179 7.0029998 -1.4349999 25
9.9940004 6.8460002 -1.219 38
9.974 6.8080001 -1.029 47
11.107 7.559 -0.93800002 36
12.728 8.6420002 -0.838 38
13.381 9.0699997 -0.63499999 28
10.075 6.9549999 -1.467 31
10.001 6.8740001 -1.2640001 42
9.9820004 6.835 -1.073 42
10.562 7.21 -0.93800002 39
12.219 8.3199997 -0.85799998 37
13.329 9.0600004 -0.68900001 29
10.084 6.9819999 -1.513 34
9.9860001 6.8829999 -1.307 50
9.9969997 6.8629999 -1.119 52
10.218 6.993 -0.95099998 41
12.018 8.2040005 -0.89399999 35
13.235 9.0170002 -0.74000001 28
10.063 6.9860001 -1.554 35
10.048 6.9419999 -1.359 41
10.001 6.8829999 -1.1619999 46
10.012 6.8670001 -0.97399998 38
11.717 8.0150003 -0.921 36
13.202 9.0120001 -0.79299998 27
10.027 6.9759998 -1.5930001 26
10.104 6.9959998 -1.41 39
10.02 6.9089999 -1.207 37
9.9589996 6.8439999 -1.011 46
11.189 7.6669998 -0.92699999 38
12.773 8.7329998 -0.82200003 30
9.9530001 6.9369998 -1.624 19
10.094 7.0009999 -1.452 36
9.9940004 6.9029999 -1.248 35
9.9759998 6.8649998 -1.056 49
10.835 7.434 -0.94400001 45
12.408 8.4940004 -0.85000002 38
9.941 6.9390001 -1.665 18
10.082 7.0029998 -1.494 37
9.9919996 6.9089999 -1.29 33
9.993 6.8839998 -1.1 48
10.264 7.0489998 -0.93699998 44
12.11 8.2969999 -0.88099998 36
9.8900003 6.9120002 -1.7 15
