# .PCD v0.7 - Point Cloud Data file format
VERSION 0.7
FIELDS x y z intensity
SIZE 4 4 4 4
TYPE F F F F
COUNT 1 1 1 1
WIDTH 1748
HEIGHT 1
VIEWPOINT 0 0 0 1 0 0 0
POINTS 1748
DATA ascii
11.959 -4.5139999 -1.878 8
13.575 -5.085 -1.87 7
15.648 -5.8179998 -1.859 10
18.290001 -6.7550001 -1.829 13
9.8620005 -3.7290001 -1.88 10
10.963 -4.1079998 -1.874 9
12.372 -4.599 -1.876 9
14.073 -5.191 -1.865 8
16.334999 -5.9819999 -1.855 11
19.072001 -6.9390001 -1.8099999 13
10.162 -3.7820001 -1.88 10
11.325 -4.178 -1.874 9
12.812 -4.6880002 -1.874 9
14.618 -5.3080001 -1.8609999 8
17.01 -6.132 -1.845 11
20.080999 -7.191 -1.8049999 12
10.466 -3.832 -1.878 10
11.695 -4.2449999 -1.873 9
13.251 -4.77 -1.868 8
15.192 -5.427 -1.855 9
17.723 -6.2870002 -1.8329999 12
21.115999 -7.441 -1.794 13
10.793 -3.8859999 -1.878 9
12.093 -4.316 -1.872 9
13.71 -4.8540001 -1.862 8
15.839 -5.5650001 -1.854 10
18.492001 -6.4520001 -1.821 13
22.148001 -7.6750002 -1.773 8
11.126 -3.938 -1.877 9
12.498 -4.3850002 -1.87 9
14.22 -4.9489999 -1.859 8
16.507 -5.7020001 -1.85 11
19.299999 -6.6199999 -1.806 14
23.27 -7.9289999 -1.752 7
11.486 -3.9949999 -1.877 9
12.926 -4.4559999 -1.867 10
14.756 -5.0469999 -1.8559999 8
17.174999 -5.829 -1.841 11
20.302 -6.842 -1.802 14
24.690001 -8.2659998 -1.742 6
11.836 -4.0430002 -1.874 10
13.35 -4.5209999 -1.862 9
15.303 -5.1409998 -1.848 9
17.832001 -5.9450002 -1.825 12
21.240999 -7.0310001 -1.786 14
25.936001 -8.5290003 -1.71 5
12.239 -4.1040001 -1.876 10
13.79 -4.585 -1.855 9
15.922 -5.2509999 -1.847 10
18.603001 -6.0890002 -1.816 13
22.261999 -7.2360001 -1.7690001 12
27.323999 -8.823 -1.678 5
12.627 -4.1529999 -1.872 10
14.275 -4.6560001 -1.851 8
16.572001 -5.3629999 -1.844 11
19.402 -6.2309999 -1.804 14
23.302 -7.4310002 -1.745 7
29.243 -9.2639999 -1.665 5
13.031 -4.2049999 -1.869 9
14.775 -4.7270002 -1.845 9
17.229 -5.4679999 -1.836 12
20.205 -6.3629999 -1.7869999 15
24.615999 -7.6989999 -1.734 7
31.146 -9.6750002 -1.637 5
13.452 -4.2550001 -1.865 10
15.305 -4.7989998 -1.84 9
17.898001 -5.5669999 -1.826 13
21.281 -6.5700002 -1.786 15
25.84 -7.9200001 -1.707 6
32.991001 -10.045 -1.5930001 5
13.862 -4.2950001 -1.8559999 10
15.883 -4.8800001 -1.837 10
18.566 -5.658 -1.811 13
22.195 -6.7129998 -1.767 10
27.275 -8.191 -1.6849999 5
35.463001 -10.577 -1.563 4
14.307 -4.3400002 -1.851 8
16.507999 -4.9650002 -1.835 11
19.344 -5.7719998 -1.803 14
23.115 -6.8439999 -1.7410001 9
28.812 -8.4709997 -1.66 5
39.396999 -11.506 -1.575 5
14.798 -4.3940001 -1.848 8
17.122 -5.0409999 -1.829 11
20.166 -5.8899999 -1.794 15
24.41 -7.0749998 -1.738 8
30.839001 -8.8719997 -1.651 6
40.262001 -11.505 -1.449 12
15.272 -4.4349999 -1.841 9
17.729 -5.1040001 -1.818 12
20.997 -5.9970002 -1.78 17
25.412001 -7.2030001 -1.706 6
32.416 -9.1199999 -1.605 5
43.380001 -12.124 -1.392 2
15.807 -4.4879999 -1.8380001 10
18.355 -5.165 -1.807 13
21.862 -6.1009998 -1.7640001 12
26.738001 -7.4060001 -1.688 6
34.465 -9.4759998 -1.573 5
46.404999 -12.673 -1.311 7
16.358 -4.5349998 -1.834 10
19.062 -5.2379999 -1.798 14
22.813 -6.2179999 -1.751 13
28.000999 -7.573 -1.659 5
35.662998 -9.5749998 -1.4910001 1
50.902 -13.573 -1.248 23
16.948 -4.586 -1.831 11
19.763 -5.302 -1.7869999 15
23.830999 -6.3400002 -1.7359999 11
29.540001 -7.796 -1.638 5
37.823002 -9.9090004 -1.441 1
51.521 -13.406 -1.077 6
17.523001 -4.625 -1.824 12
20.525 -5.3699999 -1.777 16
24.777 -6.428 -1.712 9
31.253 -8.0450001 -1.617 5
41.186001 -10.522 -1.4220001 5
53.675999 -13.617 -0.93099999 2
18.101999 -4.6570001 -1.8150001 12
21.299999 -5.4299998 -1.763 16
25.836 -6.5310001 -1.6900001 7
32.959 -8.2670002 -1.5880001 5
43.641998 -10.863 -1.353 1
0 0 0 0
18.728001 -4.6900001 -1.807 13
22.1 -5.4860001 -1.749 13
27.024 -6.6529999 -1.6720001 7
34.304001 -8.3739996 -1.5319999 5
45.729 -11.08 -1.261 1
66.089996 -15.898 -0.69800001 10
19.351999 -4.7160001 -1.7970001 14
22.954 -5.5430002 -1.735 13
28.257999 -6.7670002 -1.651 6
0 0 0 0
49.777 -11.73 -1.2079999 22
0 0 0 0
19.999001 -4.7379999 -1.788 15
23.853001 -5.6009998 -1.723 12
29.52 -6.8720002 -1.626 6
0 0 0 0
51.84 -11.876 -1.0930001 19
87.344002 -19.864 -0.368 8
20.698999 -4.7639999 -1.78 16
24.73 -5.6399999 -1.7029999 12
30.792999 -6.9629998 -1.597 5
0 0 0 0
52.587002 -11.697 -0.94700003 3
0 0 0 0
21.385 -4.7750001 -1.768 17
25.552 -5.6539998 -1.678 9
32.305 -7.086 -1.574 6
42.824001 -9.3140001 -1.363 7
57.030998 -12.302 -0.85500002 21
0 0 0 0
22.046 -4.7719998 -1.753 18
26.507999 -5.684 -1.658 7
33.916 -7.2069998 -1.549 6
45.740002 -9.6389999 -1.3200001 31
46.231998 -9.6619997 -0.55900002 2
46.209 -9.5799999 0.212 67
22.799 -4.7789998 -1.744 16
27.466999 -5.7020001 -1.637 8
34.926998 -7.1849999 -1.494 4
45.888 -9.3599997 -1.194 63
46.272999 -9.3590002 -0.43099999 78
57.886002 -11.615 0.42300001 14
23.475 -4.7600002 -1.727 12
28.719999 -5.7680001 -1.6289999 7
0 0 0 0
45.971001 -9.0649996 -1.071 12
0 0 0 0
0 0 0 0
24.308001 -4.7620001 -1.719 12
29.721001 -5.7649999 -1.604 6
0 0 0 0
50.743999 -9.6610003 -1.048 18
0 0 0 0
96.661003 -18.087 1.2029999 87
24.969999 -4.7179999 -1.698 11
30.707001 -5.744 -1.576 6
40.000999 -7.4099998 -1.388 1
51.421001 -9.4370003 -0.93199998 7
89.059998 -16.202999 -0.145 8
0 0 0 0
25.68 -4.6739998 -1.679 9
32.008999 -5.7680001 -1.562 7
45.529999 -8.1219997 -1.4680001 5
48.685001 -8.6020002 -0.76599997 86
89.315002 -15.641 0.063000001 10
100.4 -17.427999 1.72 41
26.472 -4.6350002 -1.665 8
33.098 -5.7360001 -1.535 7
43.800999 -7.5139999 -1.309 2
48.764 -8.2840004 -0.65499997 80
53.075001 -8.934 0.156 25
69.422997 -11.58 1.342 28
27.332001 -4.5949998 -1.655 8
33.960999 -5.6500001 -1.498 6
45.637001 -7.5139999 -1.262 12
48.929001 -7.9749999 -0.551 52
50.549999 -8.1599998 0.257 6
69.050003 -11.046 1.478 51
28.049999 -4.5190001 -1.635 7
34.924 -5.566 -1.4630001 5
45.812 -7.224 -1.169 4
50.074001 -7.8150001 -0.45899999 70
50.511002 -7.8070002 0.359 3
69.009003 -10.563 1.614 50
28.783001 -4.4369998 -1.6160001 7
35.941002 -5.48 -1.431 5
49.762001 -7.5050001 -1.169 33
50.084 -7.4699998 -0.361 65
53.222 -7.862 0.47999999 2
46.740002 -6.8330002 1.1799999 6
29.613001 -4.3579998 -1.604 8
0 0 0 0
46.535 -6.6950002 -1.005 37
46.501999 -6.6170001 -0.249 125
55.730999 -7.848 0.60299999 51
69.999001 -9.7550001 1.891 28
30.298 -4.25 -1.584 8
38.291 -5.3080001 -1.38 1
50.702999 -6.9460001 -1.005 58
55.873001 -7.5700002 -0.20299999 89
55.965 -7.4959998 0.69999999 25
69.978996 -9.2729998 2.0050001 21
31.136999 -4.1500001 -1.573 7
0 0 0 0
51.508999 -6.698 -0.93400002 66
0 0 0 0
56.104 -7.1259999 0.792 86
117.102 -14.714 3.536 29
31.743 -4.0079999 -1.55 8
0 0 0 0
51.085999 -6.2870002 -0.847 37
86.185997 -10.476 -0.041999999 18
57.737 -6.9330001 0.89999998 3
101.287 -12.025 3.204 10
32.344002 -3.8559999 -1.529 7
44.473 -5.2309999 -1.387 2
52.09 -6.0489998 -0.78799999 34
56.460999 -6.4720001 0.052000001 80
57.903999 -6.5510001 0.98100001 43
101.678 -11.362 3.352 13
33.081001 -3.711 -1.517 7
44.625999 -4.9359999 -1.33 4
51.762001 -5.6459999 -0.713 25
0 0 0 0
102.355 -10.878 1.862 7
0 0 0 0
33.414001 -3.5139999 -1.488 7
44.805 -4.6409998 -1.279 4
51.798 -5.2880001 -0.64999998 42
58.191002 -5.8579998 0.197 53
0 0 0 0
0 0 0 0
34.234001 -3.359 -1.484 7
44.891998 -4.3369999 -1.23 4
0 0 0 0
56.596001 -5.3049998 0.252 96
0 0 0 0
101.566 -9.2370005 3.6849999 25
34.518002 -3.142 -1.459 6
45.075001 -4.0370002 -1.188 4
0 0 0 0
0 0 0 0
56.813 -4.8470001 1.211 28
84.177002 -7.0739999 3.1289999 7
34.615002 -2.908 -1.4299999 4
45.082001 -3.723 -1.147 2
54.004002 -4.3790002 -0.51700002 23
0 0 0 0
56.995998 -4.4679999 1.26 26
82.805 -6.382 3.142 28
34.898998 -2.6849999 -1.413 5
46.931999 -3.543 -1.156 14
56.963001 -4.2199998 -0.50199997 5
57.159 -4.1529999 0.40000001 21
57.193001 -4.0840001 1.3049999 35
82.803001 -5.8010001 3.198 39
35.584 -2.4860001 -1.415 7
47.102001 -3.224 -1.1289999 15
51.686001 -3.4660001 -0.42199999 9
57.348999 -3.77 0.43599999 51
60.266998 -3.8829999 1.41 8
82.996002 -5.243 3.2509999 31
35.424 -2.2260001 -1.388 5
47.425999 -2.914 -1.109 45
53.695999 -3.224 -0.41 7
48 -2.8169999 0.38999999 1
47.938 -2.753 1.1440001 42
83.746002 -4.7030001 3.3180001 24
36.034 -2.0079999 -1.3940001 6
47.460999 -2.5799999 -1.089 43
47.931999 -2.5409999 -0.345 70
113.118 -5.8530002 0.963 23
47.861 -2.4119999 1.16 3
82.780998 -4.0679998 3.3080001 11
36.103001 -1.755 -1.3839999 16
47.576 -2.2490001 -1.076 42
57.592999 -2.6459999 -0.398 6
54.289001 -2.421 0.477 5
54.629002 -2.369 1.337 2
82.973999 -3.4949999 3.3340001 12
36.368 -1.511 -1.385 12
47.444 -1.908 -1.063 13
58.611 -2.2839999 -0.39399999 20
53.402 -2.0150001 0.477 50
53.835999 -1.964 1.325 6
98.375 -3.467 3.964 7
36.501999 -1.262 -1.386 7
47.558998 -1.585 -1.061 8
58.108002 -1.862 -0.38600001 49
53.055 -1.636 0.477 51
53.532001 -1.584 1.319 22
73.290001 -2.079 2.9530001 26
36.354 -1.002 -1.38 7
47.699001 -1.252 -1.0650001 10
54.833 -1.37 -0.36700001 2
52.977001 -1.261 0.47299999 33
53.444 -1.206 1.312 10
72.903 -1.554 2.9289999 32
36.168999 -0.74000001 -1.378 4
47.763 -0.91799998 -1.073 13
53.752998 -0.96700001 -0.36899999 12
53.255001 -0.89300001 0.465 27
53.648998 -0.83700001 1.306 19
73.336998 -1.056 2.931 30
0 0 0 0
46.131001 -0.56400001 -1.048 2
57.240002 -0.62900001 -0.40799999 58
53.431999 -0.52200001 0.45100001 21
53.880001 -0.463 1.295 11
73.439003 -0.54400003 2.9100001 47
35.574001 -0.22499999 -1.376 15
46.285 -0.237 -1.0700001 4
56.622002 -0.226 -0.426 41
53.393002 -0.147 0.42899999 16
53.617001 -0.086999997 1.266 11
69.366997 -0.032000002 2.7179999 23
35.542 0.024 -1.392 6
46.299 0.083999999 -1.0930001 4
56.053001 0.167 -0.44999999 37
53.546001 0.22 0.40200001 7
53.676998 0.28200001 1.239 7
69.276001 0.44400001 2.6760001 34
34.938 0.26800001 -1.3890001 6
46.353001 0.40599999 -1.122 5
55.990002 0.55299997 -0.484 34
59.687 0.65700001 0.41100001 2
53.259998 0.64999998 1.194 6
69.364998 0.92500001 2.6340001 3
34.855999 0.50999999 -1.411 6
46.487999 0.73299998 -1.159 4
0 0 0 0
59.333 1.066 0.36399999 16
107.291 2.0480001 2.325 20
105.719 2.1370001 3.9330001 29
34.460999 0.74400002 -1.423 6
0 0 0 0
54.881001 1.308 -0.56300002 46
57.080002 1.424 0.30000001 18
0 0 0 0
104.595 2.8410001 3.7969999 38
22.723 0.653 -0.95999998 69
0 0 0 0
54.514 1.681 -0.61199999 39
56.477001 1.8 0.242 17
110.756 3.6500001 2.1930001 9
103.298 3.517 3.6470001 24
22.316999 0.796 -0.96700001 66
41.393002 1.518 -1.152 1
0 0 0 0
56.011002 2.1689999 0.17900001 21
81.262001 3.2309999 1.52 23
106.148 4.335 3.632 26
21.815001 0.92699999 -0.97100002 68
40.744999 1.773 -1.182 2
52.661999 2.348 -0.71100003 25
55.297001 2.526 0.109 20
79.931999 3.7349999 1.397 13
105.139 5.0240002 3.4679999 11
21.096001 1.045 -0.96700001 72
26.481001 1.339 -0.80299997 26
49.785 2.5639999 -0.73799998 32
55.437 2.911 0.037 24
81.551003 4.3699999 1.318 13
49.910999 2.7260001 1.58 44
20.688 1.168 -0.97799999 60
21.549999 1.238 -0.68400002 80
21.594 1.261 -0.35100001 150
22.879999 1.358 -0.017000001 95
49.792 3.007 0.73299998 52
49.714001 3.0550001 1.502 2
19.823 1.258 -0.96799999 54
20.304001 1.306 -0.676 61
19.936001 1.301 -0.35499999 47
20.030001 1.327 -0.046 89
25.843 1.738 0.34 0
62.634998 4.276 1.795 14
19.559999 1.376 -0.98799998 63
24.24 1.727 -0.84799999 42
20.267 1.4630001 -0.39399999 76
26.441 1.934 -0.105 39
104.512 7.7410002 1.204 20
61.507 4.6139998 1.6619999 5
19.242001 1.485 -1.006 66
21.716 1.6950001 -0.79799998 150
25.745001 2.0320001 -0.546 7
27.171 2.1700001 -0.155 14
27.315001 2.207 0.266 12
61.765999 5.0539999 1.559 7
18.912001 1.59 -1.025 64
20.267 1.721 -0.78299999 53
26.391001 2.2639999 -0.61000001 13
27.634001 2.3959999 -0.20999999 27
27.856001 2.441 0.219 6
61.605999 5.454 1.4400001 3
18.844 1.714 -1.059 58
22.719999 2.085 -0.92400002 58
28.334999 2.625 -0.71200001 32
27.594 2.5799999 -0.26499999 26
76.555 7.2309999 0.449 6
61.57 5.8730001 1.3150001 15
18.784 1.8380001 -1.096 63
19.972 1.97 -0.85500002 4
26.976 2.684 -0.736 34
53.445999 5.3600001 -0.62800002 22
61.676998 6.2399998 0.23199999 44
61.575001 6.289 1.186 37
18.868999 1.975 -1.1440001 59
20.309999 2.142 -0.91500002 12
26.441999 2.809 -0.77999997 53
29.297001 3.1359999 -0.40900001 24
29.414 3.1730001 0.045000002 21
0 0 0 0
18.843 2.0999999 -1.187 62
19.785 2.2190001 -0.93800002 52
25.666 2.8970001 -0.81699997 70
29.662001 3.372 -0.48300001 11
29.82 3.4130001 -0.021 48
104.252 12.024 1.541 15
18.85 2.227 -1.234 59
19.362 2.3010001 -0.96499997 63
25.863001 3.0910001 -0.88599998 75
29.487 3.5469999 -0.551 6
29.739 3.602 -0.093000002 1
65.413002 7.9749999 0.81099999 5
18.927999 2.3640001 -1.289 63
18.969999 2.381 -0.995 64
23.646 2.984 -0.87099999 39
29.531 3.75 -0.62699997 38
30.454 3.891 -0.17299999 19
30.572001 3.9319999 0.301 26
19 2.5 -1.345 58
18.955 2.506 -1.045 58
23.497 3.122 -0.92799997 60
28.843 3.852 -0.68900001 33
30.747999 4.1300001 -0.25600001 36
30.298 4.0929999 0.219 111
14.554 2.0120001 -1.072 18
19.018999 2.6389999 -1.102 64
20.378 2.842 -0.861 35
28.285999 3.9630001 -0.75300002 54
30.112 4.2420001 -0.333 2
59.289001 8.3999996 0.26699999 21
14.499 2.1010001 -1.11 53
14.534 2.1140001 -0.88499999 0
20.284 2.9630001 -0.917 65
24.132 3.539 -0.71200001 9
31.353001 4.6209998 -0.43599999 27
31.598 4.6820002 0.052999999 17
14.38 2.1800001 -1.145 48
14.438 2.1949999 -0.92199999 10
19.268 2.941 -0.92799997 62
23.423 3.589 -0.76200002 30
31.660999 4.8730001 -0.53399998 26
31.855 4.9250002 -0.039000001 39
14.206 2.2460001 -1.176 61
14.282 2.2650001 -0.95700002 53
19.077999 3.036 -0.97899997 62
22.577 3.6070001 -0.80400002 53
0 0 0 0
32.077999 5.1659999 -0.13699999 9
14.132 2.3280001 -1.217 44
14.144 2.336 -0.99400002 49
19.103001 3.164 -1.041 62
21.622999 3.5929999 -0.838 70
0 0 0 0
32.014 5.3610001 -0.237 1
14.13 2.4200001 -1.265 34
13.996 2.402 -1.031 47
19.275999 3.3169999 -1.115 60
20.285999 3.5009999 -0.85299999 59
25.378 4.3940001 -0.66799998 27
32.613998 5.6680002 -0.347 28
13.954 2.4790001 -1.2970001 50
13.828 2.4619999 -1.066 47
14.532 2.5929999 -0.88999999 10
19.541 3.4960001 -0.88800001 57
23.393999 4.1989999 -0.69400001 27
32.869999 5.921 -0.45899999 19
13.784 2.539 -1.332 47
13.71 2.53 -1.1059999 49
14.35 2.6530001 -0.93000001 49
19.320999 3.5799999 -0.94599998 55
22.283001 4.1409998 -0.73900002 58
0 0 0 0
13.744 2.6199999 -1.3789999 50
13.615 2.599 -1.149 55
13.865 2.651 -0.949 58
19.365999 3.711 -1.018 47
21.094 4.052 -0.77399999 52
27.639999 5.3249998 -0.579 13
13.66 2.691 -1.423 50
13.477 2.658 -1.188 60
13.549 2.6760001 -0.97799999 54
14.718 2.9119999 -0.82800001 0
20.070999 3.98 -0.81099999 49
26.054001 5.1810002 -0.63999999 31
13.505 2.7460001 -1.46 50
13.423 2.7320001 -1.235 54
13.317 2.714 -1.012 59
14.685 2.997 -0.88200003 25
19.438999 3.9760001 -0.85799998 49
26.323999 5.3959999 -0.745 54
13.512 2.8329999 -1.516 43
13.365 2.8039999 -1.284 47
13.227 2.777 -1.057 54
14.342 3.016 -0.917 42
19.371 4.0819998 -0.93000001 58
27.018 5.704 -0.86799997 44
13.305 2.8729999 -1.548 46
13.257 2.8640001 -1.327 57
13.146 2.842 -1.104 45
13.903 3.0090001 -0.94499999 52
19.398001 4.2049999 -1.008 52
21.002001 4.5609999 -0.75700003 16
13.303 2.957 -1.605 32
13.202 2.9349999 -1.378 53
13.161 2.927 -1.161 48
13.252 2.95 -0.95499998 56
15.009 3.345 -0.84100002 3
0 0 0 0
13.167 3.0079999 -1.646 21
13.177 3.01 -1.432 45
13.092 2.9909999 -1.21 48
13.042 2.9820001 -0.995 56
14.617 3.345 -0.88 28
0 0 0 0
12.938 3.0350001 -1.675 10
13.338 3.128 -1.5089999 44
12.942 3.036 -1.253 44
12.971 3.0439999 -1.045 48
14.21 3.3369999 -0.91500002 43
21.108999 4.9640002 -1.021 23
12.795 3.0799999 -1.716 8
13.187 3.1730001 -1.551 48
12.794 3.0769999 -1.295 59
12.749 3.069 -1.084 59
13.766 3.3150001 -0.94700003 50
20.660999 4.9819999 -1.09 41
12.671 3.128 -1.7589999 9
12.824 3.1630001 -1.568 35
12.76 3.1459999 -1.35 46
12.693 3.1300001 -1.136 54
13.193 3.2550001 -0.96600002 42
14.971 3.698 -0.85600001 17
12.304 3.112 -1.767 5
12.776 3.2279999 -1.622 29
12.659 3.197 -1.399 50
12.635 3.191 -1.189 53
12.757 3.2219999 -0.99299997 44
14.659 3.7060001 -0.90399998 47
11.848 3.0680001 -1.76 10
12.599 3.2590001 -1.6619999 12
12.808 3.3110001 -1.477 35
12.532 3.2390001 -1.239 53
12.521 3.2360001 -1.033 52
13.871 3.586 -0.91799998 39
11.469 3.0380001 -1.761 13
12.457 3.296 -1.704 10
12.633 3.339 -1.518 51
12.482 3.2969999 -1.293 54
12.479 3.296 -1.0880001 49
13.349 3.5280001 -0.94700003 48
11.104 3.0079999 -1.762 12
12.308 3.329 -1.7460001 10
12.536 3.3870001 -1.568 43
12.361 3.3369999 -1.342 48
12.347 3.3329999 -1.137 59
12.782 3.451 -0.96799999 45
10.772 2.9820001 -1.766 11
11.995 3.3150001 -1.7640001 5
12.479 3.444 -1.625 34
12.408 3.421 -1.409 42
12.278 3.3829999 -1.1900001 56
12.407 3.4189999 -0.99900001 42
10.453 2.954 -1.7690001 11
11.468 3.2349999 -1.7460001 9
12.279 3.4590001 -1.6619999 14
12.541 3.529 -1.487 43
12.253 3.4460001 -1.25 48
12.268 3.4489999 -1.049 38
10.149 2.927 -1.773 11
11.125 3.2019999 -1.753 12
12.166 3.4949999 -1.71 10
12.341 3.5409999 -1.527 40
12.121 3.4749999 -1.298 53
12.138 3.4790001 -1.098 43
9.8450003 2.8959999 -1.773 12
10.793 3.1670001 -1.758 12
12.032 3.5239999 -1.755 6
12.397 3.6259999 -1.599 43
12.103 3.536 -1.357 50
12.024 3.5109999 -1.149 49
9.5679998 2.869 -1.777 11
10.458 3.128 -1.761 11
11.588 3.4590001 -1.753 8
12.179 3.6289999 -1.635 25
12.112 3.605 -1.423 42
12.017 3.5739999 -1.211 52
9.3000002 2.8399999 -1.78 10
10.145 3.0899999 -1.765 11
11.173 3.395 -1.751 12
11.968 3.631 -1.6720001 9
12.288 3.723 -1.5089999 41
11.976 3.625 -1.2690001 47
9.0349998 2.8099999 -1.781 11
9.8439999 3.053 -1.768 12
10.816 3.346 -1.755 12
11.887 3.6700001 -1.725 12
12.244 3.7739999 -1.569 53
11.885 3.6589999 -1.323 47
8.7849998 2.78 -1.784 11
9.5500002 3.0139999 -1.771 11
10.474 3.2969999 -1.76 12
11.622 3.6500001 -1.752 14
12.105 3.7950001 -1.618 41
11.905 3.7279999 -1.3890001 42
8.5430002 2.75 -1.785 11
9.2729998 2.9760001 -1.774 11
10.156 3.25 -1.7640001 12
11.182 3.5699999 -1.749 13
11.869 3.783 -1.652 15
11.975 3.812 -1.464 30
8.3170004 2.723 -1.789 11
8.9980001 2.9360001 -1.775 10
9.8459997 3.2030001 -1.768 12
10.801 3.5050001 -1.751 12
11.735 3.8 -1.7 9
11.788 3.812 -1.506 43
8.1000004 2.6960001 -1.7920001 11
8.7410002 2.898 -1.776 12
9.5389996 3.1530001 -1.7690001 11
10.453 3.4460001 -1.755 12
11.554 3.8 -1.74 14
11.833 3.885 -1.579 43
7.8829999 2.665 -1.793 10
8.4989996 2.862 -1.78 11
9.2539997 3.1059999 -1.772 10
10.132 3.391 -1.761 12
11.153 3.724 -1.744 13
11.73 3.9089999 -1.632 19
7.6919999 2.641 -1.798 11
8.2799997 2.8310001 -1.785 11
8.9849997 3.0610001 -1.775 11
9.8059998 3.3299999 -1.763 11
10.777 3.651 -1.748 12
11.584 3.9159999 -1.678 11
7.5040002 2.615 -1.802 11
8.0609999 2.796 -1.7869999 11
8.7290001 3.017 -1.777 11
9.5129995 3.2780001 -1.767 11
10.441 3.5869999 -1.755 13
11.491 3.9389999 -1.7309999 11
7.3280001 2.5910001 -1.807 11
7.848 2.7620001 -1.79 11
8.4879999 2.9760001 -1.781 10
9.2259998 3.223 -1.77 10
10.084 3.513 -1.755 11
11.136 3.8699999 -1.743 12
7.1279998 2.556 -1.804 10
7.6440001 2.7290001 -1.7920001 11
8.2600002 2.9360001 -1.785 11
8.9540005 3.171 -1.772 10
9.776 3.451 -1.761 11
10.749 3.7839999 -1.7460001 12
6.9590001 2.53 -1.807 9
7.4679999 2.701 -1.799 11
8.0340004 2.8940001 -1.7869999 11
8.7010002 3.1229999 -1.777 11
9.4610004 3.3840001 -1.762 11
10.398 3.7079999 -1.752 12
6.796 2.5039999 -1.811 9
7.2779999 2.668 -1.801 11
7.8200002 2.8540001 -1.789 11
8.4650002 3.0769999 -1.781 11
9.1899996 3.3280001 -1.768 10
10.056 3.632 -1.755 11
6.585 2.4579999 -1.799 10
7.105 2.6389999 -1.8049999 11
7.6209998 2.8169999 -1.793 11
8.2220001 3.026 -1.783 10
8.9219999 3.2720001 -1.773 10
9.7379999 3.559 -1.7589999 11
6.4359999 2.434 -1.802 11
6.914 2.5999999 -1.803 9
7.4289999 2.78 -1.7970001 11
7.9949999 2.9779999 -1.785 10
8.658 3.2130001 -1.774 10
9.4359999 3.49 -1.763 10
6.2870002 2.4070001 -1.804 11
6.7119999 2.5550001 -1.796 10
7.2420001 2.7420001 -1.799 10
7.7789998 2.9319999 -1.7869999 11
8.4169998 3.1600001 -1.777 10
9.1520004 3.4230001 -1.766 10
6.145 2.381 -1.8049999 11
6.54 2.5190001 -1.794 10
7.0630002 2.7060001 -1.801 10
7.5819998 2.8900001 -1.79 11
8.1780005 3.1040001 -1.779 10
8.8859997 3.3610001 -1.771 10
6.0100002 2.3559999 -1.809 11
6.3899999 2.4890001 -1.7970001 10
6.8730001 2.6630001 -1.799 10
7.3930001 2.8499999 -1.795 11
7.9629998 3.0550001 -1.783 10
8.6300001 3.2980001 -1.774 10
5.8699999 2.3269999 -1.808 10
6.2420001 2.4590001 -1.798 11
6.6989999 2.6240001 -1.799 11
7.2020001 2.806 -1.795 10
7.7529998 3.007 -1.7869999 10
8.3870001 3.2390001 -1.778 10
5.7309999 2.2969999 -1.806 9
6.1069999 2.4319999 -1.802 11
6.533 2.586 -1.798 10
7.0380001 2.7709999 -1.801 10
7.5599999 2.9619999 -1.791 11
8.1529999 3.1800001 -1.78 11
5.6079998 2.2720001 -1.808 10
5.9660001 2.401 -1.801 11
6.3699999 2.5469999 -1.7970001 11
6.8499999 2.724 -1.799 12
7.3759999 2.918 -1.796 11
7.9180002 3.118 -1.779 10
5.4959998 2.25 -1.811 10
5.8280001 2.369 -1.801 10
6.2360001 2.5179999 -1.802 12
6.698 2.6889999 -1.804 9
7.1560001 2.858 -1.789 12
7.7129998 3.066 -1.783 10
5.3790002 2.224 -1.812 10
5.6999998 2.3399999 -1.802 10
6.0970001 2.4860001 -1.804 11
6.507 2.6370001 -1.7970001 10
7.0149999 2.8280001 -1.801 10
7.5300002 3.02 -1.789 10
5.2659998 2.1989999 -1.812 10
5.5749998 2.3099999 -1.802 10
5.954 2.45 -1.803 11
6.348 2.596 -1.796 11
6.8169999 2.7720001 -1.795 10
7.336 2.9679999 -1.791 10
5.152 2.1719999 -1.811 9
5.4650002 2.286 -1.806 10
5.8200002 2.4170001 -1.803 10
6.2160001 2.5639999 -1.801 11
6.6389999 2.723 -1.7920001 11
7.125 2.9059999 -1.786 11
5.0409999 2.145 -1.809 10
5.3569999 2.2609999 -1.808 10
5.6999998 2.388 -1.806 10
6.0710001 2.526 -1.8 11
6.4990001 2.687 -1.7970001 11
6.9489999 2.858 -1.7869999 10
4.9580002 2.128 -1.8150001 10
5.2480001 2.233 -1.809 10
5.5869999 2.3599999 -1.809 11
5.9390001 2.4909999 -1.801 11
6.3369999 2.641 -1.795 11
6.79 2.8139999 -1.79 10
4.8649998 2.1059999 -1.818 10
5.1350002 2.204 -1.807 11
5.4650002 2.3269999 -1.808 11
5.8200002 2.46 -1.8049999 11
6.2090001 2.6070001 -1.8 11
6.6170001 2.7620001 -1.788 11
4.7670002 2.0799999 -1.817 10
5.0370002 2.178 -1.809 11
5.3520002 2.296 -1.808 11
5.6950002 2.425 -1.8049999 10
6.066 2.566 -1.799 11
6.4819999 2.7249999 -1.794 11
4.6729999 2.0550001 -1.816 10
4.9450002 2.155 -1.812 11
5.244 2.266 -1.808 11
5.5819998 2.3940001 -1.808 11
5.9320002 2.526 -1.799 11
6.336 2.681 -1.795 11
4.5840001 2.0309999 -1.8150001 10
4.8499999 2.1289999 -1.812 10
5.1370001 2.2360001 -1.807 12
5.467 2.3610001 -1.808 11
5.8169999 2.494 -1.803 11
6.1900001 2.6359999 -1.794 11
4.5019999 2.01 -1.816 10
4.7620001 2.105 -1.814 12
5.0409999 2.2090001 -1.809 11
5.3499999 2.326 -1.806 11
5.6849999 2.4530001 -1.801 10
6.0650001 2.599 -1.798 11
4.428 1.99 -1.8200001 10
4.678 2.082 -1.816 12
4.9530001 2.1849999 -1.813 11
5.244 2.293 -1.806 12
5.5770001 2.421 -1.803 12
5.9320002 2.5569999 -1.796 12
4.3429999 1.966 -1.817 10
4.592 2.0569999 -1.8150001 10
4.8610001 2.1570001 -1.813 11
5.152 2.267 -1.809 11
5.4780002 2.391 -1.807 10
5.8140001 2.5190001 -1.798 10
4.2839999 1.951 -1.824 10
4.5100002 2.033 -1.8150001 11
4.7779999 2.1329999 -1.8150001 11
5.0450001 2.2320001 -1.806 10
5.3540001 2.3499999 -1.802 9
5.6880002 2.4779999 -1.796 11
4.2010002 1.925 -1.8200001 9
4.4299998 2.0079999 -1.8150001 11
4.6989999 2.109 -1.818 11
4.9850001 2.217 -1.818 11
5.2620001 2.3210001 -1.806 10
5.5780001 2.441 -1.7970001 11
4.1370001 1.9069999 -1.823 9
4.3540001 1.985 -1.8150001 10
4.6090002 2.0799999 -1.8150001 11
4.875 2.1789999 -1.811 11
5.1690001 2.2909999 -1.808 10
5.4780002 2.408 -1.801 11
4.0689998 1.886 -1.823 9
4.2849998 1.9630001 -1.817 11
4.5370002 2.0569999 -1.818 12
4.7919998 2.152 -1.813 10
5.0580001 2.2509999 -1.802 10
5.3670001 2.369 -1.799 10
4.013 1.869 -1.8279999 8
4.2249999 1.9450001 -1.822 11
4.4569998 2.03 -1.817 11
4.6999998 2.1199999 -1.809 10
4.9809999 2.2260001 -1.807 10
5.2849998 2.342 -1.804 10
3.944 1.846 -1.825 9
4.1589999 1.924 -1.822 10
4.3829999 2.0050001 -1.817 10
4.632 2.0969999 -1.813 10
4.8920002 2.1949999 -1.807 11
5.1739998 2.3010001 -1.799 11
3.8840001 1.826 -1.825 9
4.0970001 1.903 -1.824 10
4.3119998 1.98 -1.816 10
4.5609999 2.072 -1.8150001 11
4.823 2.171 -1.812 11
5.0760002 2.2639999 -1.796 11
3.823 1.8049999 -1.824 9
4.0320001 1.88 -1.823 10
4.2490001 1.9579999 -1.818 11
4.4889998 2.0469999 -1.816 10
4.7389998 2.1400001 -1.8099999 10
4.9920001 2.233 -1.7970001 10
3.767 1.785 -1.824 9
3.9779999 1.8609999 -1.826 10
4.1849999 1.9349999 -1.818 10
4.4159999 2.02 -1.8150001 10
4.6669998 2.1129999 -1.812 11
4.9320002 2.2119999 -1.806 11
3.7179999 1.768 -1.827 9
3.915 1.8380001 -1.824 10
4.1230001 1.9119999 -1.819 11
4.3499999 1.995 -1.816 10
4.5949998 2.086 -1.813 11
4.8559999 2.1830001 -1.807 11
3.668 1.75 -1.8279999 9
3.865 1.8200001 -1.826 10
4.0760002 1.895 -1.825 10
4.2849998 1.97 -1.8150001 10
4.5279999 2.059 -1.814 11
4.7789998 2.1530001 -1.807 10
3.6229999 1.734 -1.831 8
3.812 1.799 -1.827 10
4.0170002 1.872 -1.824 10
4.2309999 1.949 -1.819 10
4.46 2.0320001 -1.813 11
4.7080002 2.1240001 -1.808 10
3.5769999 1.716 -1.832 8
3.7590001 1.779 -1.826 10
3.96 1.849 -1.823 9
4.1760001 1.927 -1.821 10
4.3959999 2.006 -1.813 11
4.6469998 2.099 -1.811 10
3.536 1.7 -1.834 8
3.7079999 1.758 -1.825 10
3.9070001 1.827 -1.823 10
4.118 1.903 -1.821 9
4.3319998 1.979 -1.812 10
4.5799999 2.0699999 -1.811 11
3.494 1.683 -1.835 8
3.6619999 1.738 -1.825 10
3.8610001 1.808 -1.826 10
4.0650001 1.88 -1.821 10
4.276 1.955 -1.814 11
4.5139999 2.0420001 -1.811 10
3.45 1.664 -1.835 9
3.6159999 1.719 -1.826 10
3.812 1.7869999 -1.826 10
4.0110002 1.8559999 -1.8200001 10
4.223 1.931 -1.8150001 10
4.454 2.0150001 -1.811 10
3.411 1.647 -1.836 8
3.5840001 1.705 -1.831 10
3.767 1.767 -1.826 10
3.9679999 1.837 -1.823 10
4.177 1.91 -1.819 10
4.4000001 1.99 -1.813 10
3.375 1.631 -1.837 8
3.539 1.684 -1.829 9
3.7190001 1.745 -1.824 10
3.925 1.817 -1.825 9
4.1259999 1.886 -1.818 10
4.3429999 1.9630001 -1.812 10
3.3399999 1.615 -1.839 8
3.506 1.669 -1.8329999 9
3.6819999 1.727 -1.827 10
3.8800001 1.795 -1.826 9
4.0780001 1.863 -1.819 10
4.2940001 1.939 -1.814 10
3.309 1.6 -1.842 8
3.4679999 1.65 -1.8329999 9
3.642 1.707 -1.827 10
3.8269999 1.7690001 -1.822 10
4.0339999 1.841 -1.8200001 10
4.25 1.9170001 -1.816 10
3.2690001 1.58 -1.839 8
3.4319999 1.632 -1.8329999 10
3.6059999 1.689 -1.8279999 10
3.8 1.755 -1.8279999 9
3.9890001 1.818 -1.8200001 10
4.2069998 1.8940001 -1.819 10
3.2379999 1.564 -1.839 8
3.4030001 1.617 -1.836 9
3.5669999 1.668 -1.827 10
3.7539999 1.7309999 -1.825 10
3.95 1.7970001 -1.821 10
4.1609998 1.87 -1.819 9
3.2060001 1.5470001 -1.839 8
3.372 1.6 -1.837 9
3.539 1.653 -1.831 10
3.714 1.709 -1.824 10
3.915 1.777 -1.824 10
4.118 1.846 -1.819 10
3.177 1.53 -1.839 8
3.3410001 1.582 -1.837 8
3.51 1.635 -1.8329999 9
3.681 1.6900001 -1.825 9
3.878 1.756 -1.825 10
4.0809999 1.824 -1.821 10
3.1459999 1.513 -1.8380001 8
3.3139999 1.5650001 -1.839 9
3.4760001 1.615 -1.832 9
3.651 1.6720001 -1.827 9
3.8380001 1.733 -1.823 10
4.0339999 1.798 -1.818 9
3.1210001 1.497 -1.8380001 8
3.289 1.55 -1.84 9
3.4530001 1.6 -1.836 9
3.6210001 1.653 -1.8279999 9
3.8050001 1.712 -1.824 10
4.0040002 1.778 -1.821 9
3.105 1.485 -1.8430001 8
3.266 1.534 -1.842 9
3.424 1.582 -1.836 9
3.5929999 1.6339999 -1.829 9
3.78 1.694 -1.827 10
3.974 1.758 -1.823 10
3.0780001 1.4680001 -1.841 8
3.243 1.518 -1.844 9
3.401 1.5650001 -1.837 8
3.5639999 1.615 -1.829 9
3.7420001 1.67 -1.824 10
3.9430001 1.7359999 -1.824 10
3.0580001 1.4529999 -1.842 7
3.2119999 1.498 -1.84 9
3.381 1.55 -1.84 9
3.536 1.595 -1.8279999 9
3.7179999 1.652 -1.826 10
3.908 1.7130001 -1.823 9
3.0309999 1.434 -1.839 7
3.1919999 1.482 -1.841 9
3.3510001 1.529 -1.837 9
3.5090001 1.575 -1.8279999 8
3.6819999 1.628 -1.822 9
3.8800001 1.692 -1.823 9
3.013 1.42 -1.84 7
3.168 1.464 -1.839 9
3.335 1.5140001 -1.84 9
3.494 1.561 -1.8329999 9
3.6619999 1.6109999 -1.825 9
3.8570001 1.6720001 -1.825 10
2.9949999 1.404 -1.84 7
3.152 1.449 -1.841 9
3.3110001 1.495 -1.8380001 8
3.4749999 1.543 -1.834 8
3.642 1.5930001 -1.827 10
3.8269999 1.65 -1.823 10
2.9790001 1.3890001 -1.84 7
3.1340001 1.433 -1.841 8
3.2950001 1.48 -1.84 8
3.457 1.527 -1.835 8
3.6240001 1.575 -1.829 9
3.8080001 1.631 -1.826 9
2.9630001 1.374 -1.84 7
3.119 1.418 -1.842 9
3.2750001 1.462 -1.839 9
3.437 1.508 -1.835 9
3.599 1.554 -1.826 9
3.777 1.607 -1.821 9
2.947 1.358 -1.839 7
3.1070001 1.403 -1.8430001 9
3.2620001 1.446 -1.841 9
3.4200001 1.49 -1.835 9
3.5840001 1.536 -1.8279999 9
3.76 1.5880001 -1.823 9
2.941 1.346 -1.8430001 7
3.0910001 1.387 -1.842 9
3.2509999 1.431 -1.8430001 9
3.4059999 1.473 -1.836 8
3.5639999 1.517 -1.827 9
3.7409999 1.568 -1.822 9
2.9289999 1.332 -1.8430001 7
3.0780001 1.3710001 -1.842 8
3.234 1.413 -1.841 8
3.398 1.459 -1.84 9
3.5539999 1.5 -1.83 9
3.7320001 1.552 -1.826 9
2.9200001 1.317 -1.844 7
3.0650001 1.354 -1.841 8
3.217 1.395 -1.8380001 9
3.3829999 1.4400001 -1.839 9
3.5409999 1.483 -1.831 10
3.714 1.531 -1.825 9
2.9059999 1.3 -1.841 7
3.0569999 1.34 -1.842 8
3.2149999 1.382 -1.8430001 9
3.369 1.4220001 -1.8380001 8
3.5320001 1.466 -1.832 9
3.6960001 1.51 -1.823 9
2.9030001 1.288 -1.844 7
3.0450001 1.323 -1.84 8
3.201 1.364 -1.84 9
3.3610001 1.406 -1.839 8
3.523 1.449 -1.834 9
3.6930001 1.495 -1.8279999 9
2.895 1.273 -1.8430001 7
3.0409999 1.3099999 -1.842 8
3.1949999 1.349 -1.842 8
3.3499999 1.388 -1.8380001 8
3.5190001 1.434 -1.836 9
3.6819999 1.476 -1.8279999 9
2.8889999 1.2589999 -1.844 7
3.0380001 1.296 -1.844 8
3.1819999 1.331 -1.8380001 9
3.346 1.373 -1.84 8
3.5020001 1.413 -1.832 9
3.665 1.454 -1.824 9
2.882 1.243 -1.842 6
3.0320001 1.281 -1.844 8
3.181 1.317 -1.841 8
3.339 1.3559999 -1.839 8
3.497 1.395 -1.8329999 9
3.6630001 1.438 -1.827 9
2.8829999 1.2309999 -1.845 7
3.02 1.262 -1.839 8
3.174 1.3 -1.84 9
3.336 1.341 -1.841 8
3.494 1.3789999 -1.834 9
3.6619999 1.4220001 -1.829 9
2.881 1.217 -1.845 7
3.0320001 1.253 -1.848 8
3.178 1.2869999 -1.844 9
3.3329999 1.324 -1.841 8
3.4909999 1.363 -1.835 9
3.661 1.405 -1.831 9
2.8840001 1.205 -1.848 7
3.0209999 1.235 -1.8430001 8
3.174 1.271 -1.8430001 8
3.325 1.306 -1.8380001 8
3.483 1.3430001 -1.832 9
3.6559999 1.387 -1.831 9
2.8840001 1.191 -1.848 6
3.0250001 1.222 -1.845 7
3.1700001 1.2539999 -1.841 9
3.3299999 1.2920001 -1.841 8
3.4849999 1.3279999 -1.835 9
3.652 1.368 -1.829 9
2.8789999 1.174 -1.844 7
3.0250001 1.207 -1.845 8
3.1719999 1.239 -1.842 7
3.3310001 1.276 -1.842 8
3.4890001 1.312 -1.837 9
3.658 1.353 -1.8329999 8
2.885 1.1619999 -1.847 6
3.0250001 1.191 -1.844 7
3.175 1.225 -1.8430001 8
3.3329999 1.26 -1.842 9
3.4920001 1.296 -1.8380001 9
3.6530001 1.3329999 -1.83 9
2.891 1.149 -1.849 6
3.0339999 1.179 -1.848 8
3.177 1.209 -1.842 8
3.3329999 1.244 -1.841 8
3.4909999 1.279 -1.836 8
3.6589999 1.317 -1.832 9
2.898 1.136 -1.851 6
3.0369999 1.164 -1.847 8
3.184 1.1950001 -1.845 8
3.339 1.228 -1.842 8
3.494 1.262 -1.836 8
3.6619999 1.3 -1.832 9
2.902 1.122 -1.85 6
3.0409999 1.149 -1.847 8
3.187 1.179 -1.844 8
3.3410001 1.212 -1.841 8
3.503 1.247 -1.8380001 8
3.6670001 1.2819999 -1.832 9
2.9100001 1.108 -1.851 6
3.046 1.1339999 -1.846 8
3.197 1.166 -1.846 8
3.3529999 1.198 -1.844 9
3.5090001 1.23 -1.8380001 9
3.6700001 1.2640001 -1.83 9
2.915 1.094 -1.85 6
3.0539999 1.12 -1.846 7
3.2019999 1.15 -1.845 7
3.3570001 1.181 -1.842 9
3.516 1.214 -1.8380001 9
3.6830001 1.249 -1.8329999 9
2.924 1.08 -1.851 7
3.0650001 1.107 -1.848 7
3.2130001 1.135 -1.846 8
3.3699999 1.1670001 -1.845 9
3.5239999 1.197 -1.8380001 9
3.6930001 1.232 -1.834 9
2.934 1.066 -1.851 7
3.073 1.092 -1.847 7
3.2219999 1.12 -1.846 8
3.378 1.151 -1.8430001 9
3.5369999 1.182 -1.839 9
3.7079999 1.217 -1.836 9
2.941 1.051 -1.849 7
3.082 1.077 -1.846 8
3.2290001 1.104 -1.8430001 8
3.385 1.1339999 -1.842 9
3.546 1.165 -1.8380001 9
3.721 1.2 -1.836 9
2.9489999 1.0369999 -1.847 6
3.092 1.062 -1.846 7
3.2460001 1.091 -1.847 9
3.395 1.118 -1.841 9
3.5669999 1.151 -1.842 9
3.7290001 1.182 -1.834 9
2.9660001 1.024 -1.85 7
3.1099999 1.05 -1.849 7
3.26 1.076 -1.847 8
3.4130001 1.104 -1.8430001 9
3.5780001 1.135 -1.841 9
3.7479999 1.1670001 -1.837 9
2.9719999 1.008 -1.846 7
3.122 1.034 -1.848 8
3.276 1.062 -1.848 8
3.427 1.0880001 -1.8430001 8
3.595 1.119 -1.842 9
3.7579999 1.148 -1.834 9
2.9890001 0.995 -1.848 7
3.1389999 1.021 -1.849 8
3.289 1.0470001 -1.848 8
3.444 1.073 -1.844 9
3.612 1.103 -1.842 9
3.7750001 1.132 -1.834 9
3.0079999 0.98299998 -1.85 7
3.1500001 1.005 -1.847 8
3.3069999 1.0319999 -1.848 8
3.4649999 1.059 -1.846 9
3.625 1.086 -1.84 10
3.796 1.1160001 -1.835 8
3.0250001 0.96899998 -1.851 6
3.1670001 0.991 -1.847 8
3.323 1.017 -1.847 8
3.4779999 1.0420001 -1.8430001 9
3.6489999 1.072 -1.8430001 9
3.816 1.1 -1.835 8
3.043 0.95499998 -1.851 7
3.1889999 0.97799999 -1.85 8
3.345 1.003 -1.85 8
3.5 1.028 -1.844 9
3.668 1.0549999 -1.842 9
3.8399999 1.084 -1.836 9
3.059 0.94099998 -1.849 7
3.2090001 0.96399999 -1.85 8
3.3659999 0.98900002 -1.85 9
3.5220001 1.013 -1.845 8
3.6919999 1.04 -1.8430001 9
3.858 1.066 -1.834 9
3.0829999 0.92900002 -1.852 7
3.2290001 0.94999999 -1.85 9
3.3840001 0.97299999 -1.849 9
3.5439999 0.99699998 -1.845 9
3.7090001 1.023 -1.84 9
3.8889999 1.052 -1.837 9
3.1010001 0.91399997 -1.851 7
3.2479999 0.935 -1.849 8
3.4119999 0.95999998 -1.852 8
3.5710001 0.98400003 -1.847 8
3.7320001 1.007 -1.839 9
3.9130001 1.035 -1.837 9
3.122 0.89999998 -1.851 7
3.277 0.92199999 -1.853 8
3.4349999 0.94499999 -1.852 9
3.5969999 0.96899998 -1.848 9
3.7650001 0.99299997 -1.8430001 9
3.938 1.018 -1.835 9
3.1470001 0.88700002 -1.852 7
3.2969999 0.90700001 -1.851 8
3.4590001 0.93000001 -1.851 9
3.6159999 0.95200002 -1.844 9
3.7839999 0.97500002 -1.839 9
3.9690001 1.003 -1.837 10
3.171 0.87300003 -1.853 7
3.3239999 0.89399999 -1.852 9
3.4849999 0.91600001 -1.851 9
3.6489999 0.93800002 -1.848 9
3.8080001 0.95899999 -1.837 9
3.9979999 0.986 -1.836 9
3.1960001 0.86000001 -1.853 7
3.355 0.88099998 -1.855 9
3.5090001 0.90100002 -1.85 10
3.6789999 0.92299998 -1.848 8
3.835 0.94300002 -1.836 9
4.0380001 0.97299999 -1.84 9
3.2190001 0.84500003 -1.851 7
3.378 0.866 -1.853 9
3.5380001 0.88599998 -1.85 9
3.71 0.90899998 -1.849 9
3.872 0.92799997 -1.8380001 9
4.0669999 0.95499998 -1.8380001 9
3.243 0.83099997 -1.85 7
3.4159999 0.85399997 -1.858 9
3.569 0.87199998 -1.851 9
3.733 0.89200002 -1.845 8
3.915 0.91500002 -1.8430001 10
4.1110001 0.94199997 -1.842 10
3.277 0.81800002 -1.853 8
3.4360001 0.83700001 -1.853 9
3.5999999 0.85699999 -1.851 9
3.766 0.87699997 -1.845 9
3.941 0.898 -1.839 10
4.1479998 0.926 -1.842 10
3.309 0.80500001 -1.855 8
3.474 0.82499999 -1.857 8
3.6400001 0.84399998 -1.855 9
3.8010001 0.86199999 -1.846 9
3.9879999 0.88499999 -1.844 10
4.1869998 0.91000003 -1.842 10
3.3380001 0.79100001 -1.854 7
3.5039999 0.81 -1.8559999 8
3.6689999 0.82800001 -1.852 8
3.8310001 0.84500003 -1.8430001 9
4.027 0.86900002 -1.844 9
4.23 0.89399999 -1.8430001 10
3.3740001 0.778 -1.8559999 7
3.536 0.79500002 -1.855 9
3.7019999 0.81300002 -1.851 9
3.8699999 0.83099997 -1.844 9
4.0650001 0.85399997 -1.8430001 10
4.2639999 0.87699997 -1.84 10
3.408 0.76499999 -1.857 7
3.5699999 0.78100002 -1.855 10
3.7360001 0.79799998 -1.85 9
3.9119999 0.81699997 -1.845 9
4.1020002 0.83700001 -1.841 10
4.3099999 0.861 -1.84 10
3.438 0.75 -1.855 8
3.6070001 0.76700002 -1.855 9
3.779 0.78399998 -1.852 10
3.9489999 0.801 -1.844 9
4.1490002 0.82300001 -1.8430001 10
4.3499999 0.84399998 -1.837 10
3.4760001 0.736 -1.8559999 8
3.6500001 0.75400001 -1.858 9
3.813 0.76899999 -1.85 10
4.0079999 0.78899997 -1.852 9
4.198 0.80800003 -1.845 10
4.4039998 0.829 -1.84 10
3.5139999 0.72299999 -1.857 8
3.687 0.73900002 -1.857 9
3.8529999 0.75400001 -1.849 9
4.0370002 0.77100003 -1.845 9
4.2449999 0.79299998 -1.845 11
4.4510002 0.81199998 -1.8380001 10
3.552 0.70899999 -1.857 9
3.721 0.72399998 -1.854 10
3.892 0.73900002 -1.847 10
4.0910001 0.75800002 -1.848 10
4.2919998 0.77700001 -1.844 11
4.507 0.79799998 -1.84 10
3.598 0.69599998 -1.86 9
3.7650001 0.70999998 -1.855 9
3.9389999 0.72399998 -1.849 10
4.1420002 0.74299997 -1.85 10
4.342 0.76099998 -1.844 11
4.5570002 0.78100002 -1.8380001 10
3.6359999 0.68199998 -1.859 9
3.806 0.69499999 -1.854 9
3.98 0.70899999 -1.846 10
4.1859999 0.72799999 -1.848 10
4.3909998 0.745 -1.842 11
4.6079998 0.764 -1.835 11
3.678 0.667 -1.858 9
3.845 0.68000001 -1.851 9
4.039 0.69599998 -1.851 10
4.2389998 0.713 -1.848 10
4.4549999 0.73100001 -1.845 10
4.6659999 0.74800003 -1.835 10
3.727 0.65399998 -1.86 8
3.8889999 0.66500002 -1.849 10
4.0890002 0.68199998 -1.851 10
4.2909999 0.69700003 -1.847 10
4.5 0.71399999 -1.84 10
4.7319999 0.73299998 -1.836 11
3.7679999 0.63999999 -1.859 9
3.9419999 0.65200001 -1.852 10
4.1409998 0.667 -1.851 10
4.3429999 0.68199998 -1.846 11
4.5599999 0.699 -1.841 11
4.7940001 0.71700001 -1.835 11
3.8099999 0.625 -1.8559999 9
3.99 0.63700002 -1.851 10
4.197 0.653 -1.853 10
4.4050002 0.66799998 -1.848 10
4.6279998 0.685 -1.8430001 10
4.8649998 0.70200002 -1.837 11
3.862 0.61199999 -1.858 9
4.0370002 0.62199998 -1.848 10
4.25 0.63800001 -1.851 10
4.461 0.65200001 -1.846 10
4.6849999 0.66799998 -1.84 11
4.9289999 0.68599999 -1.835 11
3.9059999 0.597 -1.855 9
4.0999999 0.60900003 -1.853 10
4.3070002 0.62300003 -1.851 10
4.526 0.63800001 -1.847 10
4.7449999 0.65200001 -1.837 11
5.0040002 0.67000002 -1.835 11
3.9590001 0.583 -1.855 9
4.1560001 0.59500003 -1.853 10
4.3720002 0.60900003 -1.852 11
4.5809999 0.62099999 -1.8430001 10
4.8140001 0.63599998 -1.836 11
5.086 0.65499997 -1.837 11
4.007 0.56800002 -1.851 9
4.211 0.58099997 -1.851 10
4.4219999 0.59299999 -1.847 11
4.6500001 0.60699999 -1.8430001 10
4.8940001 0.62199998 -1.8380001 12
5.1729999 0.64099997 -1.839 12
4.059 0.55400002 -1.85 9
4.2740002 0.56699997 -1.852 10
4.493 0.579 -1.85 11
4.717 0.59200001 -1.842 10
4.9720001 0.60699999 -1.839 12
5.2519999 0.62400001 -1.8380001 12
4.1209998 0.54000002 -1.851 9
4.3369999 0.55299997 -1.852 10
4.5580001 0.56400001 -1.848 11
4.7870002 0.57700002 -1.841 10
5.0500002 0.59200001 -1.839 11
5.3390002 0.60900003 -1.837 12
4.184 0.52700001 -1.853 9
4.4000001 0.53799999 -1.852 10
4.6279998 0.55000001 -1.848 11
4.8670001 0.56199998 -1.842 11
5.1339998 0.57700002 -1.839 12
5.4239998 0.59299999 -1.835 13
4.2529998 0.514 -1.855 9
4.4629998 0.52399999 -1.85 11
4.6960001 0.53500003 -1.846 11
4.9460001 0.54699999 -1.842 11
5.2179999 0.56199998 -1.839 11
5.513 0.57700002 -1.834 13
4.3210001 0.50099999 -1.857 9
4.5339999 0.50999999 -1.85 11
4.7620001 0.51899999 -1.8430001 11
5.0300002 0.53299999 -1.8430001 12
5.3109999 0.54699999 -1.84 12
5.6129999 0.56099999 -1.834 13
4.3850002 0.48699999 -1.8559999 10
4.6110001 0.49599999 -1.852 11
4.8470001 0.50599998 -1.845 11
5.1100001 0.51800001 -1.841 11
5.3990002 0.53100002 -1.837 13
5.711 0.54500002 -1.832 13
4.4559999 0.47299999 -1.8559999 10
4.6789999 0.48100001 -1.849 10
4.927 0.491 -1.845 12
5.2049999 0.50300002 -1.8430001 12
5.4980001 0.51599997 -1.837 13
5.822 0.52999997 -1.832 12
4.5209999 0.458 -1.852 10
4.7519999 0.46599999 -1.846 12
5.0110002 0.47600001 -1.8430001 11
5.2989998 0.48800001 -1.8430001 13
5.5999999 0.5 -1.836 13
5.9439998 0.51499999 -1.835 12
4.598 0.44400001 -1.853 10
4.829 0.45199999 -1.844 12
5.1129999 0.463 -1.848 11
5.3940001 0.47299999 -1.841 10
5.711 0.48500001 -1.8380001 14
6.04 0.49700001 -1.8279999 12
4.6690001 0.43000001 -1.85 10
4.9180002 0.43799999 -1.846 12
5.204 0.44800001 -1.847 13
5.4899998 0.458 -1.839 12
5.8309999 0.47 -1.839 13
6.171 0.48199999 -1.829 13
4.7420001 0.41499999 -1.846 11
5.0009999 0.42300001 -1.844 11
5.296 0.433 -1.845 13
5.598 0.44299999 -1.839 13
5.9499998 0.45500001 -1.84 11
6.296 0.46599999 -1.827 13
4.829 0.40200001 -1.847 10
5.1009998 0.41 -1.846 12
5.3930001 0.419 -1.844 11
5.7129998 0.428 -1.841 14
6.0619998 0.43900001 -1.836 12
6.46 0.45199999 -1.835 12
4.9130001 0.38800001 -1.846 11
5.191 0.39500001 -1.844 12
5.4910002 0.40400001 -1.841 12
5.8319998 0.414 -1.841 12
6.1989999 0.42399999 -1.8380001 12
6.5999999 0.43599999 -1.8329999 13
5.0079999 0.37400001 -1.847 11
5.296 0.382 -1.846 12
5.6030002 0.389 -1.841 12
5.9629998 0.40000001 -1.844 13
6.3400002 0.41 -1.84 12
6.7600002 0.421 -1.835 13
5.1040001 0.361 -1.848 11
5.3920002 0.36700001 -1.8430001 13
5.7210002 0.375 -1.842 12
6.0809999 0.384 -1.841 13
6.4860001 0.39399999 -1.84 12
6.9180002 0.405 -1.8329999 13
5.2119999 0.34799999 -1.85 12
5.4990001 0.35299999 -1.842 13
5.8400002 0.361 -1.842 13
6.2160001 0.36899999 -1.841 12
6.6420002 0.37900001 -1.841 13
7.098 0.38999999 -1.836 13
5.3070002 0.33399999 -1.847 11
5.6129999 0.33899999 -1.842 11
5.9780002 0.347 -1.845 12
6.3649998 0.35499999 -1.842 12
6.7989998 0.36399999 -1.84 14
7.2849998 0.37400001 -1.837 13
5.3979998 0.31900001 -1.841 11
5.7350001 0.32499999 -1.842 12
6.1090002 0.33199999 -1.844 12
6.4990001 0.33899999 -1.8380001 14
6.9530001 0.34799999 -1.836 12
7.4749999 0.35800001 -1.837 12
5.5170002 0.30500001 -1.842 11
5.8660002 0.31099999 -1.844 12
6.2410002 0.317 -1.841 12
6.6750002 0.32499999 -1.8430001 13
7.1490002 0.333 -1.84 13
7.678 0.34200001 -1.836 12
5.6370001 0.292 -1.8430001 12
6.006 0.29800001 -1.846 12
6.3969998 0.303 -1.844 12
6.829 0.30899999 -1.839 12
7.3379998 0.31799999 -1.841 13
7.8870001 0.32600001 -1.835 12
5.7680001 0.27900001 -1.845 12
6.1350002 0.28299999 -1.8430001 12
6.5580001 0.289 -1.845 12
6.9949999 0.294 -1.837 12
7.5339999 0.30199999 -1.839 13
8.132 0.31099999 -1.8380001 11
5.8940001 0.26499999 -1.8430001 12
6.2859998 0.26899999 -1.845 11
6.7140002 0.27399999 -1.8430001 12
7.2080002 0.28 -1.844 12
7.7529998 0.287 -1.84 12
8.3640003 0.294 -1.835 11
6.0430002 0.252 -1.847 11
6.427 0.255 -1.841 12
6.8870001 0.25999999 -1.8430001 12
7.4060001 0.26499999 -1.844 12
7.9840002 0.271 -1.842 11
8.6350002 0.278 -1.837 11
6.184 0.23800001 -1.846 12
6.5900002 0.241 -1.842 12
7.0679998 0.245 -1.8430001 12
7.6009998 0.25 -1.841 13
8.2189999 0.25600001 -1.842 11
8.8950005 0.26199999 -1.8329999 12
6.3239999 0.22400001 -1.8430001 11
6.757 0.227 -1.841 12
7.2690001 0.23100001 -1.845 13
7.8340001 0.235 -1.844 10
8.4630003 0.23999999 -1.839 11
9.1829996 0.245 -1.831 13
6.4920001 0.211 -1.846 12
6.9380002 0.213 -1.842 12
7.4770002 0.21699999 -1.845 12
8.0480003 0.22 -1.839 10
8.7309999 0.22400001 -1.8380001 12
9.4960003 0.228 -1.829 12
6.6630001 0.198 -1.847 12
7.1339998 0.2 -1.844 12
7.6789999 0.20200001 -1.842 13
8.2989998 0.205 -1.839 11
9.0010004 0.208 -1.834 11
9.8280001 0.212 -1.827 13
6.8299999 0.184 -1.844 13
7.3330002 0.186 -1.8430001 12
7.9250002 0.18799999 -1.846 11
8.5450001 0.189 -1.835 11
9.3179998 0.192 -1.834 12
10.185 0.19400001 -1.824 14
7.02 0.171 -1.844 11
7.553 0.17200001 -1.844 12
8.1549997 0.17299999 -1.842 11
8.8380003 0.17399999 -1.836 12
9.6389999 0.176 -1.83 13
10.567 0.177 -1.821 13
7.2199998 0.15800001 -1.845 12
7.7839999 0.15800001 -1.846 11
8.408 0.15800001 -1.84 11
9.1350002 0.15899999 -1.835 12
9.9729996 0.15899999 -1.826 12
10.996 0.16 -1.8200001 13
7.4289999 0.145 -1.845 12
8.0129995 0.14399999 -1.8430001 11
8.677 0.14399999 -1.8380001 12
9.4619999 0.14399999 -1.835 13
10.351 0.14300001 -1.824 13
11.467 0.14399999 -1.8200001 13
7.6479998 0.132 -1.845 12
8.2469997 0.131 -1.839 11
8.9680004 0.13 -1.8380001 12
9.7799997 0.12800001 -1.829 12
10.757 0.127 -1.821 13
11.958 0.126 -1.816 14
7.8889999 0.119 -1.846 10
8.5200005 0.117 -1.839 12
9.2740002 0.115 -1.835 12
10.151 0.113 -1.827 12
11.187 0.11 -1.817 13
12.483 0.108 -1.809 12
8.1370001 0.106 -1.846 11
8.7980003 0.103 -1.836 11
9.6059999 0.101 -1.832 12
10.543 0.097000003 -1.824 13
11.709 0.093999997 -1.8200001 12
13.062 0.090000004 -1.803 11
8.3870001 0.093000002 -1.842 11
9.1079998 0.090000004 -1.835 12
9.9499998 0.086000003 -1.827 13
10.989 0.082000002 -1.824 13
12.247 0.078000002 -1.818 13
13.706 0.071999997 -1.7970001 12
8.6730003 0.079999998 -1.842 11
9.4259996 0.075999998 -1.832 13
10.36 0.071999997 -1.829 12
11.455 0.067000002 -1.8200001 12
12.789 0.061000001 -1.8099999 12
14.385 0.052999999 -1.7869999 12
8.9720001 0.068000004 -1.841 12
9.7639999 0.063000001 -1.8279999 13
10.759 0.057 -1.824 13
11.976 0.050999999 -1.8200001 12
13.389 0.043000001 -1.801 12
15.137 0.034000002 -1.775 13
9.2849998 0.055 -1.837 12
10.135 0.048999999 -1.825 12
11.229 0.043000001 -1.823 13
12.517 0.035999998 -1.813 13
14.073 0.026000001 -1.794 12
15.99 0.015 -1.7640001 13
9.6239996 0.043000001 -1.835 13
10.543 0.035999998 -1.823 12
11.745 0.028999999 -1.823 12
13.11 0.02 -1.807 12
14.808 0.0089999996 -1.784 12
16.952 -0.0040000002 -1.752 10
9.9820004 0.029999999 -1.831 13
11.005 0.023 -1.824 13
12.258 0.015 -1.8150001 13
13.767 0.0040000002 -1.799 12
15.624 -0.0070000002 -1.773 12
18.101999 -0.024 -1.744 12
10.377 0.018999999 -1.829 12
11.474 0.0099999998 -1.819 12
12.836 0.001 -1.811 11
14.472 -0.0099999998 -1.79 12
16.537001 -0.025 -1.761 12
19.392 -0.045000002 -1.733 14
10.813 0.0070000002 -1.827 13
12.016 -0.001 -1.819 13
13.455 -0.012 -1.803 11
15.251 -0.026000001 -1.779 12
17.594999 -0.043000001 -1.749 11
20.91 -0.067000002 -1.721 16
11.285 -0.003 -1.825 12
12.563 -0.014 -1.812 12
14.147 -0.026000001 -1.794 12
16.097 -0.041000001 -1.7640001 13
18.834 -0.061000001 -1.74 13
22.434999 -0.088 -1.692 18
11.812 -0.014 -1.826 11
13.16 -0.026000001 -1.804 12
14.893 -0.039000001 -1.784 12
17.101 -0.056000002 -1.755 10
20.285 -0.079999998 -1.734 15
24.347 -0.111 -1.666 19
12.329 -0.025 -1.817 12
13.81 -0.037 -1.795 12
15.73 -0.052000001 -1.773 13
18.285 -0.071999997 -1.747 12
21.775999 -0.098999999 -1.709 17
26.514 -0.13600001 -1.63 8
12.939 -0.035 -1.8150001 11
14.535 -0.048 -1.7869999 12
16.656 -0.064999998 -1.7589999 12
19.634001 -0.086999997 -1.737 14
23.570999 -0.118 -1.683 19
29.08 -0.161 -1.584 7
13.568 -0.044 -1.806 12
15.309 -0.059 -1.773 12
17.746 -0.077 -1.75 12
21.139 -0.103 -1.723 16
25.570999 -0.13699999 -1.649 15
31.888 -0.186 -1.515 6
14.267 -0.052999999 -1.796 12
16.231001 -0.068999998 -1.763 12
19.037001 -0.089000002 -1.742 13
22.737 -0.117 -1.692 18
27.766001 -0.155 -1.596 7
34.998001 -0.211 -1.419 7
15.013 -0.061000001 -1.784 12
17.225 -0.078000002 -1.751 11
20.509001 -0.101 -1.733 15
24.733 -0.132 -1.668 21
30.464001 -0.17399999 -1.536 6
38.682999 -0.236 -1.2970001 1
15.889 -0.068999998 -1.774 12
18.445999 -0.086999997 -1.743 12
22.032 -0.111 -1.705 17
26.849001 -0.145 -1.6210001 7
33.536999 -0.192 -1.4579999 6
46.18 -0.27900001 -1.225 5
16.865999 -0.075000003 -1.763 10
19.833 -0.093999997 -1.733 14
23.9 -0.121 -1.6799999 20
29.513 -0.15800001 -1.575 7
36.919998 -0.208 -1.346 7
49.285 -0.29100001 -0.96600002 1
17.990999 -0.079999998 -1.753 12
21.298 -0.1 -1.712 16
25.988001 -0.12899999 -1.647 11
32.373001 -0.168 -1.5 5
46.071999 -0.25 -1.3559999 3
51.616001 -0.28999999 -0.64899999 4
19.298 -0.082999997 -1.743 14
23.063 -0.104 -1.691 19
28.426001 -0.134 -1.601 6
35.68 -0.175 -1.405 6
47.957001 -0.244 -1.079 13
57.337002 -0.301 -0.32300001 53
20.802 -0.085000001 -1.7309999 16
24.990999 -0.106 -1.655 16
31.193001 -0.13699999 -1.536 6
40.255001 -0.182 -1.302 1
51.654999 -0.23999999 -0.79900002 45
57.823002 -0.27399999 0.075999998 32
22.403999 -0.083999999 -1.707 18
27.098 -0.104 -1.604 7
34.346001 -0.13500001 -1.4529999 7
46.157001 -0.185 -1.171 4
56.415001 -0.23 -0.47999999 37
53.182999 -0.22 0.44 35
24.309 -0.079999998 -1.681 21
29.764 -0.098999999 -1.5549999 7
37.791 -0.12800001 -1.335 5
51.563999 -0.175 -0.95099998 50
57.713001 -0.197 -0.092 66
53.188 -0.18099999 0.81 46
26.455 -0.071999997 -1.6440001 10
32.669998 -0.088 -1.475 6
44.028999 -0.118 -1.245 1
51.650002 -0.13699999 -0.58899999 4
53.425999 -0.14 0.287 6
53.650002 -0.13699999 1.191 9
29.046 -0.057999998 -1.598 7
36.25 -0.071000002 -1.382 5
48.106998 -0.090000004 -1.023 6
57.243 -0.103 -0.255 73
53.188 -0.090999998 0.65700001 63
53.776001 -0.086000003 1.569 5
31.752001 -0.037999999 -1.525 6
40.639 -0.044 -1.265 1
51.675999 -0.050000001 -0.74000001 19
53.618999 -0.044 0.134 2
53.582001 -0.037 1.033 20
69.259003 -0.035999998 2.5009999 6
35.358002 -0.0099999998 -1.452 6
46.287998 -0.0049999999 -1.122 5
56.988998 0.0020000001 -0.42399999 60
53.188999 0.012 0.498 40
53.005001 0.023 1.388 10
69.306 0.046 2.984 8
0 0 0 0
51.522999 0.048999999 -0.89200002 41
57.200001 0.067000002 -0.030999999 36
53.316002 0.075999998 0.866 49
73.457001 0.123 2.4260001 34
93.681999 0.183 4.671 21
0 0 0 0
53.601002 0.115 -0.56300002 47
53.422001 0.12899999 0.33500001 20
53.733002 0.146 1.238 6
