# .PCD v0.7 - Point Cloud Data file format
VERSION 0.7
FIELDS x y z intensity
SIZE 4 4 4 4
TYPE F F F F
COUNT 1 1 1 1
WIDTH 1731
HEIGHT 1
VIEWPOINT 0 0 0 1 0 0 0
POINTS 1731
DATA ascii
24.033001 -0.075000003 -1.587 12
29.200001 -0.089000002 -1.503 7
35.384998 -0.105 -1.307 5
44.713001 -0.12800001 -1.001 2
50.505001 -0.14 -0.40099999 6
19.349001 -0.079999998 -1.696 13
22.358999 -0.090999998 -1.633 17
26.482 -0.105 -1.5470001 7
31.987 -0.124 -1.404 6
0 0 0 0
50.375 -0.184 -0.75400001 46
18.009001 -0.093000002 -1.705 12
20.690001 -0.106 -1.6569999 15
24.250999 -0.121 -1.5880001 10
29.136 -0.142 -1.485 6
35.426998 -0.169 -1.289 4
46.400002 -0.215 -1.017 11
16.915001 -0.108 -1.721 10
19.400999 -0.121 -1.689 13
22.584 -0.139 -1.635 18
26.537001 -0.15899999 -1.535 7
32.348999 -0.19 -1.401 6
0 0 0 0
15.932 -0.122 -1.733 9
18.09 -0.13600001 -1.701 12
20.941 -0.155 -1.663 16
24.457001 -0.177 -1.585 8
29.492001 -0.20900001 -1.482 6
35.724998 -0.248 -1.276 4
15.06 -0.13699999 -1.743 10
16.976 -0.152 -1.715 10
19.586 -0.17200001 -1.692 14
22.639999 -0.19499999 -1.623 18
26.857 -0.226 -1.535 7
32.345001 -0.26699999 -1.3789999 5
14.288 -0.15099999 -1.7539999 10
15.998 -0.167 -1.726 9
18.271 -0.18700001 -1.7029999 12
21.108 -0.212 -1.6569999 16
24.725 -0.244 -1.58 8
29.764999 -0.28799999 -1.471 7
13.605 -0.16599999 -1.7640001 11
15.102 -0.182 -1.734 10
17.125999 -0.20299999 -1.714 10
19.673 -0.229 -1.6799999 14
22.861 -0.26100001 -1.618 18
27.091999 -0.30399999 -1.524 6
12.991 -0.182 -1.775 10
14.351 -0.198 -1.747 10
16.143 -0.219 -1.726 9
18.445 -0.24600001 -1.701 12
21.368 -0.28 -1.6569999 16
25.014999 -0.322 -1.577 8
12.417 -0.197 -1.783 10
13.669 -0.213 -1.758 11
15.287 -0.235 -1.74 10
17.315001 -0.26199999 -1.715 11
19.924999 -0.296 -1.681 14
23.121 -0.338 -1.614 18
11.915 -0.212 -1.7920001 11
13.052 -0.229 -1.768 10
14.489 -0.25 -1.747 10
16.288 -0.27700001 -1.723 9
18.677999 -0.31299999 -1.702 12
21.584999 -0.35600001 -1.652 16
11.431 -0.227 -1.798 10
12.491 -0.245 -1.778 11
13.801 -0.26699999 -1.7589999 11
15.421 -0.294 -1.7359999 9
17.489 -0.32800001 -1.712 11
20.084 -0.37099999 -1.6720001 14
10.983 -0.243 -1.804 10
11.982 -0.26100001 -1.788 11
13.164 -0.28299999 -1.768 11
14.629 -0.31 -1.747 10
16.457001 -0.34400001 -1.723 10
18.85 -0.389 -1.697 13
10.573 -0.25799999 -1.8099999 12
11.488 -0.27700001 -1.794 11
12.612 -0.30000001 -1.78 11
13.937 -0.32699999 -1.7589999 10
15.586 -0.361 -1.737 10
17.650999 -0.403 -1.707 11
10.186 -0.273 -1.814 12
11.05 -0.29300001 -1.8 11
12.102 -0.317 -1.79 11
13.317 -0.34400001 -1.77 11
14.768 -0.37599999 -1.745 10
16.652 -0.419 -1.722 10
9.8299999 -0.289 -1.818 11
10.631 -0.308 -1.804 12
11.61 -0.33199999 -1.795 11
12.725 -0.36000001 -1.777 11
14.077 -0.39300001 -1.757 11
15.757 -0.435 -1.735 10
9.4860001 -0.30399999 -1.8200001 11
10.256 -0.324 -1.8099999 12
11.166 -0.34900001 -1.801 11
12.218 -0.377 -1.788 11
13.456 -0.41 -1.768 10
14.918 -0.449 -1.739 11
9.1789999 -0.31900001 -1.823 11
9.8870001 -0.34 -1.812 11
10.74 -0.36500001 -1.8049999 12
11.732 -0.39399999 -1.795 12
12.882 -0.42699999 -1.778 11
14.24 -0.46700001 -1.755 11
8.8780003 -0.33399999 -1.823 10
9.559 -0.35600001 -1.816 11
10.368 -0.38100001 -1.811 12
11.281 -0.41 -1.8 12
12.35 -0.44400001 -1.786 11
13.584 -0.48300001 -1.762 10
8.6120005 -0.34999999 -1.827 11
9.2469997 -0.37099999 -1.819 11
10.004 -0.39700001 -1.8150001 11
10.872 -0.426 -1.807 12
11.86 -0.46000001 -1.7920001 11
13.012 -0.49900001 -1.773 11
8.3610001 -0.366 -1.83 10
8.9610004 -0.38699999 -1.823 11
9.6660004 -0.41299999 -1.817 12
10.485 -0.44299999 -1.812 12
11.41 -0.477 -1.799 12
12.487 -0.51599997 -1.7819999 12
8.1370001 -0.382 -1.836 11
8.6809998 -0.403 -1.824 10
9.3509998 -0.42899999 -1.8200001 12
10.123 -0.46000001 -1.8150001 12
11.003 -0.49399999 -1.806 13
11.998 -0.53299999 -1.79 11
7.9099998 -0.398 -1.839 10
8.427 -0.419 -1.827 11
9.059 -0.44499999 -1.823 11
9.7629995 -0.47499999 -1.814 11
10.59 -0.50999999 -1.807 12
11.544 -0.55000001 -1.796 11
7.7249999 -0.41499999 -1.848 11
8.1879997 -0.435 -1.829 10
8.7810001 -0.461 -1.825 11
9.4610004 -0.49200001 -1.8200001 12
10.239 -0.52700001 -1.813 12
11.12 -0.56599998 -1.801 11
7.4889998 -0.428 -1.84 11
7.9759998 -0.45100001 -1.834 11
8.526 -0.477 -1.826 11
9.1759996 -0.50800002 -1.824 11
9.8990002 -0.54299998 -1.816 12
10.731 -0.583 -1.806 12
7.2859998 -0.44299999 -1.839 11
7.7859998 -0.46900001 -1.841 11
8.2930002 -0.49399999 -1.831 11
8.8839998 -0.52399999 -1.823 10
9.5690002 -0.55900002 -1.817 12
10.383 -0.60100001 -1.814 12
7.1129999 -0.46000001 -1.8430001 11
7.586 -0.48500001 -1.844 10
8.0880003 -0.51200002 -1.8380001 11
8.6420002 -0.54100001 -1.8279999 11
9.2919998 -0.57599998 -1.823 12
10.041 -0.61699998 -1.816 14
6.9320002 -0.47499999 -1.842 11
7.362 -0.49900001 -1.837 11
7.8790002 -0.528 -1.841 11
8.4020004 -0.55800003 -1.831 11
9.0200005 -0.59299999 -1.826 11
9.724 -0.63300002 -1.8200001 12
6.7800002 -0.491 -1.845 11
7.1739998 -0.514 -1.837 12
7.6609998 -0.54400003 -1.839 12
8.1890001 -0.57499999 -1.836 11
8.7609997 -0.61000001 -1.8279999 11
9.4219999 -0.64899999 -1.821 12
6.6279998 -0.50700003 -1.847 11
7.006 -0.52999997 -1.839 12
7.4780002 -0.56 -1.842 12
7.9920001 -0.59299999 -1.842 12
8.5159998 -0.62599999 -1.83 11
9.1420002 -0.66600001 -1.823 11
6.4809999 -0.523 -1.848 11
6.8569999 -0.54699999 -1.844 12
7.296 -0.57700002 -1.844 13
7.7810001 -0.60900003 -1.842 12
8.2950001 -0.64300001 -1.834 11
8.8809996 -0.68300003 -1.826 11
6.3400002 -0.53799999 -1.849 11
6.7030001 -0.56300002 -1.845 11
7.1139998 -0.59200001 -1.842 12
7.5809999 -0.625 -1.842 12
8.0959997 -0.66100001 -1.839 11
8.6440001 -0.69999999 -1.829 11
6.197 -0.55299997 -1.848 11
6.5689998 -0.58099997 -1.85 12
6.9499998 -0.60799998 -1.8430001 12
7.3940001 -0.63999999 -1.841 13
7.8979998 -0.67799997 -1.842 12
8.4139996 -0.71600002 -1.83 12
6.0809999 -0.56999999 -1.852 12
6.421 -0.59600002 -1.848 12
6.8039999 -0.625 -1.846 12
7.2270002 -0.65799999 -1.844 13
7.6939998 -0.69400001 -1.841 12
8.2159996 -0.73500001 -1.836 11
5.9489999 -0.58499998 -1.849 12
6.2849998 -0.61199999 -1.848 12
6.6560001 -0.64099997 -1.848 12
7.0440001 -0.67299998 -1.84 12
7.506 -0.70999998 -1.841 13
7.9949999 -0.75 -1.834 11
5.8319998 -0.60100001 -1.85 11
6.1550002 -0.62800002 -1.848 11
6.5289998 -0.65899998 -1.852 13
6.9109998 -0.69099998 -1.847 12
7.3400002 -0.727 -1.8430001 12
7.8140001 -0.76800001 -1.839 12
5.7160001 -0.616 -1.849 12
6.0310001 -0.64300001 -1.848 12
6.388 -0.67500001 -1.851 13
6.7480001 -0.70599997 -1.844 12
7.1760001 -0.74400002 -1.844 13
7.618 -0.78299999 -1.836 13
5.6030002 -0.63099998 -1.847 12
5.9130001 -0.65899998 -1.848 11
6.2600002 -0.69099998 -1.851 13
6.6269999 -0.72500002 -1.85 12
7.0190001 -0.76099998 -1.845 12
7.4590001 -0.80199999 -1.841 13
5.4970002 -0.64600003 -1.846 11
5.789 -0.67400002 -1.845 14
6.1300001 -0.70700002 -1.849 13
6.4920001 -0.74199998 -1.851 12
6.8660002 -0.778 -1.845 12
7.2940001 -0.81900001 -1.842 12
5.4180002 -0.66399997 -1.853 11
5.6960001 -0.69199997 -1.85 13
6.0139999 -0.72299999 -1.85 15
6.3590002 -0.75700003 -1.849 13
6.724 -0.79400003 -1.845 12
7.138 -0.83600003 -1.8430001 12
5.3119998 -0.67900002 -1.85 11
5.5879998 -0.70700002 -1.848 12
5.8990002 -0.73900002 -1.85 13
6.2379999 -0.77399999 -1.85 14
6.6040001 -0.81300002 -1.849 12
6.974 -0.85100001 -1.839 13
5.2210002 -0.69499999 -1.85 11
5.494 -0.72399998 -1.849 13
5.803 -0.75700003 -1.853 13
6.1209998 -0.79100001 -1.85 13
6.4840002 -0.83099997 -1.852 13
6.8509998 -0.87099999 -1.845 13
5.151 -0.713 -1.8559999 11
5.3990002 -0.73900002 -1.849 12
5.6919999 -0.77200001 -1.85 13
6.013 -0.80800003 -1.852 13
6.3600001 -0.847 -1.852 13
6.7249999 -0.889 -1.847 11
5.0549998 -0.727 -1.851 11
5.3169999 -0.75599998 -1.852 12
5.5939999 -0.78799999 -1.85 13
5.9070001 -0.82499999 -1.852 13
6.2340002 -0.86299998 -1.849 13
6.5879998 -0.90499997 -1.845 12
4.9840002 -0.74400002 -1.854 11
5.2379999 -0.77399999 -1.855 12
5.5040002 -0.80500001 -1.852 11
5.809 -0.84200001 -1.853 13
6.1240001 -0.88 -1.85 12
6.4720001 -0.92199999 -1.847 13
4.902 -0.759 -1.853 10
5.1500001 -0.78899997 -1.853 13
5.4109998 -0.82099998 -1.851 13
5.7069998 -0.85799998 -1.852 13
6.0219998 -0.898 -1.852 14
6.3579998 -0.94 -1.848 12
4.836 -0.77600002 -1.8559999 11
5.0809999 -0.80699998 -1.857 12
5.336 -0.83899999 -1.855 12
5.6059999 -0.87400001 -1.85 12
5.9250002 -0.91500002 -1.853 13
6.2350001 -0.95599997 -1.844 12
4.7600002 -0.792 -1.854 10
5.006 -0.824 -1.858 12
5.2540002 -0.85600001 -1.855 12
5.5180001 -0.89099997 -1.85 13
5.7849998 -0.926 -1.839 12
6.125 -0.972 -1.8430001 13
4.697 -0.80800003 -1.857 11
4.9310002 -0.83999997 -1.858 12
5.1799998 -0.87300003 -1.857 12
5.4239998 -0.90600002 -1.848 12
5.717 -0.94700003 -1.848 12
6.0419998 -0.99299997 -1.849 13
4.6459999 -0.82700002 -1.863 10
4.8569999 -0.85600001 -1.857 11
5.098 -0.88999999 -1.855 12
5.3600001 -0.92699999 -1.854 13
5.6389999 -0.96700001 -1.852 12
5.947 -1.011 -1.85 13
4.5830002 -0.84399998 -1.863 11
4.7880001 -0.87199998 -1.8559999 12
5.0279999 -0.90700001 -1.8559999 12
5.2909999 -0.94599998 -1.858 12
5.5539999 -0.98400003 -1.852 13
5.8400002 -1.026 -1.846 12
4.5209999 -0.86000001 -1.863 10
4.7210002 -0.88800001 -1.8559999 11
4.967 -0.92500001 -1.86 11
5.211 -0.96200001 -1.8559999 12
5.4650002 -1 -1.849 13
5.7480001 -1.043 -1.844 11
4.4619999 -0.87599999 -1.864 9
4.6719999 -0.90700001 -1.8609999 12
4.901 -0.94300002 -1.8609999 12
5.1409998 -0.98000002 -1.857 11
5.3959999 -1.0190001 -1.852 13
5.6570001 -1.0599999 -1.8430001 12
4.4000001 -0.89200002 -1.8609999 9
4.6110001 -0.92400002 -1.8609999 11
4.8270001 -0.958 -1.857 11
5.072 -0.99699998 -1.858 11
5.3330002 -1.039 -1.857 12
5.6040001 -1.0829999 -1.852 12
4.3590002 -0.91100001 -1.867 10
4.5619998 -0.94300002 -1.865 11
4.77 -0.97600001 -1.859 12
5.006 -1.015 -1.858 12
5.2509999 -1.0549999 -1.853 12
5.533 -1.102 -1.854 13
4.3039999 -0.92699999 -1.867 10
4.5079999 -0.95999998 -1.8660001 11
4.7160001 -0.99400002 -1.862 12
4.948 -1.033 -1.86 12
5.1999998 -1.076 -1.859 12
5.4559999 -1.12 -1.853 12
4.2589998 -0.94400001 -1.869 10
4.4549999 -0.977 -1.867 10
4.6550002 -1.011 -1.8609999 12
4.8850002 -1.05 -1.86 11
5.1360002 -1.094 -1.86 12
5.3930001 -1.14 -1.8559999 12
4.2119999 -0.96100003 -1.8710001 10
4.4070001 -0.995 -1.869 11
4.6090002 -1.029 -1.864 12
4.8390002 -1.071 -1.865 11
5.072 -1.112 -1.86 12
5.3239999 -1.1569999 -1.855 11
4.164 -0.977 -1.87 9
4.3509998 -1.01 -1.8660001 11
4.5500002 -1.045 -1.862 11
4.776 -1.087 -1.862 11
5.013 -1.13 -1.86 12
5.263 -1.177 -1.857 12
4.118 -0.99400002 -1.87 9
4.3080001 -1.028 -1.868 11
4.5100002 -1.0650001 -1.8660001 11
4.7179999 -1.103 -1.8609999 12
4.9580002 -1.149 -1.862 11
5.21 -1.197 -1.86 12
4.0689998 -1.0089999 -1.868 9
4.2680001 -1.0470001 -1.8710001 10
4.4689999 -1.084 -1.87 11
4.6719999 -1.123 -1.863 11
4.9039998 -1.1670001 -1.862 11
5.151 -1.216 -1.86 12
4.0240002 -1.025 -1.8660001 9
4.223 -1.063 -1.8710001 10
4.4200001 -1.102 -1.869 11
4.625 -1.141 -1.864 11
4.848 -1.1849999 -1.8609999 12
5.0939999 -1.235 -1.86 12
3.9820001 -1.041 -1.8660001 9
4.1700001 -1.0779999 -1.867 10
4.375 -1.119 -1.869 10
4.572 -1.158 -1.862 9
4.7979999 -1.204 -1.862 11
5.0419998 -1.2539999 -1.8609999 11
3.951 -1.0599999 -1.87 9
4.138 -1.097 -1.8710001 10
4.3319998 -1.136 -1.87 10
4.526 -1.175 -1.862 11
4.75 -1.222 -1.862 11
4.9879999 -1.273 -1.8609999 12
3.9119999 -1.076 -1.87 9
4.0970001 -1.114 -1.87 10
4.2880001 -1.154 -1.869 10
4.48 -1.193 -1.862 11
4.7069998 -1.242 -1.864 11
4.9510002 -1.295 -1.865 12
3.8770001 -1.0930001 -1.87 9
4.059 -1.131 -1.8710001 10
4.2509999 -1.1720001 -1.87 10
4.4510002 -1.215 -1.867 10
4.6560001 -1.258 -1.8609999 11
4.8930001 -1.311 -1.8609999 12
3.8499999 -1.112 -1.874 9
4.033 -1.151 -1.875 9
4.2119999 -1.189 -1.87 10
4.4159999 -1.234 -1.87 10
4.6149998 -1.277 -1.862 11
4.849 -1.331 -1.862 11
3.8110001 -1.128 -1.872 9
3.9920001 -1.1670001 -1.873 11
4.1859999 -1.21 -1.875 11
4.3769999 -1.253 -1.87 10
4.5760002 -1.2970001 -1.863 10
4.8000002 -1.349 -1.86 11
3.783 -1.146 -1.874 8
3.9590001 -1.1849999 -1.873 10
4.1469998 -1.227 -1.873 10
4.3379998 -1.27 -1.869 10
4.5359998 -1.316 -1.862 10
4.7610002 -1.369 -1.86 10
3.7579999 -1.165 -1.877 9
3.928 -1.2029999 -1.874 10
4.1100001 -1.244 -1.872 10
4.309 -1.291 -1.872 10
4.5079999 -1.337 -1.8660001 10
4.73 -1.39 -1.864 11
3.734 -1.183 -1.8789999 9
3.8989999 -1.221 -1.875 10
4.085 -1.2640001 -1.875 10
4.277 -1.3099999 -1.873 10
4.4699998 -1.355 -1.865 11
4.691 -1.41 -1.863 11
3.7049999 -1.2 -1.8789999 9
3.8670001 -1.237 -1.874 10
4.0570002 -1.283 -1.876 10
4.2470002 -1.329 -1.873 10
4.4530001 -1.38 -1.872 11
4.6620002 -1.431 -1.865 10
3.6789999 -1.2180001 -1.88 8
3.8440001 -1.256 -1.876 10
4.0219998 -1.299 -1.874 10
4.2189999 -1.349 -1.875 10
4.4169998 -1.398 -1.87 10
4.6300001 -1.452 -1.8660001 10
3.652 -1.234 -1.88 9
3.8199999 -1.275 -1.878 10
3.997 -1.319 -1.875 11
4.1859999 -1.3660001 -1.873 10
4.3790002 -1.415 -1.867 11
4.5970001 -1.472 -1.8660001 11
3.6270001 -1.252 -1.88 8
3.793 -1.2920001 -1.877 10
3.98 -1.34 -1.88 9
4.164 -1.387 -1.876 10
4.3579998 -1.437 -1.87 10
4.566 -1.4910001 -1.8660001 10
3.6099999 -1.271 -1.883 8
3.7709999 -1.311 -1.8789999 10
3.954 -1.358 -1.88 10
4.1370001 -1.406 -1.876 10
4.3369999 -1.459 -1.873 11
4.539 -1.512 -1.8660001 10
3.5899999 -1.29 -1.885 8
3.7420001 -1.327 -1.876 10
3.9289999 -1.377 -1.88 10
4.1160002 -1.426 -1.877 10
4.309 -1.478 -1.872 10
4.5180001 -1.535 -1.868 10
3.5680001 -1.307 -1.885 8
3.7249999 -1.346 -1.878 9
3.905 -1.395 -1.8789999 10
4.0900002 -1.4450001 -1.876 10
4.2930002 -1.501 -1.876 11
4.4879999 -1.554 -1.8660001 9
3.549 -1.325 -1.885 8
3.711 -1.367 -1.882 9
3.8870001 -1.414 -1.88 9
4.072 -1.465 -1.878 9
4.2649999 -1.5190001 -1.874 10
4.4699998 -1.577 -1.869 10
3.5250001 -1.34 -1.883 9
3.6900001 -1.385 -1.881 10
3.8670001 -1.433 -1.88 10
4.0539999 -1.4859999 -1.8789999 10
4.256 -1.543 -1.8789999 10
4.4530001 -1.599 -1.8710001 10
3.5139999 -1.36 -1.887 9
3.671 -1.402 -1.881 9
3.848 -1.452 -1.88 9
4.039 -1.507 -1.881 9
4.2360001 -1.563 -1.878 9
4.4380002 -1.622 -1.872 10
3.5020001 -1.38 -1.89 8
3.655 -1.421 -1.881 9
3.826 -1.469 -1.878 9
4.0250001 -1.527 -1.882 10
4.2129998 -1.581 -1.876 9
4.4190001 -1.642 -1.872 10
3.484 -1.396 -1.888 8
3.6400001 -1.439 -1.882 9
3.8210001 -1.492 -1.8839999 8
4.0050001 -1.545 -1.881 9
4.204 -1.605 -1.8789999 10
4.4029999 -1.664 -1.873 10
3.464 -1.4119999 -1.886 8
3.6259999 -1.4579999 -1.883 10
3.8039999 -1.51 -1.883 9
3.997 -1.568 -1.8839999 11
4.1830001 -1.623 -1.877 10
4.395 -1.689 -1.876 10
3.4560001 -1.432 -1.8890001 9
3.618 -1.478 -1.885 9
3.7920001 -1.53 -1.883 9
3.9860001 -1.589 -1.886 9
4.1810002 -1.649 -1.882 10
4.3779998 -1.709 -1.874 10
3.4460001 -1.451 -1.891 8
3.6040001 -1.4960001 -1.885 9
3.7809999 -1.549 -1.8839999 9
3.973 -1.609 -1.885 9
4.164 -1.668 -1.88 10
4.3629999 -1.73 -1.873 10
3.434 -1.4680001 -1.89 8
3.5910001 -1.5140001 -1.8839999 9
3.763 -1.566 -1.881 9
3.961 -1.628 -1.885 10
4.1599998 -1.691 -1.883 10
4.3660002 -1.757 -1.8789999 10
3.4289999 -1.488 -1.893 8
3.586 -1.534 -1.886 9
3.7620001 -1.589 -1.885 9
3.957 -1.651 -1.887 9
4.1469998 -1.711 -1.882 10
4.3530002 -1.778 -1.877 10
3.415 -1.5039999 -1.89 8
3.5799999 -1.554 -1.888 9
3.7590001 -1.6109999 -1.888 9
3.944 -1.669 -1.885 9
4.1409998 -1.734 -1.882 10
4.3460002 -1.8 -1.877 10
3.414 -1.525 -1.8940001 8
3.5669999 -1.571 -1.885 9
3.753 -1.631 -1.888 9
3.948 -1.6950001 -1.89 10
4.1370001 -1.756 -1.883 10
4.342 -1.824 -1.878 10
3.415 -1.5470001 -1.898 8
3.566 -1.592 -1.888 9
3.743 -1.649 -1.886 9
3.938 -1.7130001 -1.888 9
4.1339998 -1.778 -1.8839999 10
4.3439999 -1.849 -1.88 10
3.405 -1.563 -1.896 8
3.5610001 -1.6109999 -1.888 9
3.7420001 -1.67 -1.888 8
3.9360001 -1.735 -1.8890001 10
4.1339998 -1.802 -1.886 10
4.3400002 -1.872 -1.8789999 11
3.404 -1.5829999 -1.898 7
3.562 -1.632 -1.891 9
3.733 -1.688 -1.886 9
3.9319999 -1.756 -1.888 9
4.1290002 -1.823 -1.8839999 10
4.3400002 -1.895 -1.88 10
3.3989999 -1.601 -1.898 8
3.556 -1.65 -1.8890001 9
3.7409999 -1.712 -1.89 9
3.931 -1.777 -1.888 10
4.1269999 -1.844 -1.883 10
4.3439999 -1.921 -1.881 10
3.3929999 -1.618 -1.896 8
3.556 -1.67 -1.89 9
3.7420001 -1.734 -1.891 9
3.9300001 -1.798 -1.888 9
4.1360002 -1.87 -1.887 10
4.3470001 -1.9450001 -1.881 10
3.391 -1.636 -1.895 8
3.5599999 -1.692 -1.892 9
3.7460001 -1.755 -1.893 10
3.9400001 -1.823 -1.891 10
4.138 -1.893 -1.886 9
4.349 -1.9680001 -1.88 10
3.395 -1.656 -1.897 8
3.5639999 -1.7130001 -1.8940001 9
3.74 -1.772 -1.8890001 9
3.9419999 -1.845 -1.891 8
4.1459999 -1.9170001 -1.888 10
4.3579998 -1.994 -1.882 9
3.4000001 -1.676 -1.899 8
3.566 -1.732 -1.8940001 8
3.7550001 -1.798 -1.895 9
3.95 -1.868 -1.893 8
4.151 -1.9400001 -1.887 10
4.3670001 -2.0190001 -1.882 9
3.398 -1.693 -1.897 8
3.5710001 -1.753 -1.8940001 8
3.757 -1.818 -1.893 9
3.9579999 -1.891 -1.8940001 9
4.158 -1.9630001 -1.887 10
4.375 -2.0439999 -1.882 10
3.402 -1.712 -1.897 8
3.5699999 -1.7690001 -1.891 9
3.7650001 -1.84 -1.8940001 8
3.9649999 -1.913 -1.893 9
4.1719999 -1.989 -1.8890001 9
4.3920002 -2.072 -1.8839999 10
3.414 -1.734 -1.901 8
3.5799999 -1.791 -1.893 9
3.777 -1.864 -1.896 8
3.98 -1.939 -1.896 9
4.184 -2.0139999 -1.8890001 9
4.4039998 -2.0969999 -1.8839999 9
3.4189999 -1.753 -1.9 8
3.5899999 -1.813 -1.8940001 9
3.7880001 -1.886 -1.897 8
3.9879999 -1.96 -1.895 8
4.1950002 -2.0369999 -1.8890001 9
4.4250002 -2.1259999 -1.886 9
3.431 -1.775 -1.902 8
3.598 -1.8329999 -1.8940001 10
3.799 -1.908 -1.897 9
4 -1.983 -1.8940001 9
4.2090001 -2.062 -1.8890001 9
4.4349999 -2.1489999 -1.883 9
3.434 -1.791 -1.899 8
3.6099999 -1.853 -1.8940001 9
3.8169999 -1.932 -1.9 8
4.0139999 -2.006 -1.8940001 9
4.224 -2.086 -1.888 9
4.4619999 -2.1789999 -1.887 10
3.45 -1.813 -1.902 8
3.6289999 -1.878 -1.898 8
3.829 -1.9529999 -1.899 8
4.033 -2.0309999 -1.896 8
4.243 -2.1110001 -1.888 9
4.48 -2.2049999 -1.885 10
3.4579999 -1.83 -1.9 8
3.6389999 -1.897 -1.896 9
3.846 -1.977 -1.9 9
4.0510001 -2.0550001 -1.896 9
4.2620001 -2.1359999 -1.887 9
4.513 -2.2379999 -1.89 10
3.47 -1.849 -1.899 8
3.658 -1.92 -1.898 8
3.858 -1.997 -1.897 8
4.0689998 -2.0780001 -1.895 9
4.2839999 -2.1619999 -1.888 9
4.5110002 -2.253 -1.8789999 9
3.49 -1.872 -1.902 7
3.675 -1.942 -1.898 9
3.882 -2.0220001 -1.9 8
4.0890002 -2.1029999 -1.895 9
4.2979999 -2.1830001 -1.883 8
4.5580001 -2.2909999 -1.887 10
3.5020001 -1.89 -1.899 8
3.6960001 -1.964 -1.9 10
3.9030001 -2.0450001 -1.9 9
4.1139998 -2.128 -1.895 9
4.342 -2.2190001 -1.891 9
4.5780001 -2.3150001 -1.883 9
3.5150001 -1.908 -1.897 7
3.72 -1.989 -1.902 9
3.9230001 -2.0680001 -1.899 7
4.1389999 -2.154 -1.895 9
4.3460002 -2.234 -1.881 9
4.6100001 -2.3440001 -1.883 9
3.5380001 -1.931 -1.899 8
3.743 -2.0109999 -1.902 9
3.9489999 -2.092 -1.9 9
4.178 -2.1849999 -1.901 8
4.4000001 -2.2739999 -1.891 9
4.651 -2.378 -1.886 9
3.5610001 -1.952 -1.9 8
3.77 -2.0350001 -1.904 9
3.973 -2.115 -1.899 9
4.1859999 -2.2 -1.892 9
4.4330001 -2.302 -1.891 9
4.684 -2.4059999 -1.885 9
3.5810001 -1.972 -1.899 8
3.79 -2.0550001 -1.902 9
4.0040002 -2.141 -1.901 9
4.2270002 -2.2320001 -1.896 8
4.447 -2.3199999 -1.883 9
4.7150002 -2.4330001 -1.882 9
3.6110001 -1.9960001 -1.902 8
3.8110001 -2.075 -1.899 9
4.0300002 -2.164 -1.899 8
4.2589998 -2.257 -1.896 8
4.4879999 -2.3510001 -1.885 9
4.763 -2.4679999 -1.885 9
3.6340001 -2.016 -1.901 8
3.845 -2.1010001 -1.902 8
4.0599999 -2.188 -1.898 9
4.2969999 -2.286 -1.897 9
4.5370002 -2.3859999 -1.8890001 9
4.8070002 -2.5009999 -1.885 9
3.664 -2.039 -1.902 8
3.8759999 -2.125 -1.902 8
4.099 -2.2160001 -1.901 9
4.3330002 -2.313 -1.897 8
4.5869999 -2.4200001 -1.893 9
4.8559999 -2.5339999 -1.886 9
3.6919999 -2.0610001 -1.901 8
3.9070001 -2.148 -1.902 9
4.1279998 -2.2379999 -1.898 9
4.3740001 -2.3410001 -1.897 9
4.6329999 -2.4519999 -1.893 9
4.9089999 -2.5699999 -1.887 8
3.727 -2.0840001 -1.903 8
3.937 -2.1689999 -1.9 9
4.165 -2.2639999 -1.898 8
4.414 -2.369 -1.896 9
4.677 -2.4809999 -1.893 8
4.9699998 -2.609 -1.891 8
3.76 -2.1070001 -1.903 8
3.9779999 -2.1960001 -1.902 9
4.2059999 -2.2909999 -1.898 8
4.4510002 -2.3940001 -1.8940001 9
4.7270002 -2.513 -1.893 8
5.02 -2.641 -1.8890001 9
3.7939999 -2.1289999 -1.903 8
4.013 -2.2190001 -1.901 9
4.2480001 -2.3169999 -1.898 8
4.5139999 -2.4319999 -1.9 9
4.777 -2.5439999 -1.892 8
5.0830002 -2.6789999 -1.89 8
3.8380001 -2.1559999 -1.906 8
4.0500002 -2.2420001 -1.899 8
4.2930002 -2.345 -1.898 9
4.5560002 -2.457 -1.897 8
4.836 -2.579 -1.8940001 8
5.1399999 -2.7130001 -1.8890001 9
3.8629999 -2.1719999 -1.9 8
4.092 -2.267 -1.899 9
4.3429999 -2.3740001 -1.9 9
4.612 -2.49 -1.899 8
4.8940001 -2.6129999 -1.8940001 8
5.2080002 -2.7520001 -1.89 9
3.9059999 -2.197 -1.901 8
4.131 -2.29 -1.897 9
4.3860002 -2.3989999 -1.897 9
4.651 -2.513 -1.893 8
4.9520001 -2.645 -1.893 8
5.276 -2.789 -1.89 9
3.9519999 -2.2219999 -1.903 9
4.1820002 -2.3180001 -1.898 8
4.4450002 -2.431 -1.9 9
4.7119999 -2.546 -1.8940001 7
5.0320001 -2.6889999 -1.899 8
5.3449998 -2.8269999 -1.89 9
3.994 -2.2449999 -1.901 8
4.2270002 -2.342 -1.896 9
4.4949999 -2.4579999 -1.898 8
4.7800002 -2.5829999 -1.897 8
5.0970001 -2.723 -1.898 8
5.4359999 -2.875 -1.895 9
4.0419998 -2.27 -1.902 8
4.2870002 -2.3740001 -1.9 8
4.5549998 -2.4890001 -1.899 9
4.8400002 -2.6129999 -1.896 8
5.1630001 -2.7579999 -1.896 8
5.5110002 -2.914 -1.893 9
4.0929999 -2.296 -1.902 8
4.3390002 -2.4000001 -1.899 9
4.6149998 -2.5190001 -1.899 9
4.9109998 -2.6500001 -1.898 8
5.2329998 -2.7920001 -1.8940001 9
5.599 -2.9579999 -1.895 9
4.1420002 -2.3199999 -1.901 8
4.3920002 -2.4260001 -1.898 8
4.6690001 -2.546 -1.896 8
4.9819999 -2.684 -1.898 8
5.309 -2.8299999 -1.8940001 9
5.6929998 -3.0050001 -1.897 9
4.1929998 -2.3429999 -1.9 8
4.46 -2.4590001 -1.902 9
4.73 -2.5739999 -1.8940001 7
5.0539999 -2.7190001 -1.898 9
5.3940001 -2.8710001 -1.895 9
5.776 -3.0439999 -1.895 9
4.256 -2.3729999 -1.903 8
4.5139999 -2.483 -1.898 8
4.8130002 -2.6140001 -1.9 8
5.131 -2.7550001 -1.898 8
5.4879999 -2.915 -1.899 8
5.8790002 -3.0929999 -1.897 9
4.3130002 -2.398 -1.902 8
4.5799999 -2.513 -1.899 8
4.8800001 -2.6440001 -1.899 8
5.2129998 -2.7920001 -1.899 9
5.5809999 -2.9579999 -1.9 8
5.9679999 -3.1329999 -1.893 9
4.3759999 -2.4260001 -1.903 8
4.6409998 -2.539 -1.896 8
4.9530001 -2.6760001 -1.898 8
5.289 -2.826 -1.897 9
5.671 -2.9979999 -1.899 9
6.1059999 -3.198 -1.903 8
4.4349999 -2.451 -1.901 8
4.7069998 -2.5669999 -1.8940001 7
5.0430002 -2.717 -1.902 8
5.382 -2.8670001 -1.898 9
5.7719998 -3.043 -1.9 9
6.1849999 -3.23 -1.893 10
4.5079999 -2.4820001 -1.903 8
4.7870002 -2.6010001 -1.897 8
5.1149998 -2.7460001 -1.898 9
5.4780002 -2.908 -1.9 9
5.8670001 -3.0829999 -1.897 9
6.3010001 -3.28 -1.893 10
4.5749998 -2.5079999 -1.902 8
4.8629999 -2.632 -1.896 8
5.1989999 -2.7809999 -1.898 9
5.5760002 -2.9489999 -1.901 8
5.9720001 -3.1270001 -1.896 9
6.4569998 -3.3499999 -1.902 9
4.645 -2.536 -1.901 8
4.9400001 -2.6619999 -1.895 8
5.2880001 -2.816 -1.898 9
5.684 -2.9949999 -1.904 9
6.0819998 -3.1719999 -1.895 9
6.5770001 -3.3989999 -1.9 9
4.7179999 -2.5639999 -1.9 8
5.0279999 -2.698 -1.897 8
5.3740001 -2.8499999 -1.896 9
5.7800002 -3.0320001 -1.901 9
6.2290001 -3.2360001 -1.904 9
6.7049999 -3.4519999 -1.898 8
4.7979999 -2.5940001 -1.9 8
5.1139998 -2.73 -1.897 9
5.4809999 -2.8929999 -1.899 9
5.9239998 -3.0929999 -1.9119999 8
6.3569999 -3.2869999 -1.905 9
6.8439999 -3.5079999 -1.898 9
4.8740001 -2.6210001 -1.898 8
5.204 -2.7639999 -1.897 9
5.5830002 -2.931 -1.899 9
5.9829998 -3.109 -1.8940001 9
6.48 -3.335 -1.903 8
6.9840002 -3.563 -1.895 9
4.961 -2.6530001 -1.899 8
5.2930002 -2.7950001 -1.895 9
5.6919999 -2.973 -1.901 10
6.1290002 -3.168 -1.903 8
6.6059999 -3.382 -1.901 8
7.1360002 -3.6210001 -1.8940001 9
5.0479999 -2.6830001 -1.898 9
5.3800001 -2.825 -1.891 9
5.7979999 -3.0109999 -1.899 10
6.2480001 -3.2119999 -1.901 8
6.7389998 -3.4319999 -1.898 8
7.2820001 -3.6760001 -1.89 9
5.1430001 -2.7160001 -1.9 9
5.5009999 -2.8710001 -1.898 10
5.9099998 -3.0510001 -1.898 9
6.3740001 -3.257 -1.9 8
6.8899999 -3.4879999 -1.898 9
7.4369998 -3.733 -1.885 9
5.2379999 -2.7490001 -1.899 9
5.6079998 -2.908 -1.897 9
6.0619998 -3.109 -1.908 8
6.5250001 -3.313 -1.903 9
7.033 -3.539 -1.895 9
7.619 -3.8010001 -1.886 8
5.3330002 -2.779 -1.898 9
5.7220001 -2.947 -1.898 10
6.1739998 -3.1459999 -1.904 8
6.6529999 -3.3570001 -1.899 9
7.1880002 -3.5940001 -1.893 9
7.8070002 -3.8710001 -1.886 8
5.4320002 -2.8099999 -1.896 9
5.8330002 -2.984 -1.897 10
6.2969999 -3.187 -1.901 8
6.7909999 -3.4030001 -1.897 9
7.3449998 -3.648 -1.8890001 9
8.0010004 -3.941 -1.885 9
5.539 -2.8440001 -1.896 9
5.9439998 -3.0179999 -1.8940001 9
6.4330001 -3.2320001 -1.901 8
6.9369998 -3.4519999 -1.8940001 8
7.5180001 -3.707 -1.887 8
8.21 -4.0159998 -1.885 9
5.6620002 -2.885 -1.899 9
6.1020002 -3.0739999 -1.903 8
6.5749998 -3.279 -1.901 9
7.0970001 -3.5050001 -1.893 8
7.7030001 -3.77 -1.886 8
8.4320002 -4.0939999 -1.885 9
5.776 -2.9189999 -1.898 10
6.2280002 -3.112 -1.902 9
6.7140002 -3.3210001 -1.898 9
7.2600002 -3.5580001 -1.891 8
7.8990002 -3.8380001 -1.887 8
8.6520004 -4.1700001 -1.882 8
5.902 -2.9579999 -1.9 9
6.3610001 -3.1530001 -1.901 8
6.8579998 -3.365 -1.8940001 9
7.4260001 -3.6099999 -1.888 9
8.0959997 -3.902 -1.883 9
8.8859997 -4.2490001 -1.8789999 8
6.059 -3.01 -1.91 8
6.5009999 -3.1949999 -1.899 9
7.027 -3.4189999 -1.896 8
7.6079998 -3.668 -1.886 8
8.3070002 -3.971 -1.881 9
9.1409998 -4.336 -1.8789999 9
6.1750002 -3.04 -1.905 8
6.6399999 -3.234 -1.897 9
7.178 -3.4619999 -1.891 9
7.8000002 -3.7279999 -1.885 8
8.5369997 -4.046 -1.882 9
9.427 -4.4330001 -1.881 9
6.3109999 -3.0780001 -1.904 9
6.7940001 -3.279 -1.897 9
7.3569999 -3.516 -1.891 9
8.0059996 -3.7920001 -1.885 8
8.7620001 -4.1160002 -1.878 9
9.7180004 -4.5300002 -1.881 9
6.4489999 -3.115 -1.903 9
6.948 -3.322 -1.8940001 9
7.5219998 -3.562 -1.886 9
8.217 -3.8559999 -1.8839999 9
9.0120001 -4.1950002 -1.877 9
10.037 -4.6370001 -1.883 9
6.5939999 -3.154 -1.902 9
7.1110001 -3.3659999 -1.893 9
7.711 -3.6159999 -1.885 10
8.441 -3.9230001 -1.883 9
9.3000002 -4.2880001 -1.881 9
10.359 -4.7399998 -1.883 8
6.743 -3.1919999 -1.9 9
7.2800002 -3.4119999 -1.891 10
7.9180002 -3.6760001 -1.885 10
8.6739998 -3.9920001 -1.882 9
9.5810003 -4.3740001 -1.88 10
10.699 -4.848 -1.881 9
6.8979998 -3.2320001 -1.898 9
7.447 -3.454 -1.887 10
8.1260004 -3.734 -1.885 9
8.9060001 -4.0570002 -1.878 10
9.8710003 -4.461 -1.878 9
11.062 -4.9629998 -1.88 9
7.0580001 -3.2709999 -1.896 9
7.632 -3.5020001 -1.885 11
8.3369999 -3.79 -1.882 10
9.1639996 -4.131 -1.877 11
10.213 -4.5679998 -1.882 9
11.451 -5.0840001 -1.88 9
7.2210002 -3.309 -1.893 10
7.8260002 -3.552 -1.883 10
8.573 -3.855 -1.882 10
9.4379997 -4.2090001 -1.877 10
10.535 -4.6609998 -1.88 8
11.831 -5.197 -1.875 9
7.3959999 -3.3510001 -1.892 10
8.0340004 -3.605 -1.883 10
8.8039999 -3.915 -1.8789999 10
9.7460003 -4.2979999 -1.88 9
10.882 -4.7620001 -1.878 9
12.283 -5.3369999 -1.876 8
7.5760002 -3.3929999 -1.8890001 10
8.2469997 -3.658 -1.882 10
9.0539999 -3.98 -1.878 10
10.062 -4.3860002 -1.881 9
11.244 -4.8649998 -1.876 9
12.733 -5.4699998 -1.873 9
7.7639999 -3.4349999 -1.887 10
8.4659996 -3.71 -1.88 10
9.3170004 -4.0479999 -1.877 10
10.384 -4.474 -1.881 9
11.635 -4.9759998 -1.875 9
13.196 -5.6040001 -1.867 9
7.9520001 -3.4749999 -1.8839999 10
8.6850004 -3.76 -1.876 10
9.6129999 -4.125 -1.8789999 10
10.713 -4.5599999 -1.878 8
12.048 -5.0900002 -1.873 9
13.737 -5.763 -1.8660001 8
8.1759996 -3.5280001 -1.886 9
8.9309998 -3.8180001 -1.875 10
9.8990002 -4.1950002 -1.877 9
11.086 -4.6609998 -1.88 10
12.493 -5.2129998 -1.872 9
14.253 -5.9070001 -1.859 8
8.3879995 -3.573 -1.8839999 10
9.191 -3.878 -1.875 10
10.218 -4.2750001 -1.878 9
11.453 -4.7529998 -1.877 9
12.948 -5.3340001 -1.867 8
14.806 -6.0580001 -1.849 9
8.6140003 -3.6199999 -1.882 10
9.4759998 -3.9460001 -1.877 9
10.546 -4.3530002 -1.877 8
11.823 -4.842 -1.8710001 10
13.406 -5.4499998 -1.86 7
15.444 -6.237 -1.845 10
8.8400002 -3.664 -1.8789999 10
9.757 -4.0079999 -1.876 9
10.901 -4.4400001 -1.8789999 9
12.246 -4.9489999 -1.87 9
13.926 -5.5869999 -1.8559999 8
16.059 -6.4000001 -1.8329999 10
9.0909996 -3.7160001 -1.878 10
10.052 -4.072 -1.875 9
11.243 -4.5159998 -1.875 8
12.689 -5.0570002 -1.868 9
14.497 -5.7360001 -1.854 8
16.743999 -6.5809999 -1.823 11
9.3500004 -3.767 -1.878 11
10.361 -4.1370001 -1.873 8
11.623 -4.6030002 -1.873 9
13.118 -5.1539998 -1.859 9
15.073 -5.8790002 -1.847 9
17.455 -6.7639999 -1.809 12
9.6140003 -3.816 -1.875 10
10.677 -4.2010002 -1.8710001 9
12 -4.6830001 -1.868 9
13.618 -5.2729998 -1.857 7
15.705 -6.0380001 -1.842 10
18.247 -6.9689999 -1.798 13
9.9119997 -3.8759999 -1.877 10
11.03 -4.2750001 -1.872 9
12.391 -4.763 -1.863 9
14.109 -5.382 -1.85 8
16.318001 -6.1810002 -1.831 11
19.16 -7.21 -1.791 11
10.205 -3.9289999 -1.876 9
11.379 -4.3429999 -1.87 9
12.832 -4.8579998 -1.8609999 8
14.679 -5.5139999 -1.849 9
16.972 -6.3299999 -1.818 12
20.125999 -7.4580002 -1.78 10
10.512 -3.983 -1.874 9
11.741 -4.4109998 -1.8660001 9
13.282 -4.9489999 -1.8559999 9
15.255 -5.6409998 -1.842 9
17.73 -6.5089998 -1.809 12
21.212 -7.737 -1.771 10
10.836 -4.04 -1.873 9
12.108 -4.474 -1.859 9
13.75 -5.0409999 -1.85 7
15.849 -5.7659998 -1.834 10
18.489 -6.6799998 -1.795 13
22.267 -7.9910002 -1.751 7
11.175 -4.0970001 -1.872 9
12.512 -4.5469999 -1.857 9
14.264 -5.1420002 -1.846 8
16.474001 -5.8940001 -1.824 11
19.384001 -6.8870001 -1.7869999 15
23.361 -8.2469997 -1.726 5
11.527 -4.1550002 -1.8710001 9
12.921 -4.6170001 -1.851 8
14.79 -5.243 -1.842 9
17.101999 -6.0180001 -1.811 12
20.334 -7.105 -1.779 12
24.695 -8.573 -1.71 5
11.876 -4.2069998 -1.867 9
13.351 -4.6890001 -1.847 10
15.371 -5.355 -1.839 9
17.816 -6.1599998 -1.802 12
21.278 -7.3060002 -1.761 10
26.089001 -8.8999996 -1.687 5
12.227 -4.2540002 -1.86 10
13.818 -4.7659998 -1.8430001 9
15.98 -5.467 -1.834 10
18.604 -6.3179998 -1.793 14
22.250999 -7.5040002 -1.74 8
27.639 -9.2609997 -1.661 5
12.611 -4.3070002 -1.8559999 9
14.286 -4.8379998 -1.836 10
16.546 -5.5580001 -1.821 11
19.396999 -6.467 -1.781 15
23.468 -7.77 -1.728 7
29.438999 -9.6829996 -1.638 5
13.006 -4.3579998 -1.851 9
14.81 -4.921 -1.8329999 8
17.187 -5.664 -1.812 12
20.277 -6.6329999 -1.7690001 14
24.547001 -7.9749999 -1.699 6
31.341999 -10.116 -1.608 5
13.441 -4.4169998 -1.849 9
15.357 -5.0050001 -1.83 9
17.844 -5.7690001 -1.8 12
21.134001 -6.7820001 -1.75 12
25.875999 -8.2460003 -1.678 5
33.209 -10.512 -1.562 4
13.87 -4.4679999 -1.8430001 9
15.939 -5.0910001 -1.826 10
18.561001 -5.882 -1.789 13
22.122 -6.9590001 -1.735 9
27.499001 -8.5889997 -1.666 5
35.129002 -10.899 -1.505 5
14.342 -4.526 -1.84 10
16.5 -5.164 -1.817 11
19.315001 -5.9970002 -1.779 14
23.139 -7.1300001 -1.716 7
29.195 -8.9329996 -1.646 5
37.161999 -11.296 -1.439 10
14.829 -4.5840001 -1.837 9
17.063999 -5.2290001 -1.8049999 11
20.149 -6.125 -1.7690001 16
24.298 -7.3309999 -1.701 7
30.681999 -9.1929998 -1.6059999 6
0 0 0 0
15.329 -4.6370001 -1.832 9
17.660999 -5.2979999 -1.793 12
20.987 -6.2449999 -1.756 16
25.379 -7.493 -1.673 6
32.556999 -9.5450001 -1.574 4
47.035999 -13.701 -1.452 9
15.868 -4.6950002 -1.829 10
18.327 -5.3769999 -1.784 13
21.834999 -6.355 -1.738 14
26.665001 -7.7010002 -1.652 5
34.479 -9.8850002 -1.5319999 5
47.91 -13.649 -1.295 9
16.396 -4.7420001 -1.821 10
19.011 -5.4520001 -1.774 14
22.82 -6.4920001 -1.727 10
28.073 -7.9250002 -1.631 5
37.644001 -10.552 -1.5319999 13
51.012001 -14.203 -1.191 17
16.945 -4.7880001 -1.814 11
19.732 -5.5289998 -1.7640001 15
23.818001 -6.6199999 -1.71 9
29.691 -8.1879997 -1.614 5
37.720001 -10.327 -1.395 8
51.460999 -13.993 -1.0140001 4
17.469 -4.8189998 -1.801 12
20.488001 -5.6040001 -1.752 16
24.722 -6.7069998 -1.682 7
31.171 -8.3909998 -1.579 5
40.134998 -10.723 -1.34 2
51.221001 -13.592 -0.829 4
18.086 -4.8670001 -1.796 12
21.233 -5.665 -1.737 17
25.777 -6.8210001 -1.66 7
32.778999 -8.6059999 -1.543 6
45.863998 -11.953 -1.369 7
59.450001 -15.383 -0.75700003 3
18.655001 -4.8940001 -1.783 13
22.027 -5.7280002 -1.721 17
26.966999 -6.954 -1.64 6
34.311001 -8.7799997 -1.497 4
46.328999 -11.768 -1.227 1
46.303001 -11.679 -0.43599999 27
19.326 -4.9400001 -1.777 14
22.891001 -5.8000002 -1.7079999 15
28.171 -7.079 -1.618 5
0 0 0 0
50.109001 -12.397 -1.165 21
81.269997 -19.964001 -0.50800002 15
19.936001 -4.96 -1.7640001 15
23.782 -5.8639998 -1.694 14
29.555 -7.2259998 -1.598 6
39.401001 -9.5570002 -1.4579999 9
51.688999 -12.439 -1.034 13
81.795998 -19.546 -0.255 7
20.608999 -4.9860001 -1.753 16
24.556999 -5.888 -1.668 10
31.093 -7.3920002 -1.581 6
39.577999 -9.3330002 -1.34 6
54.345001 -12.72 -0.92199999 3
90.467003 -21.018999 -0.0089999996 6
21.278999 -5.0040002 -1.7410001 17
25.49 -5.9400001 -1.65 9
32.464001 -7.5009999 -1.551 7
0 0 0 0
56.554001 -12.856 -0.79100001 3
71.450996 -16.125 0.198 68
22.037001 -5.0310001 -1.734 18
26.528 -6.0009999 -1.636 8
33.810001 -7.5830002 -1.5140001 6
45.014 -10.011 -1.257 4
63.868 -14.091 -0.70999998 10
0 0 0 0
22.731001 -5.0320001 -1.719 17
27.485001 -6.0279999 -1.613 7
34.819 -7.5700002 -1.457 5
46.900002 -10.11 -1.175 2
65.075996 -13.917 -0.54400003 8
112.599 -23.896 0.93599999 35
23.403999 -5.0209999 -1.701 13
28.452999 -6.0469999 -1.589 6
36.824001 -7.7550001 -1.438 3
49.261002 -10.283 -1.101 19
0 0 0 0
112.62 -23.138 1.229 35
24.035 -4.9899998 -1.6799999 14
29.511999 -6.0679998 -1.567 6
0 0 0 0
50.785 -10.257 -1.002 18
0 0 0 0
80.059998 -15.908 1.074 32
24.823 -4.98 -1.6670001 13
30.562 -6.073 -1.543 6
40.523998 -7.9780002 -1.3710001 1
0 0 0 0
0 0 0 0
80.194 -15.385 1.2690001 5
25.584 -4.9549999 -1.651 8
31.962 -6.1300001 -1.5319999 7
42.049 -7.9899998 -1.318 9
55.700001 -10.484 -0.82599998 20
0 0 0 0
120.876 -22.364 2.1900001 11
26.370001 -4.9239998 -1.637 8
32.941002 -6.0900002 -1.5 6
42.872002 -7.8499999 -1.244 2
45.341 -8.2259998 -0.56900001 5
45.291 -8.1429996 0.175 65
45.367001 -8.0869999 0.92000002 53
27.158001 -4.8839998 -1.622 7
33.682999 -5.9949999 -1.456 4
44.810001 -7.8979998 -1.2 53
45.383999 -7.9229999 -0.47 68
57.001999 -9.8590002 0.34299999 72
57.080002 -9.7880001 1.275 20
28.004999 -4.8400002 -1.61 7
34.791 -5.9510002 -1.429 5
44.999001 -7.619 -1.11 27
57.07 -9.5699997 -0.47400001 3
128.252 -21.304001 1.028 50
117.007 -19.259001 2.845 10
28.697001 -4.7600002 -1.5880001 7
35.764 -5.868 -1.3940001 3
49.084 -7.9710002 -1.1109999 30
0 0 0 0
0 0 0 0
96.035004 -15.145 2.5139999 40
29.495001 -4.6849999 -1.573 8
37.131001 -5.8319998 -1.374 3
49.601002 -7.7069998 -1.028 26
65.133003 -10.016 -0.28999999 4
0 0 0 0
116.008 -17.482 3.244 28
30.437 -4.6170001 -1.5650001 8
38.611 -5.7919998 -1.357 1
47.744999 -7.0830002 -0.903 150
47.735001 -7.0040002 -0.12899999 4
99.579002 -14.458 1.341 7
99.781998 -14.342 2.9560001 16
31.209999 -4.513 -1.548 8
39.245998 -5.6090002 -1.311 1
47.825001 -6.756 -0.82300001 64
0 0 0 0
99.917 -13.808 1.505 22
68.806 -9.415 2.145 36
31.899 -4.388 -1.529 8
0 0 0 0
47.896 -6.4330001 -0.75 49
49.244999 -6.5380001 0.022 58
68.339996 -8.9750004 1.1289999 10
68.338997 -8.8769999 2.2279999 48
32.438999 -4.2350001 -1.505 7
42.928001 -5.533 -1.3 5
49.242001 -6.2670002 -0.699 81
49.237999 -6.191 0.090999998 67
65.945 -8.198 1.1799999 4
68.387001 -8.408 2.3199999 39
32.894001 -4.0599999 -1.479 7
43.112 -5.2529998 -1.2460001 4
49.390999 -5.9419999 -0.63499999 78
49.411999 -5.8720002 0.155 56
45.748001 -5.3699999 0.87599999 23
45.5 -5.2789998 1.599 114
33.397999 -3.888 -1.4579999 7
43.396999 -4.9819999 -1.199 1
45.505001 -5.1570001 -0.52999997 66
54.745998 -6.1220002 0.236 3
54.796001 -6.0489998 1.112 37
68.874001 -7.5079999 2.497 34
33.804001 -3.694 -1.4349999 6
45.015999 -4.849 -1.192 13
52.448002 -5.573 -0.55199999 3
54.971001 -5.7600002 0.29699999 63
54.973 -5.6820002 1.173 38
69.228996 -7.0609999 2.579 33
34.228001 -3.4979999 -1.416 5
45.146 -4.5469999 -1.148 12
50.653999 -5.0229998 -0.48300001 1
55.133999 -5.388 0.35100001 49
55.136002 -5.3140001 1.227 48
117.304 -11.146 4.473 48
34.811001 -3.313 -1.4069999 7
45.227001 -4.2340002 -1.109 11
54.716999 -5.0440001 -0.47299999 24
0 0 0 0
56.716 -5.066 1.308 26
0 0 0 0
35.210999 -3.0999999 -1.393 6
45.359001 -3.9260001 -1.076 10
0 0 0 0
56.908001 -4.7659998 0.45199999 15
56.887001 -4.6859999 1.352 33
118.722 -9.6280003 4.698 29
35.536999 -2.878 -1.38 5
45.568001 -3.6240001 -1.049 7
54.639999 -4.2659998 -0.39500001 13
57.028 -4.3759999 0.48699999 3
0 0 0 0
118.335 -8.7700005 4.7480001 14
35.632999 -2.6340001 -1.363 5
46.071999 -3.339 -1.035 9
0 0 0 0
57.16 -3.987 0.51800001 5
101.513 -6.9460001 2.52 10
0 0 0 0
35.824001 -2.3929999 -1.353 7
46.237999 -3.023 -1.018 7
54.73 -3.503 -0.34299999 9
55.583 -3.4820001 0.52499998 77
101.267 -6.2160001 2.55 13
0 0 0 0
36.034 -2.1500001 -1.348 7
46.186001 -2.694 -1.001 12
52.966 -3.017 -0.31600001 2
55.761002 -3.1029999 0.542 4
55.810001 -3.033 1.419 8
82.875 -4.402 3.408 12
36.216 -1.906 -1.345 9
46.117001 -2.362 -0.99000001 8
53.224998 -2.6559999 -0.308 2
55.935001 -2.72 0.55299997 34
55.925999 -2.651 1.429 26
81.688004 -3.7690001 3.368 46
36.303001 -1.654 -1.344 6
46.165001 -2.0439999 -0.986 7
56.289001 -2.418 -0.32100001 7
56.087002 -2.3369999 0.55699998 25
56.130001 -2.2679999 1.436 57
81.738998 -3.201 3.3710001 22
35.499001 -1.365 -1.314 4
46.498001 -1.727 -0.99400002 10
49.874001 -1.79 -0.287 1
56.290001 -1.949 0.55500001 46
59.137001 -1.974 1.508 2
81.900002 -2.6370001 3.368 37
35.564999 -1.118 -1.321 3
46.426998 -1.4 -0.99900001 53
56.370998 -1.628 -0.333 9
46.860001 -1.295 0.45300001 41
46.806 -1.238 1.184 40
46.803001 -1.183 1.914 4
35.546001 -0.86799997 -1.3279999 4
46.352001 -1.076 -1.0089999 47
46.837002 -1.033 -0.289 66
111.927 -2.3269999 1.051 29
53.508999 -1.0470001 1.337 2
81.725998 -1.501 3.316 11
35.487999 -0.61799997 -1.339 6
46.457001 -0.75199997 -1.029 46
56.195999 -0.83899999 -0.37 9
53.360001 -0.73699999 0.479 3
53.548 -0.67500001 1.3150001 5
81.737999 -0.93400002 3.28 5
35.012001 -0.36199999 -1.337 6
46.296001 -0.42500001 -1.048 18
50.583 -0.40400001 -0.35800001 3
52.278 -0.35699999 0.442 35
52.66 -0.29800001 1.265 9
105.958 -0.47099999 4.1929998 41
35.021999 -0.116 -1.358 6
44.792999 -0.096000001 -1.041 4
50.386002 -0.048 -0.38800001 5
0 0 0 0
52.304001 0.071000002 1.222 39
72.024002 0.18099999 2.8010001 34
34.414001 0.12800001 -1.36 6
0 0 0 0
53.528 0.31999999 -0.45199999 16
52.443001 0.37400001 0.37 23
52.118999 0.42899999 1.178 30
71.654999 0.676 2.7309999 30
33.903999 0.36199999 -1.367 6
44.813 0.53100002 -1.112 6
52.716999 0.68199998 -0.49000001 14
52.743999 0.74199998 0.32699999 8
52.334 0.79500002 1.136 33
71.730003 1.171 2.6700001 30
33.416 0.58999997 -1.38 7
44.867001 0.84200001 -1.1569999 3
50.598 1.006 -0.51999998 4
52.562 1.101 0.27500001 2
52.588001 1.1619999 1.09 15
72.139999 1.675 2.6129999 28
32.875999 0.81099999 -1.393 6
0 0 0 0
50.419998 1.352 -0.57200003 16
56.629002 1.58 0.234 18
52.188999 1.513 1.024 31
71.936996 2.168 2.526 40
32.361 1.025 -1.41 6
40.875999 1.337 -1.147 1
51.839001 1.75 -0.65100002 28
56.058998 1.952 0.163 27
52.183998 1.8710001 0.96100003 47
68.237 2.5209999 2.313 6
31.787001 1.227 -1.426 6
39.442001 1.561 -1.158 2
51.284 2.0829999 -0.71100003 28
55.639 2.3199999 0.089000002 54
52.344002 2.2360001 0.89399999 21
51.959 2.2750001 1.692 4
31.158001 1.4170001 -1.442 6
0 0 0 0
50.772999 2.411 -0.77700001 23
55.348999 2.6849999 0.0089999996 52
106.088 5.2519999 1.661 8
105.667 5.3509998 3.2880001 24
30.525 1.6 -1.46 6
37.752998 2.016 -1.221 4
47.476002 2.582 -0.80000001 1
54.852001 3.0380001 -0.075000003 60
0 0 0 0
103.61 5.947 3.0639999 8
20.117001 1.193 -0.99599999 59
36.605 2.2079999 -1.245 6
47.367001 2.902 -0.87699997 9
54.838001 3.414 -0.167 57
107.239 6.7789998 1.334 15
103.233 6.6300001 2.881 8
19.375999 1.285 -0.99400002 57
23.402 1.574 -0.838 20
45.655998 3.1110001 -0.92699999 2
54.362 3.756 -0.26199999 68
106.425 7.4530001 1.1339999 23
79.717003 5.658 2.0840001 33
18.698999 1.367 -0.995 52
22.982 1.699 -0.866 60
45.705002 3.421 -1.013 9
53.800999 4.0749998 -0.359 62
57.317001 4.3959999 0.50400001 8
78.567001 6.1020002 1.9069999 33
18.164 1.452 -1.003 58
22.236 1.795 -0.88200003 67
0 0 0 0
53.491001 4.415 -0.46399999 47
54.155998 4.52 0.368 6
78.720001 6.6430001 1.755 11
17.676001 1.5319999 -1.013 51
21.57 1.888 -0.90200001 61
41.948002 3.7049999 -1.102 1
48.318001 4.3130002 -0.51999998 27
20.247 1.825 0.094999999 0
48.473 4.4159999 0.97799999 53
17.49 1.635 -1.0420001 42
20.353001 1.919 -0.89600003 150
20.983999 1.995 -0.59799999 60
20.642 1.98 -0.26800001 150
19.378 1.876 0.048 2
61.389999 5.9970002 1.105 21
17.413 1.744 -1.0779999 63
19.573 1.975 -0.90700001 22
18.695 1.902 -0.57599998 58
18.789 1.927 -0.287 59
18.819 1.946 0.0040000002 0
90.366997 9.427 1.419 33
17.476999 1.869 -1.126 52
19.006001 2.046 -0.92799997 41
20.327999 2.2030001 -0.676 29
18.768999 2.049 -0.33199999 48
25.209 2.773 -0.055 32
104.001 11.537 1.383 20
17.466999 1.985 -1.17 56
18.530001 2.119 -0.95300001 49
0 0 0 0
24.527 2.842 -0.49700001 3
25.971001 3.03 -0.123 31
26.069 3.0650001 0.28 15
17.513 2.108 -1.221 61
17.997999 2.1789999 -0.97399998 60
18.773001 2.286 -0.72299999 39
25.77 3.1559999 -0.59100002 42
26.403 3.2539999 -0.19499999 24
26.653999 3.3069999 0.21600001 18
17.511 2.224 -1.271 66
17.702 2.2609999 -1.008 52
18.771999 2.4089999 -0.77499998 0
26.999001 3.4849999 -0.69400001 30
26.305 3.415 -0.26699999 18
64.471001 8.4209995 0.34799999 14
17.499001 2.339 -1.322 72
17.530001 2.3540001 -1.049 68
19.128 2.5799999 -0.84500003 8
25.087999 3.401 -0.71700001 26
25.922001 3.5339999 -0.33700001 2
60.937 8.3570004 0.155 5
17.649 2.4760001 -1.387 55
17.566999 2.474 -1.105 53
19.096001 2.701 -0.90100002 27
24.823 3.527 -0.78399998 43
27.91 3.9860001 -0.44600001 14
28.058001 4.0300002 -0.011 43
17.778 2.6110001 -1.454 48
17.610001 2.595 -1.163 68
18.757 2.7750001 -0.94400001 52
24.261 3.605 -0.84100002 69
28.268 4.2189999 -0.53799999 3
28.406 4.2610002 -0.097000003 34
17.752001 2.724 -1.51 34
17.573999 2.7060001 -1.2180001 77
18 2.7809999 -0.96399999 59
24.398001 3.7839999 -0.92500001 67
27.832001 4.335 -0.61900002 30
28.468 4.4530001 -0.18799999 1
17.645 2.823 -1.562 19
17.726 2.8429999 -1.288 58
17.688999 2.846 -1.007 57
19.250999 3.109 -0.79299998 1
27.218 4.4130001 -0.69400001 40
28.943001 4.711 -0.28400001 15
17.572001 2.925 -1.617 17
17.791 2.9690001 -1.355 53
17.653 2.9549999 -1.066 57
19.191 3.2219999 -0.85600001 10
22.893 3.8570001 -0.66100001 1
29.198 4.9380002 -0.38499999 6
17.322001 2.9960001 -1.6569999 11
17.829 3.089 -1.4220001 57
17.683001 3.0710001 -1.13 54
18.708 3.2590001 -0.89999998 33
22.9 4.0009999 -0.741 26
28.962999 5.0780001 -0.48199999 150
16.754 3.003 -1.665 10
17.860001 3.2090001 -1.4910001 43
17.726999 3.191 -1.197 51
17.98 3.244 -0.92900002 51
22.271999 4.0310001 -0.80000001 33
28.686001 5.21 -0.57999998 32
16.224001 3.0120001 -1.675 10
13.322 2.477 -1.1619999 4
13.272 2.4719999 -0.94599998 19
17.809999 3.325 -0.98699999 53
21.014999 3.9330001 -0.83200002 46
27.712999 5.2030001 -0.66000003 42
13.299 2.553 -1.425 9
13.233 2.5439999 -1.206 14
13.19 2.539 -0.991 59
17.778 3.4289999 -1.053 51
0 0 0 0
0 0 0 0
15.209 3.0150001 -1.691 8
13.125 2.6040001 -1.248 49
13.109 2.605 -1.0369999 46
17.801001 3.5420001 -1.123 66
19.000999 3.789 -0.89700001 50
0 0 0 0
0 0 0 0
13.031 2.6659999 -1.293 45
12.936 2.6500001 -1.075 61
13.275 2.723 -0.89099997 11
18.02 3.7030001 -0.92299998 59
21.687 4.467 -0.76599997 47
13.3 2.803 -1.592 8
12.947 2.73 -1.34 47
12.857 2.7130001 -1.123 56
13.12 2.7720001 -0.935 42
17.851999 3.7780001 -0.98699999 53
20.554001 4.3579998 -0.81 51
12.987 2.8169999 -1.6109999 16
12.785 2.773 -1.378 56
12.804 2.78 -1.173 43
12.797 2.7809999 -0.96600002 41
18.021 3.9219999 -1.072 48
19.112 4.1669998 -0.83200002 53
12.801 2.855 -1.646 24
12.785 2.852 -1.4349999 51
12.796 2.8559999 -1.229 47
12.62 2.819 -1.008 43
13.416 3 -0.85500002 0
18.316 4.1020002 -0.87400001 50
12.569 2.8800001 -1.674 10
12.822 2.937 -1.497 31
12.692 2.908 -1.275 45
12.557 2.878 -1.057 45
13.261 3.043 -0.903 24
18.044001 4.1459999 -0.93900001 51
12.455 2.9289999 -1.716 10
12.656 2.9749999 -1.536 56
12.494 2.9360001 -1.312 43
12.456 2.928 -1.105 44
0 0 0 0
18.105 4.2649999 -1.022 45
12.281 2.9619999 -1.752 11
12.58 3.0320001 -1.587 53
12.479 3.007 -1.369 60
12.363 2.9790001 -1.154 43
12.445 3.0009999 -0.95999998 43
17.952999 4.3330002 -1.094 49
11.963 2.957 -1.765 12
12.464 3.0769999 -1.632 29
12.724 3.1400001 -1.456 34
12.254 3.0239999 -1.201 48
12.235 3.0209999 -1 48
13.333 3.2939999 -0.87400001 15
11.57 2.928 -1.766 11
12.228 3.0910001 -1.661 11
12.382 3.128 -1.477 58
12.175 3.075 -1.252 58
12.099 3.0569999 -1.0470001 49
13.098 3.3110001 -0.92000002 42
11.173 2.8940001 -1.762 12
12.079 3.125 -1.7029999 9
12.486 3.227 -1.552 37
12.167 3.1429999 -1.311 41
12.039 3.1099999 -1.1 48
12.616 3.26 -0.94700003 44
10.82 2.8659999 -1.7640001 13
11.956 3.1619999 -1.747 13
12.355 3.2639999 -1.599 47
12.025 3.175 -1.3559999 61
11.968 3.1600001 -1.153 47
12.057 3.1830001 -0.96399999 48
10.498 2.8410001 -1.767 13
11.653 3.148 -1.7640001 14
12.122 3.2709999 -1.631 27
12.015 3.2390001 -1.416 52
11.955 3.2219999 -1.211 37
11.854 3.1949999 -1.006 42
10.177 2.813 -1.768 12
11.236 3.0999999 -1.76 14
11.877 3.2709999 -1.66 10
11.943 3.286 -1.47 47
11.903 3.273 -1.266 57
11.897 3.2709999 -1.0700001 41
9.8730001 2.7839999 -1.77 11
10.843 3.0510001 -1.757 13
11.763 3.3050001 -1.706 7
12.15 3.4100001 -1.558 44
11.889 3.3340001 -1.326 44
11.803 3.309 -1.1210001 40
9.5959997 2.76 -1.774 12
10.485 3.0090001 -1.758 13
11.631 3.332 -1.751 11
11.898 3.404 -1.59 25
11.91 3.404 -1.392 41
11.813 3.375 -1.184 42
9.3330002 2.737 -1.779 11
10.172 2.9749999 -1.762 12
11.333 3.3080001 -1.7690001 9
11.796 3.438 -1.64 23
12.026 3.5009999 -1.469 38
11.746 3.4170001 -1.238 36
9.0819998 2.7130001 -1.783 11
9.8649998 2.9389999 -1.765 12
10.855 3.227 -1.7539999 9
11.56 3.4300001 -1.67 7
11.932 3.5369999 -1.522 41
11.526 3.4130001 -1.277 40
8.8360004 2.688 -1.786 11
9.5769997 2.905 -1.768 11
10.495 3.1760001 -1.756 13
11.484 3.4679999 -1.724 8
11.798 3.5569999 -1.5700001 40
11.55 3.4790001 -1.3430001 51
8.5900002 2.6600001 -1.788 11
9.3050003 2.872 -1.773 10
10.178 3.1340001 -1.761 12
11.328 3.48 -1.765 7
11.624 3.5650001 -1.6109999 26
11.545 3.536 -1.405 40
8.3500004 2.6300001 -1.789 10
9.0389996 2.8369999 -1.775 11
9.8669996 3.0880001 -1.7640001 11
10.853 3.3889999 -1.752 6
11.464 3.5739999 -1.654 17
11.413 3.553 -1.4529999 42
8.1339998 2.605 -1.793 10
8.79 2.8050001 -1.779 10
9.5690002 3.0450001 -1.768 11
10.493 3.3299999 -1.756 13
11.3 3.579 -1.6950001 10
11.488 3.6329999 -1.527 35
7.9120002 2.575 -1.793 10
8.5509996 2.773 -1.784 11
9.2869997 3.0020001 -1.772 10
10.143 3.27 -1.757 13
11.198 3.602 -1.745 12
11.401 3.661 -1.581 44
7.7059999 2.5480001 -1.795 10
8.3149996 2.7390001 -1.786 10
9.0139999 2.9590001 -1.775 11
9.8360004 3.22 -1.762 12
10.907 3.562 -1.763 8
11.327 3.6919999 -1.636 22
7.5120001 2.5220001 -1.798 10
8.0880003 2.704 -1.788 11
8.7639999 2.9200001 -1.779 10
9.5360003 3.1670001 -1.766 11
10.461 3.4660001 -1.753 9
11.132 3.6800001 -1.673 10
7.3249998 2.4960001 -1.8 10
7.8639998 2.6689999 -1.788 10
8.5179996 2.8800001 -1.7819999 11
9.2460003 3.1159999 -1.768 10
10.107 3.3959999 -1.755 12
11.054 3.7060001 -1.725 10
7.1529999 2.473 -1.8049999 10
7.6620002 2.6370001 -1.791 11
8.2819996 2.839 -1.785 10
8.9790001 3.0680001 -1.773 10
9.8050003 3.3410001 -1.761 11
10.887 3.7 -1.765 7
6.961 2.441 -1.803 12
7.4720001 2.608 -1.795 10
8.059 2.8010001 -1.788 10
8.7130003 3.0179999 -1.775 10
9.4840002 3.2739999 -1.762 11
10.405 3.582 -1.749 6
6.7820001 2.411 -1.802 12
7.2719998 2.573 -1.795 10
7.836 2.76 -1.789 10
8.4729996 2.973 -1.779 10
9.217 3.224 -1.7690001 11
10.068 3.5109999 -1.753 11
6.6230001 2.3859999 -1.804 12
7.1160002 2.5510001 -1.803 10
7.6370001 2.7249999 -1.7920001 10
8.2510004 2.9319999 -1.784 10
8.9460001 3.168 -1.772 10
9.7480001 3.441 -1.757 11
6.4780002 2.3640001 -1.808 11
6.914 2.51 -1.798 12
7.4429998 2.6889999 -1.795 10
8.0120001 2.882 -1.784 10
8.684 3.1129999 -1.775 10
9.4490004 3.3759999 -1.761 11
6.3270001 2.3380001 -1.8099999 11
6.7399998 2.477 -1.798 13
7.2600002 2.655 -1.799 10
7.8039999 2.8410001 -1.788 10
8.448 3.0639999 -1.78 10
9.1680002 3.3139999 -1.766 10
6.1789999 2.312 -1.811 11
6.5749998 2.4460001 -1.799 12
7.0640001 2.615 -1.798 11
7.5879998 2.7950001 -1.788 10
