# .PCD v0.7 - Point Cloud Data file format
VERSION 0.7
FIELDS x y z intensity
SIZE 4 4 4 4
TYPE F F F F
COUNT 1 1 1 1
WIDTH 1721
HEIGHT 1
VIEWPOINT 0 0 0 1 0 0 0
POINTS 1721
DATA ascii
67.943001 2.437 3.7190001 30
68.622002 2.418 4.783 9
0 0 0 0
55.209999 1.876 5.5050001 23
55.419998 1.849 6.362 58
68.112999 2.3299999 2.2690001 8
67.789001 2.2739999 3.263 25
79.681999 2.6229999 5.0250001 22
80.178001 2.5899999 6.257 24
54.993 1.742 5.1149998 16
55.290001 1.719 5.974 60
78.656998 2.5020001 2.112 22
67.867996 2.1140001 2.8269999 24
63.874001 1.948 3.6059999 7
66.387001 1.983 4.737 17
66.357002 1.9400001 5.724 9
54.945 1.574 5.5630002 64
0 0 0 0
67.670998 1.9349999 2.3710001 41
63.254002 1.768 3.154 9
66.418999 1.8150001 4.2989998 31
66.306999 1.772 5.2800002 27
54.837002 1.433 5.1880002 19
109.05 2.901 1.506 8
67.667999 1.757 1.933 32
63.611 1.6109999 2.7579999 21
64.040001 1.581 3.724 48
66.292 1.596 4.8400002 40
66.233002 1.557 5.8249998 24
67.615997 1.6109999 0.495 83
67.602997 1.569 1.494 31
64.139999 1.448 2.365 23
63.797001 1.402 3.299 50
66.469002 1.421 4.4229999 12
57.495998 1.196 4.6820002 6
67.306 1.415 0.07 15
78.011002 1.592 1.233 4
63.307999 1.251 1.931 5
63.73 1.22 2.8859999 35
63.653999 1.181 3.8239999 10
57.682999 1.036 4.3200002 12
39.354 0.70999998 -0.20900001 2
39.466999 0.68800002 0.37200001 9
67.280998 1.132 1.625 8
63.458 1.028 2.4660001 31
63.293999 0.98799998 3.3970001 26
57.808998 0.86900002 3.957 28
39.330002 0.58999997 -0.45300001 31
39.342999 0.56599998 0.124 18
80.401001 1.108 1.436 17
63.330002 0.83499998 2.063 30
63.679001 0.80299997 3.0150001 40
57.733002 0.69499999 3.5869999 28
38.18 0.45300001 -0.67799997 26
39.130001 0.44100001 -0.118 6
39.087002 0.417 0.45699999 11
63.188 0.63800001 1.67 22
63.140999 0.60100001 2.5969999 44
57.710999 0.514 3.221 22
29.268 0.252 -0.699 8
38.972 0.31299999 -0.35699999 51
38.966 0.28999999 0.214 34
63.054001 0.433 1.275 12
57.646 0.36199999 2.0120001 5
57.549999 0.32800001 2.8540001 34
27.653999 0.146 -0.82800001 36
38.331001 0.17900001 -0.588 11
38.800999 0.15800001 -0.026000001 30
57.681999 0.20200001 0.80900002 52
57.625999 0.168 1.653 53
0 0 0 0
25.698999 0.046999998 -0.926 82
31.813 0.039000001 -0.68000001 7
57.846001 0.037999999 -0.38800001 63
57.75 0.0049999999 0.46000001 44
62.959 -0.028999999 1.426 6
62.34 -0.064000003 2.3239999 46
20.427 -0.035 -0.85900003 3
29.035 -0.066 -0.79400003 33
57.661999 -0.16599999 -0.73500001 30
84.857002 -0.292 0.163 7
79.399002 -0.31900001 1.314 8
62.943001 -0.28799999 1.961 37
19.903999 -0.106 -0.954 50
26.517 -0.15700001 -0.88300002 31
37.748001 -0.245 -0.70499998 32
38.181 -0.27000001 -0.154 16
91.055 -0.69400001 0.96399999 18
63.192001 -0.51800001 1.591 10
19.841 -0.18000001 -1.069 45
25.18 -0.243 -0.986 74
29.492001 -0.301 -0.72399998 5
37.761002 -0.40599999 -0.373 9
37.985001 -0.43000001 0.178 31
81.330002 -0.96600002 1.5700001 6
19.945999 -0.257 -1.189 41
20.184999 -0.27200001 -0.90899998 22
28.202 -0.39500001 -0.85600001 37
37.066002 -0.54100001 -0.58399999 11
37.687 -0.57099998 -0.044 25
90.982002 -1.428 1.221 6
20.052999 -0.33700001 -1.311 63
20.011 -0.34799999 -1.015 62
0 0 0 0
34.717999 -0.64200002 -0.74699998 46
61.433998 -1.169 -0.42399999 5
72.32 -1.4170001 0.55199999 11
20.263 -0.42300001 -1.442 0
20.171 -0.43200001 -1.1390001 55
24.948 -0.54799998 -1.044 59
29.186001 -0.65600002 -0.79400003 30
36.07 -0.83099997 -0.456 2
71.484001 -1.688 0.134 31
20.201 -0.505 -1.551 0
20.312 -0.51899999 -1.261 31
20.257999 -0.52899998 -0.96200001 38
25.777 -0.68699998 -0.84799999 24
35.835999 -0.97500002 -0.65700001 150
36.25 -1.005 -0.13699999 150
21.003 -0.61500001 -1.7309999 16
24.542 -0.73199999 -1.664 18
20.389999 -0.61799997 -1.0829999 31
25.011 -0.773 -0.96399999 44
30.101999 -0.94599998 -0.722 1
36.549 -1.168 -0.345 35
20.007999 -0.67299998 -1.761 14
23.101999 -0.78899997 -1.694 9
24.915001 -0.86299998 -1.461 64
24.732 -0.87 -1.089 68
29.757 -1.062 -0.87699997 32
34.904999 -1.265 -0.52200001 1
18.961 -0.72100002 -1.772 13
21.868999 -0.84200001 -1.722 16
24.808001 -0.96899998 -1.591 27
24.743999 -0.98000002 -1.226 68
25.858999 -1.0369999 -0.90399998 31
34.945 -1.421 -0.71499997 46
18.035999 -0.76800001 -1.784 12
20.665001 -0.88999999 -1.74 15
24.357 -1.061 -1.693 21
24.882999 -1.096 -1.3660001 60
24.847 -1.108 -1.003 64
0 0 0 0
17.129 -0.80900002 -1.7869999 10
19.601 -0.935 -1.756 14
22.905001 -1.104 -1.716 15
24.84 -1.209 -1.497 41
24.629 -1.2130001 -1.127 66
31.113001 -1.548 -0.972 58
16.316999 -0.84799999 -1.79 9
18.708 -0.98100001 -1.776 13
21.601 -1.143 -1.733 16
24.589001 -1.313 -1.613 21
24.565001 -1.324 -1.252 80
25.679001 -1.397 -0.93599999 24
15.607 -0.88499999 -1.793 9
17.792 -1.018 -1.781 11
20.459999 -1.179 -1.7460001 15
24.063999 -1.399 -1.702 16
24.566999 -1.4400001 -1.3789999 68
24.705 -1.461 -1.028 70
14.972 -0.92299998 -1.798 11
16.938999 -1.051 -1.783 10
19.482 -1.217 -1.763 14
22.709999 -1.4299999 -1.722 17
24.624001 -1.563 -1.508 51
24.483 -1.566 -1.143 68
14.383 -0.95700002 -1.799 10
16.177 -1.0829999 -1.784 9
18.646 -1.257 -1.781 12
21.370001 -1.451 -1.728 16
24.441 -1.6720001 -1.62 18
24.476999 -1.687 -1.267 64
13.853 -0.99199998 -1.803 10
15.513 -1.118 -1.789 9
17.767 -1.288 -1.7869999 11
20.360001 -1.485 -1.748 15
23.922001 -1.757 -1.704 20
24.419001 -1.8049999 -1.3839999 65
13.359 -1.027 -1.806 10
14.924 -1.152 -1.795 10
16.957001 -1.317 -1.789 10
19.481001 -1.522 -1.7690001 14
22.576 -1.773 -1.7180001 18
24.429001 -1.9299999 -1.503 60
12.884 -1.057 -1.804 11
14.363 -1.184 -1.7970001 10
16.229 -1.344 -1.789 9
18.631001 -1.551 -1.78 12
21.441 -1.794 -1.734 17
24.322001 -2.0480001 -1.613 30
12.476 -1.09 -1.807 12
13.853 -1.215 -1.8 10
15.603 -1.375 -1.795 12
17.854 -1.581 -1.791 11
20.450001 -1.8200001 -1.751 15
23.916 -2.1400001 -1.699 19
12.097 -1.122 -1.8099999 11
13.373 -1.2460001 -1.801 10
15.025 -1.405 -1.8 11
17.055 -1.602 -1.791 10
19.551001 -1.845 -1.765 14
22.677999 -2.151 -1.717 19
11.727 -1.153 -1.8099999 12
12.948 -1.277 -1.804 10
14.483 -1.434 -1.802 11
16.330999 -1.623 -1.79 10
18.757 -1.873 -1.78 13
21.547001 -2.1619999 -1.7309999 17
11.405 -1.1849999 -1.813 12
12.533 -1.306 -1.804 11
13.991 -1.4630001 -1.8049999 10
15.721 -1.65 -1.794 11
17.988001 -1.896 -1.788 12
20.606001 -2.181 -1.747 16
11.096 -1.216 -1.814 12
12.164 -1.337 -1.806 12
13.519 -1.4910001 -1.8049999 11
15.17 -1.678 -1.8 11
17.247999 -1.915 -1.7920001 11
19.719 -2.1989999 -1.7589999 14
10.814 -1.247 -1.817 12
11.819 -1.367 -1.808 12
13.105 -1.521 -1.808 11
14.642 -1.704 -1.802 11
16.576 -1.936 -1.795 10
18.959999 -2.223 -1.775 13
10.559 -1.281 -1.821 12
11.489 -1.397 -1.808 12
12.713 -1.549 -1.809 12
14.167 -1.7309999 -1.804 10
15.954 -1.955 -1.795 9
18.23 -2.243 -1.784 12
10.3 -1.3099999 -1.822 11
11.199 -1.428 -1.811 12
12.333 -1.576 -1.808 12
13.692 -1.755 -1.802 11
15.383 -1.977 -1.796 11
17.539 -2.2620001 -1.791 11
10.081 -1.344 -1.827 11
10.932 -1.46 -1.814 12
12.012 -1.607 -1.812 12
13.327 -1.788 -1.8099999 11
14.932 -2.0079999 -1.806 11
16.877001 -2.277 -1.7920001 10
9.8669996 -1.376 -1.829 11
10.685 -1.492 -1.818 12
11.686 -1.635 -1.811 12
12.936 -1.814 -1.8099999 12
14.45 -2.0309999 -1.806 11
16.284 -2.2950001 -1.794 10
9.6660004 -1.4069999 -1.831 11
10.458 -1.524 -1.821 12
11.408 -1.665 -1.813 13
12.581 -1.84 -1.8099999 12
14.013 -2.0539999 -1.806 11
15.758 -2.316 -1.7970001 10
9.4829998 -1.439 -1.835 11
10.233 -1.5549999 -1.823 12
11.142 -1.6950001 -1.8150001 12
12.278 -1.872 -1.814 13
13.609 -2.079 -1.807 11
15.277 -2.3399999 -1.802 10
9.3050003 -1.471 -1.8380001 10
10.024 -1.586 -1.825 11
10.909 -1.728 -1.819 13
11.96 -1.898 -1.813 12
13.255 -2.1070001 -1.8099999 12
14.823 -2.362 -1.803 11
9.1400003 -1.503 -1.84 11
9.8310003 -1.618 -1.8279999 11
10.686 -1.761 -1.823 13
11.681 -1.928 -1.8150001 13
12.934 -2.138 -1.814 13
14.397 -2.385 -1.8049999 11
8.9809999 -1.536 -1.8430001 11
9.6479998 -1.651 -1.83 10
10.473 -1.793 -1.825 13
11.405 -1.956 -1.814 12
12.61 -2.1659999 -1.8150001 12
14.018 -2.4130001 -1.808 12
8.8280001 -1.567 -1.844 10
9.4809999 -1.684 -1.8329999 10
10.264 -1.825 -1.826 12
11.178 -1.99 -1.818 12
12.298 -2.1919999 -1.814 13
13.665 -2.441 -1.8099999 11
8.6829996 -1.599 -1.846 11
9.3210001 -1.717 -1.836 10
10.083 -1.859 -1.83 11
10.96 -2.023 -1.821 13
12.023 -2.2219999 -1.8150001 13
13.353 -2.4719999 -1.814 12
8.5559998 -1.6339999 -1.85 10
9.165 -1.75 -1.8380001 11
9.8950005 -1.89 -1.83 11
10.745 -2.0550001 -1.822 13
11.75 -2.25 -1.814 12
13.036 -2.5 -1.8150001 11
8.4219999 -1.666 -1.851 10
9.0349998 -1.7869999 -1.8430001 10
9.7440004 -1.927 -1.836 11
10.56 -2.0899999 -1.826 12
11.535 -2.286 -1.818 12
12.747 -2.53 -1.817 12
8.3120003 -1.7 -1.855 11
8.8920002 -1.819 -1.844 10
9.5839996 -1.961 -1.837 11
10.371 -2.1229999 -1.827 12
11.31 -2.3180001 -1.819 13
12.471 -2.559 -1.816 13
8.1899996 -1.732 -1.855 10
8.7770004 -1.8559999 -1.849 11
9.4449997 -1.997 -1.841 11
10.213 -2.161 -1.832 12
11.115 -2.3540001 -1.823 12
12.228 -2.592 -1.819 12
8.0839996 -1.766 -1.857 11
8.6409998 -1.887 -1.848 10
9.3009996 -2.0320001 -1.842 11
10.056 -2.197 -1.835 12
10.944 -2.3929999 -1.827 12
11.986 -2.6229999 -1.819 11
7.9790001 -1.8 -1.859 10
8.5249996 -1.9220001 -1.85 10
9.1689997 -2.066 -1.844 11
9.9110003 -2.233 -1.8380001 11
10.755 -2.425 -1.8279999 11
11.786 -2.661 -1.822 11
7.888 -1.835 -1.862 10
8.4230003 -1.9579999 -1.853 10
9.0539999 -2.1040001 -1.848 11
9.757 -2.2679999 -1.8380001 11
10.579 -2.46 -1.8279999 10
11.573 -2.694 -1.822 12
7.7880001 -1.868 -1.862 10
8.3199997 -1.994 -1.855 11
8.941 -2.141 -1.851 11
9.6350002 -2.3080001 -1.842 11
10.428 -2.4990001 -1.831 12
11.402 -2.7349999 -1.826 13
7.7080002 -1.904 -1.8660001 10
8.2110004 -2.027 -1.854 10
8.8240004 -2.1760001 -1.851 11
9.5050001 -2.3440001 -1.8430001 10
10.305 -2.543 -1.837 12
11.216 -2.77 -1.825 12
7.632 -1.941 -1.869 10
8.132 -2.066 -1.859 10
8.7329998 -2.2179999 -1.8559999 11
9.3990002 -2.3870001 -1.848 11
10.151 -2.5780001 -1.836 12
11.066 -2.812 -1.829 11
7.5409999 -1.974 -1.868 10
8.0459995 -2.1029999 -1.8609999 10
8.6269999 -2.253 -1.8559999 11
9.2930002 -2.427 -1.851 10
10.04 -2.6229999 -1.841 12
10.912 -2.852 -1.831 11
7.4759998 -2.0120001 -1.8710001 10
7.954 -2.138 -1.86 11
8.5319996 -2.2909999 -1.857 11
9.1780005 -2.464 -1.851 11
9.9320002 -2.6670001 -1.845 11
10.778 -2.895 -1.8329999 10
7.401 -2.0469999 -1.872 10
7.8860002 -2.178 -1.865 10
8.4429998 -2.3299999 -1.859 10
9.0740004 -2.503 -1.852 11
9.8109999 -2.7060001 -1.846 11
10.648 -2.938 -1.836 11
7.3400002 -2.085 -1.875 10
7.8080001 -2.2149999 -1.865 10
8.3629999 -2.369 -1.8609999 11
8.9860001 -2.5450001 -1.854 10
9.7019997 -2.747 -1.847 11
10.536 -2.984 -1.839 12
7.277 -2.1210001 -1.876 10
7.7399998 -2.253 -1.867 10
8.283 -2.408 -1.8609999 10
8.9069996 -2.5880001 -1.857 11
9.6219997 -2.7950001 -1.852 11
10.427 -3.03 -1.841 11
7.2069998 -2.155 -1.875 9
7.677 -2.2920001 -1.869 10
8.2040005 -2.447 -1.8609999 10
8.8179998 -2.628 -1.857 11
9.5299997 -2.839 -1.853 11
10.32 -3.0739999 -1.842 12
7.1609998 -2.1960001 -1.8789999 9
7.6110001 -2.3299999 -1.869 10
8.1409998 -2.4890001 -1.864 10
8.7410002 -2.6700001 -1.858 10
9.4499998 -2.8859999 -1.8559999 10
10.232 -3.1240001 -1.846 10
7.0929999 -2.2290001 -1.876 9
7.552 -2.369 -1.87 10
8.0699997 -2.529 -1.864 10
8.6820002 -2.7179999 -1.863 10
9.3640003 -2.9300001 -1.857 10
10.139 -3.1719999 -1.847 10
7.0450001 -2.2679999 -1.878 9
7.5019999 -2.411 -1.873 10
8.0190001 -2.5739999 -1.867 11
8.6029997 -2.7579999 -1.8609999 10
9.2910004 -2.977 -1.858 10
10.07 -3.2260001 -1.852 10
7.0029998 -2.309 -1.881 9
7.454 -2.4519999 -1.875 10
7.9660001 -2.6170001 -1.869 10
8.5450001 -2.8039999 -1.863 10
9.2340002 -3.029 -1.863 10
9.9910002 -3.276 -1.853 10
6.9720001 -2.352 -1.886 10
7.402 -2.493 -1.875 10
7.9070001 -2.658 -1.869 10
8.4820004 -2.848 -1.864 11
9.1610003 -3.0739999 -1.862 10
9.9219999 -3.329 -1.855 10
6.9239998 -2.3900001 -1.885 9
7.3509998 -2.5320001 -1.875 9
7.8610001 -2.704 -1.872 10
8.4289999 -2.895 -1.865 10
9.0979996 -3.122 -1.863 10
9.849 -3.3789999 -1.855 10
6.8909998 -2.4319999 -1.887 9
7.3099999 -2.575 -1.876 9
7.8260002 -2.7509999 -1.875 10
8.382 -2.9430001 -1.867 10
9.0489998 -3.175 -1.865 10
9.7919998 -3.434 -1.857 9
6.835 -2.4660001 -1.883 9
7.2729998 -2.619 -1.878 9
7.777 -2.7950001 -1.875 10
8.3330002 -2.99 -1.868 9
8.9949999 -3.2260001 -1.8660001 10
9.75 -3.494 -1.8609999 9
6.7989998 -2.507 -1.883 9
7.237 -2.6630001 -1.8789999 9
7.7399998 -2.842 -1.876 9
8.3009996 -3.0439999 -1.8710001 9
8.9540005 -3.28 -1.868 9
9.6859999 -3.546 -1.86 9
6.7709999 -2.55 -1.886 9
7.204 -2.707 -1.88 8
7.7030001 -2.8889999 -1.877 9
8.2690001 -3.096 -1.873 10
8.9110003 -3.3340001 -1.869 10
9.6359997 -3.6029999 -1.86 9
6.7470002 -2.595 -1.888 9
7.1669998 -2.7490001 -1.8789999 8
7.6799998 -2.941 -1.88 9
8.2220001 -3.1429999 -1.872 9
8.8760004 -3.3889999 -1.87 9
9.6020002 -3.6630001 -1.862 10
6.711 -2.6340001 -1.886 8
7.138 -2.7950001 -1.88 9
7.6409998 -2.9849999 -1.8789999 9
8.2069998 -3.201 -1.877 10
8.8459997 -3.4460001 -1.872 10
9.5780001 -3.7290001 -1.8660001 9
6.6900001 -2.6789999 -1.888 9
7.118 -2.8429999 -1.882 9
7.6230001 -3.0380001 -1.882 9
8.1730003 -3.2509999 -1.876 9
8.8129997 -3.5020001 -1.872 10
9.5509996 -3.7920001 -1.868 9
6.671 -2.724 -1.89 9
7.0929999 -2.8889999 -1.882 9
7.5970001 -3.086 -1.882 9
8.1479998 -3.3039999 -1.877 9
8.7889996 -3.559 -1.873 10
9.5190001 -3.852 -1.867 9
6.6550002 -2.77 -1.891 9
7.0679998 -2.934 -1.881 9
7.5760002 -3.1370001 -1.883 9
8.1289997 -3.3599999 -1.878 9
8.776 -3.6229999 -1.876 10
9.4949999 -3.9159999 -1.867 9
6.6339998 -2.8139999 -1.891 9
7.0539999 -2.983 -1.883 8
7.5479999 -3.1849999 -1.88 9
8.1230001 -3.421 -1.881 9
8.7580004 -3.6830001 -1.876 9
9.4779997 -3.9820001 -1.868 9
6.619 -2.8599999 -1.892 8
7.0349998 -3.0309999 -1.883 8
7.5440001 -3.2420001 -1.8839999 8
8.1099997 -3.4779999 -1.882 9
8.7460003 -3.7449999 -1.877 9
9.474 -4.053 -1.8710001 9
6.6009998 -2.905 -1.891 8
7.0279999 -3.0840001 -1.885 9
7.5229998 -3.2920001 -1.883 9
8.0970001 -3.536 -1.883 9
8.7399998 -3.8110001 -1.8789999 9
9.4729996 -4.1269999 -1.873 9
6.592 -2.954 -1.892 9
7.0190001 -3.135 -1.886 9
7.5229998 -3.3510001 -1.886 9
8.092 -3.5969999 -1.8839999 9
8.7259998 -3.8729999 -1.878 9
9.4659996 -4.197 -1.872 9
6.5819998 -3.0009999 -1.892 8
7.0019999 -3.1830001 -1.8839999 8
7.5180001 -3.408 -1.887 9
8.073 -3.652 -1.881 9
8.7270002 -3.9400001 -1.8789999 9
9.4619999 -4.2670002 -1.872 9
6.5760002 -3.0510001 -1.893 8
7.007 -3.24 -1.887 8
7.5190001 -3.467 -1.888 9
8.0900002 -3.721 -1.886 9
8.7349997 -4.0110002 -1.881 9
9.467 -4.342 -1.873 9
6.5710001 -3.0999999 -1.8940001 8
7.0019999 -3.2920001 -1.888 8
7.513 -3.5220001 -1.887 9
8.0889997 -3.783 -1.886 9
8.7489996 -4.0840001 -1.883 9
9.2360001 -4.3060002 -1.825 8
6.5679998 -3.1500001 -1.8940001 8
7.0019999 -3.346 -1.888 9
7.5100002 -3.5780001 -1.886 8
8.0930004 -3.846 -1.886 9
8.7620001 -4.1570001 -1.8839999 8
8.5799999 -4.0650001 -1.693 9
6.5650001 -3.1989999 -1.893 8
7.0029998 -3.4000001 -1.888 8
7.5209999 -3.6400001 -1.888 8
8.1029997 -3.9130001 -1.887 8
8.6219997 -4.1550002 -1.852 11
8.3559999 -4.0209999 -1.646 5
6.5739999 -3.2539999 -1.896 8
7.0170002 -3.461 -1.891 8
7.5310001 -3.7030001 -1.8890001 9
8.085 -3.964 -1.88 8
8.0109997 -3.921 -1.7180001 26
8.0710001 -3.944 -1.586 7
6.5799999 -3.3080001 -1.897 8
7.0229998 -3.517 -1.891 8
7.5450001 -3.766 -1.891 8
8.0939999 -4.0289998 -1.8789999 9
8.0139999 -3.9809999 -1.715 28
8.0509996 -3.994 -1.5779999 7
6.5840001 -3.3599999 -1.896 8
7.033 -3.575 -1.891 8
7.5539999 -3.8269999 -1.8890001 8
8.0450001 -4.0650001 -1.863 8
7.9970002 -4.0320001 -1.706 30
8.0469999 -4.0510001 -1.572 175
6.592 -3.414 -1.897 8
7.0419998 -3.6329999 -1.891 8
7.5799999 -3.8970001 -1.892 8
7.9640002 -4.0830002 -1.84 8
7.9860001 -4.085 -1.698 29
8.0030003 -4.0879998 -1.557 151
6.6009998 -3.4679999 -1.896 8
7.066 -3.698 -1.8940001 8
7.5949998 -3.961 -1.891 8
8.2189999 -4.2740002 -1.893 8
8.6619997 -4.4949999 -1.835 5
8.1599998 -4.2270002 -1.58 14
6.6209998 -3.5280001 -1.898 8
7.0830002 -3.7590001 -1.893 8
7.6350002 -4.0380001 -1.895 8
8.2390003 -4.3449998 -1.891 9
8.9399996 -4.704 -1.886 8
0 0 0 0
6.6389999 -3.5869999 -1.899 8
7.1059999 -3.823 -1.8940001 8
7.6630001 -4.1079998 -1.897 8
8.2840004 -4.428 -1.8940001 8
8.9829998 -4.79 -1.887 7
9.7679996 -5.1999998 -1.872 8
6.6550002 -3.6429999 -1.899 8
7.1300001 -3.8870001 -1.895 7
7.6999998 -4.1830001 -1.898 8
8.3039999 -4.4970002 -1.89 8
9.0439997 -4.8850002 -1.8890001 8
9.2910004 -5.0100002 -1.77 6
6.6739998 -3.701 -1.898 8
7.1599998 -3.954 -1.896 7
7.7309999 -4.2540002 -1.898 8
8.3739996 -4.5929999 -1.896 8
9.0939999 -4.9759998 -1.8890001 8
9.2460003 -5.0500002 -1.749 5
6.7010002 -3.7639999 -1.899 8
7.1869998 -4.02 -1.896 8
7.7670002 -4.3280001 -1.898 8
8.4090004 -4.671 -1.8940001 7
9.1400003 -5.0640001 -1.887 7
9.9960003 -5.5279999 -1.878 8
6.7280002 -3.8269999 -1.9 8
7.2129998 -4.0840001 -1.8940001 8
7.8130002 -4.4070001 -1.9 8
8.4589996 -4.756 -1.895 8
9.2019997 -5.1609998 -1.887 7
10.079 -5.6420002 -1.878 8
6.7490001 -3.885 -1.898 7
7.256 -4.158 -1.896 8
7.8600001 -4.487 -1.9 8
8.5100002 -4.842 -1.8940001 7
9.2729998 -5.2620001 -1.888 8
10.168 -5.7579999 -1.8789999 7
6.7989998 -3.96 -1.903 8
7.3010001 -4.2329998 -1.898 8
7.9070001 -4.566 -1.901 7
8.5769997 -4.9369998 -1.896 7
9.3470001 -5.3649998 -1.887 7
10.257 -5.8759999 -1.878 8
6.8330002 -4.0250001 -1.903 8
7.3439999 -4.3060002 -1.899 7
7.9580002 -4.6469998 -1.9 8
8.6370001 -5.027 -1.895 7
9.4280005 -5.473 -1.887 7
10.361 -6.0019999 -1.8789999 8
6.8709998 -4.0929999 -1.903 8
7.3969998 -4.3850002 -1.9 7
8.0120001 -4.73 -1.9 7
8.7030001 -5.1209998 -1.895 7
9.5150003 -5.5830002 -1.888 7
10.469 -6.1300001 -1.8789999 8
6.9120002 -4.1609998 -1.903 8
7.4510002 -4.4650002 -1.902 7
8.0780001 -4.8200002 -1.901 7
8.7869997 -5.2249999 -1.896 7
9.5869999 -5.6849999 -1.8839999 7
10.587 -6.2639999 -1.8789999 8
6.954 -4.23 -1.903 7
7.5050001 -4.5440001 -1.902 8
8.1379995 -4.9070001 -1.901 7
8.8620005 -5.3239999 -1.895 7
9.7080002 -5.8150001 -1.8890001 7
10.706 -6.3990002 -1.878 8
7.0040002 -4.303 -1.904 7
7.5640001 -4.6240001 -1.903 8
8.2139997 -5.0009999 -1.902 7
8.9499998 -5.4289999 -1.896 7
9.8210001 -5.9400001 -1.89 7
10.85 -6.5479999 -1.8789999 8
7.0609999 -4.3800001 -1.906 7
7.6279998 -4.7080002 -1.904 8
8.2869997 -5.0929999 -1.902 7
9.0290003 -5.5289998 -1.893 7
9.9130001 -6.053 -1.886 8
10.994 -6.697 -1.88 7
7.1129999 -4.4530001 -1.905 8
7.6929998 -4.7919998 -1.903 7
8.3699999 -5.191 -1.903 7
9.1280003 -5.6409998 -1.8940001 7
10.029 -6.1799998 -1.885 7
11.154 -6.8559999 -1.881 6
7.1719999 -4.5300002 -1.906 8
7.7690001 -4.882 -1.905 7
8.4540005 -5.29 -1.903 8
9.2220001 -5.7490001 -1.892 7
10.163 -6.316 -1.885 7
11.321 -7.0190001 -1.881 6
7.2410002 -4.6129999 -1.908 8
7.8319998 -4.9640002 -1.903 7
8.5360003 -5.3860002 -1.901 8
9.3389997 -5.8709998 -1.8940001 7
10.306 -6.4590001 -1.887 7
11.515 -7.198 -1.885 6
7.3070002 -4.6929998 -1.908 8
7.9169998 -5.059 -1.904 8
8.632 -5.4899998 -1.901 7
9.4630003 -5.9959998 -1.895 7
10.461 -6.6079998 -1.888 6
11.697 -7.3699999 -1.8839999 6
7.3800001 -4.777 -1.91 7
8.0030003 -5.1529999 -1.905 7
8.7360001 -5.5999999 -1.902 7
9.5780001 -6.1160002 -1.892 7
10.616 -6.7579999 -1.887 5
11.903 -7.5570002 -1.8839999 7
7.4660001 -4.869 -1.9119999 7
8.0869999 -5.2459998 -1.903 7
8.8330002 -5.704 -1.899 7
9.6969995 -6.2379999 -1.89 6
10.783 -6.914 -1.887 5
12.105 -7.7420001 -1.881 7
7.5440001 -4.9549999 -1.9119999 7
8.1850004 -5.3470001 -1.904 7
8.9460001 -5.8169999 -1.899 7
9.8470001 -6.3779998 -1.89 6
10.949 -7.0689998 -1.8839999 6
12.333 -7.941 -1.881 7
7.6240001 -5.04 -1.911 7
8.2749996 -5.441 -1.903 7
9.0600004 -5.9299998 -1.897 7
10.007 -6.5240002 -1.8940001 6
11.162 -7.2529998 -1.8890001 6
12.575 -8.1490002 -1.88 8
7.7119999 -5.131 -1.911 7
8.375 -5.5419998 -1.901 7
9.1829996 -6.0479999 -1.896 6
10.162 -6.6659999 -1.892 6
11.369 -7.4330001 -1.89 6
12.851 -8.3800001 -1.882 8
7.7969999 -5.2179999 -1.909 7
8.4879999 -5.6500001 -1.901 6
9.3319998 -6.1810002 -1.898 6
10.334 -6.8179998 -1.892 6
11.587 -7.619 -1.8890001 6
13.141 -8.618 -1.883 8
7.8990002 -5.3150001 -1.91 6
8.6070004 -5.7600002 -1.901 7
9.4689999 -6.3070002 -1.896 6
10.506 -6.9689999 -1.891 5
11.823 -7.816 -1.891 7
13.438 -8.8590002 -1.883 8
8.0089998 -5.4169998 -1.9119999 7
8.7259998 -5.869 -1.9 7
9.6239996 -6.4429998 -1.896 6
10.713 -7.1430001 -1.893 6
12.065 -8.0170002 -1.8890001 7
13.778 -9.1289997 -1.8839999 7
8.1120005 -5.513 -1.91 7
8.8520002 -5.9819999 -1.899 7
9.7819996 -6.579 -1.896 6
10.913 -7.3099999 -1.892 6
12.322 -8.2250004 -1.8890001 7
14.094 -9.382 -1.8789999 8
8.2279997 -5.6160002 -1.909 7
8.9870005 -6.0999999 -1.897 7
9.9580002 -6.7259998 -1.896 6
11.126 -7.4840002 -1.891 6
12.582 -8.434 -1.886 6
14.452 -9.6599998 -1.878 8
8.3439999 -5.7179999 -1.909 7
9.1389999 -6.2280002 -1.898 7
10.141 -6.8769999 -1.896 6
11.379 -7.6849999 -1.8940001 6
12.858 -8.6529999 -1.881 8
14.883 -9.9879999 -1.88 9
8.4759998 -5.8299999 -1.909 7
9.2930002 -6.355 -1.898 6
10.333 -7.0320001 -1.895 5
11.617 -7.8730001 -1.893 7
13.226 -8.9309998 -1.888 8
15.319 -10.316 -1.881 8
8.6029997 -5.9359999 -1.906 7
9.4540005 -6.4860001 -1.896 6
10.529 -7.1880002 -1.893 5
11.872 -8.0710001 -1.891 7
13.569 -9.1929998 -1.887 8
15.787 -10.665 -1.8789999 10
8.75 -6.0549998 -1.9069999 6
9.6190004 -6.618 -1.8940001 6
10.753 -7.362 -1.893 6
12.15 -8.283 -1.891 7
13.923 -9.4580002 -1.8839999 8
16.290001 -11.034 -1.8789999 9
8.8830004 -6.1620002 -1.903 6
9.8140001 -6.7680001 -1.895 6
10.992 -7.5430002 -1.8940001 6
12.45 -8.5080004 -1.89 7
14.34 -9.7650003 -1.887 8
16.809 -11.413 -1.874 9
9.0430002 -6.2859998 -1.902 6
10.009 -6.9169998 -1.8940001 6
11.258 -7.7420001 -1.897 6
12.767 -8.7419996 -1.89 8
14.76 -10.07 -1.886 9
17.500999 -11.906 -1.8839999 8
9.2189999 -6.4180002 -1.903 6
10.213 -7.0689998 -1.893 5
11.519 -7.934 -1.896 7
13.101 -8.9849997 -1.887 7
15.209 -10.393 -1.883 11
18.110001 -12.34 -1.8789999 6
9.3920002 -6.5469999 -1.901 6
10.43 -7.2290001 -1.892 5
11.787 -8.1280003 -1.892 7
13.481 -9.257 -1.8890001 8
15.7 -10.742 -1.882 10
18.813 -12.834 -1.878 6
9.5790005 -6.6830001 -1.9 6
10.662 -7.3959999 -1.891 6
12.077 -8.335 -1.891 7
13.877 -9.5369997 -1.888 7
16.224001 -11.11 -1.8789999 9
19.472 -13.295 -1.865 5
9.7989998 -6.8400002 -1.904 6
10.923 -7.5799999 -1.892 6
12.407 -8.5679998 -1.892 8
14.279 -9.8179998 -1.8839999 9
16.886 -11.568 -1.887 8
20.194 -13.794 -1.852 4
10 -6.9809999 -1.901 6
11.18 -7.7600002 -1.891 6
12.741 -8.7989998 -1.891 7
14.73 -10.128 -1.885 9
17.517 -12.001 -1.887 7
21.02 -14.359 -1.842 4
10.217 -7.1300001 -1.899 5
11.486 -7.9699998 -1.895 7
13.11 -9.0509996 -1.891 8
15.208 -10.454 -1.882 10
18.134001 -12.421 -1.877 5
0 0 0 0
10.45 -7.2880001 -1.898 5
11.76 -8.1540003 -1.891 7
13.513 -9.3219995 -1.893 8
15.75 -10.819 -1.885 11
18.936001 -12.96 -1.882 5
23.587 -16.096001 -1.873 47
10.697 -7.4520001 -1.897 5
12.072 -8.3620005 -1.8890001 7
13.896 -9.5769997 -1.887 9
16.298 -11.184 -1.88 8
19.525999 -13.35 -1.859 5
23.913 -16.301001 -1.798 36
10.967 -7.6290002 -1.897 6
12.401 -8.5769997 -1.887 8
14.35 -9.875 -1.887 9
16.954 -11.617 -1.8839999 8
20.275 -13.843 -1.844 4
25.316 -17.233 -1.796 3
11.26 -7.8189998 -1.898 6
12.75 -8.8030005 -1.8839999 7
14.821 -10.181 -1.886 11
17.584 -12.027 -1.8789999 6
21.173 -14.43 -1.837 4
26.993 -18.341999 -1.803 4
11.555 -8.0059996 -1.898 6
13.145 -9.0550003 -1.886 8
15.311 -10.495 -1.881 10
18.337 -12.515 -1.881 5
0 0 0 0
28.632 -19.414 -1.789 1
11.873 -8.2049999 -1.897 7
13.559 -9.3170004 -1.885 8
15.866 -10.848 -1.881 10
19.061001 -12.977 -1.872 5
24.169001 -16.395 -1.8890001 46
30.799 -20.83 -1.794 1
12.214 -8.4160004 -1.897 7
13.996 -9.5889997 -1.885 8
16.487 -11.24 -1.882 10
19.812 -13.448 -1.86 5
24.577 -16.622999 -1.814 56
33.601002 -22.66 -1.812 8
12.564 -8.6289997 -1.8940001 7
14.45 -9.868 -1.881 8
17.191999 -11.682 -1.888 7
20.719 -14.018 -1.8559999 4
25.219999 -17.002001 -1.7539999 24
32.706001 -21.983999 -1.624 2
12.955 -8.8640003 -1.895 8
14.97 -10.185 -1.881 9
17.895 -12.115 -1.8839999 8
21.653 -14.597 -1.844 4
27.622 -18.554001 -1.801 1
32.820999 -21.982 -1.487 2
13.351 -9.0979996 -1.892 7
15.489 -10.496 -1.877 11
18.597 -12.54 -1.876 5
22.66 -15.215 -1.83 4
0 0 0 0
32.855 -21.917 -1.346 3
13.81 -9.3690004 -1.893 8
16.073999 -10.844 -1.877 11
19.336 -12.981 -1.8660001 5
0 0 0 0
0 0 0 0
32.898998 -21.851 -1.206 1
14.247 -9.6199999 -1.8890001 10
16.746 -11.244 -1.878 9
20.104 -13.433 -1.849 4
26.278 -17.485001 -1.891 39
33.542 -22.239 -1.747 12
32.960999 -21.791 -1.067 88
14.729 -9.8950005 -1.885 8
17.437 -11.649 -1.878 7
21.042 -13.99 -1.842 4
27.066999 -17.92 -1.829 46
34.738998 -22.917999 -1.66 2
32.997002 -21.705 -0.92799997 81
15.29 -10.216 -1.888 9
18.121 -12.04 -1.8710001 6
22.1 -14.613 -1.8380001 4
27.896999 -18.370001 -1.765 42
32.967999 -21.632999 -1.433 36
33.060001 -21.631001 -0.78899997 100
15.838 -10.521 -1.8839999 10
18.834999 -12.443 -1.859 6
23.361 -15.359 -1.8380001 4
28.990999 -18.981001 -1.705 12
33.133999 -21.617001 -1.299 67
33.143002 -21.559999 -0.64700001 73
16.466999 -10.871 -1.883 9
19.615 -12.879 -1.848 4
24.577999 -16.059999 -1.827 4
33.103001 -21.541 -1.8049999 6
33.125 -21.481001 -1.155 25
33.223 -21.482 -0.509 42
17.142 -11.244 -1.882 7
20.447001 -13.339 -1.836 4
25.677 -16.67 -1.795 3
33.171001 -21.447001 -1.666 3
33.293999 -21.451 -1.018 88
33.319 -21.406 -0.36899999 30
17.906 -11.665 -1.886 7
21.409 -13.871 -1.827 4
26.969 -17.392 -1.768 3
33.247002 -21.351999 -1.527 40
33.339001 -21.336 -0.87699997 98
55.278999 -35.276001 -0.38499999 5
18.575001 -12.014 -1.873 6
22.427999 -14.428 -1.816 4
29.226 -18.712999 -1.79 1
33.320999 -21.249001 -1.3890001 90
33.369999 -21.205999 -0.74000001 40
55.306 -35.046001 -0.154 48
19.362 -12.43 -1.8660001 6
23.695999 -15.131 -1.8150001 4
30.361 -19.296 -1.728 1
33.637001 -21.291 -1.257 62
33.417999 -21.080999 -0.60000002 2
118.711 -74.667999 0.156 14
20.221001 -12.88 -1.859 4
24.908001 -15.781 -1.799 3
33.905998 -21.382 -1.786 1
54.271999 -34.085999 -1.801 3
64.172997 -40.167999 -0.889 5
124.432 -77.667 0.676 28
21.01 -13.274 -1.839 4
26.079 -16.391001 -1.771 3
33.950001 -21.239 -1.645 1
54.243999 -33.797001 -1.574 4
79.063004 -49.09 -0.77200001 17
112.54 -69.678001 1.064 13
22.027 -13.798 -1.832 5
27.441 -17.1 -1.745 2
0 0 0 0
0 0 0 0
61.522999 -37.875 -0.345 19
63.867001 -39.209999 0.86199999 14
23.193001 -14.401 -1.8279999 4
29.445999 -18.188 -1.748 1
43.160999 -26.537001 -1.727 1
61.257999 -37.512001 -1.267 11
61.532001 -37.550999 -0.098999999 15
63.678001 -38.751999 1.113 34
24.487 -15.065 -1.824 4
31.393 -19.212999 -1.73 1
47.514999 -28.948999 -1.704 2
61.514999 -37.328999 -1.025 40
61.709 -37.321999 0.147 5
63.882 -38.528 1.369 34
25.525999 -15.557 -1.793 3
32.831001 -19.905001 -1.673 1
53.667 -32.388 -1.705 4
61.498001 -36.970001 -0.77999997 50
70.335999 -42.139999 0.44600001 5
63.924999 -38.194 1.6160001 35
26.891001 -16.23 -1.776 2
34.771 -20.878 -1.628 1
53.716999 -32.106998 -1.488 5
61.702 -36.730999 -0.53799999 42
69.733002 -41.375 0.71100003 11
64.186996 -37.979 1.869 12
0 0 0 0
38.575001 -22.929001 -1.651 11
58.077 -34.366001 -1.38 10
62.132 -36.619999 -0.29699999 33
69.829002 -41.019001 0.98500001 15
59.651001 -34.944 1.966 11
0 0 0 0
39.799 -23.410999 -1.539 5
64.074997 -37.525002 -1.266 24
63.870998 -37.256001 -0.059 33
70.013 -40.702 1.253 15
60.028999 -34.801998 2.2019999 33
31.83 -18.617001 -1.7079999 1
46.865002 -27.275 -1.6289999 1
64.310997 -37.259998 -1.021 25
64.397003 -37.165001 0.18799999 9
59.277 -34.094002 1.2819999 19
59.271999 -33.997002 2.392 32
35.682999 -20.639999 -1.773 3
50.828999 -29.256001 -1.568 2
64.491997 -36.953999 -0.77700001 30
0 0 0 0
59.541 -33.875 1.507 28
59.407001 -33.705002 2.612 9
35.800999 -20.478001 -1.6390001 7
52.855999 -30.08 -1.4299999 4
66.313004 -37.570999 -0.55299997 34
116.053 -65.502998 1.191 23
59.792 -33.638 1.724 35
52.459 -29.431999 2.487 29
37.941002 -21.451 -1.592 11
57.255001 -32.209 -1.3329999 11
66.262001 -37.115002 -0.31099999 40
60.331001 -33.659 0.83999997 18
53.006001 -29.476999 1.719 19
53.174 -29.487 2.7060001 27
40.575001 -22.666 -1.549 6
53.127998 -29.534 -1.0420001 4
53.109001 -29.393 -0.056000002 30
53.155998 -29.306 0.92699999 22
59.493999 -32.692001 2.1359999 32
53.298 -29.209 2.8940001 3
50.285 -27.75 -1.732 2
53.203999 -29.214001 -0.85000002 105
67.011002 -36.633999 0.167 13
60.368 -32.877998 1.26 33
59.651001 -32.382999 2.339 13
65.037003 -35.207001 3.7479999 7
52.432999 -28.573999 -1.6160001 9
63.751999 -34.574001 -0.79299998 5
64.870003 -35.027 0.38499999 32
60.344002 -32.458 1.465 23
64.919998 -34.806999 2.763 33
64.93 -34.716999 3.951 4
52.352001 -28.167 -1.426 2
64.839996 -34.712002 -0.57999998 7
71.036003 -37.867001 0.66100001 32
64.689003 -34.351002 1.784 33
64.649002 -34.216999 2.9619999 36
72.769997 -38.412998 4.658 37
56.615002 -30.062 -1.346 10
0 0 0 0
65.984001 -34.716999 0.83399999 18
64.976997 -34.056 2.0039999 22
64.792 -33.845001 3.1719999 30
74.374001 -38.745998 4.9889998 32
0 0 0 0
0 0 0 0
78.535004 -40.766998 1.2460001 10
67.314003 -34.808998 2.2869999 7
64.899002 -33.450001 3.3800001 20
74.164001 -38.119999 5.204 39
61.700001 -31.877001 -1.051 6
0 0 0 0
65.212997 -33.384998 1.242 4
72.373001 -36.91 2.684 39
65.227997 -33.155998 3.5940001 5
73.605003 -37.313999 5.3790002 40
75.575996 -38.500999 -1.04 9
75.380997 -38.216 0.31799999 36
72.933998 -36.812 1.615 24
72.848999 -36.632 2.9189999 38
72.948997 -36.562 4.2319999 40
74.068001 -37.019001 5.6259999 30
49.438999 -24.823 -0.523 64
85.058998 -42.504002 0.61900002 9
72.975998 -36.308998 1.837 29
60.688 -30.083 2.6099999 12
73.126999 -36.129002 4.4520001 43
74.537003 -36.726002 5.868 29
49.587002 -24.535999 -0.37200001 14
85.043999 -41.875 0.87199998 17
60.708 -29.766001 1.701 12
60.577 -29.584999 2.7780001 30
73.504997 -35.784 4.677 37
74.420998 -36.127998 6.0609999 36
74.917999 -36.512001 -0.33700001 7
85.149002 -41.294998 1.123 11
61.097 -29.502001 1.8890001 34
73.040001 -35.138 3.55 29
73.877998 -35.426998 4.8979998 36
51.68 -24.715 4.3449998 3
0 0 0 0
62.084 -29.657 0.99599999 27
61.125999 -29.070999 2.0569999 22
0 0 0 0
51.666 -24.396 3.562 10
80.183998 -37.755001 6.9460001 34
61.938999 -29.264 0.075999998 58
61.766998 -29.042 1.161 23
61.152 -28.629 2.224 9
75.041 -35 4.0450001 28
50.931999 -23.676001 3.641 4
50.933998 -23.612 4.5359998 20
0 0 0 0
51.290001 -23.732 1.099 13
51.108002 -23.548 1.987 24
51.035999 -23.426001 2.8759999 44
84.183998 -38.512001 6.2179999 21
80.358002 -36.655998 7.3439999 22
51.316002 -23.473 0.338 45
51.459999 -23.427999 1.233 6
51.967999 -23.551001 2.1500001 10
61.571999 -27.799 3.618 34
80.463997 -36.206001 6.132 8
80.721001 -36.221001 7.5580001 10
112.447 -50.581001 1.026 15
63.178001 -28.281 1.671 37
125.631 -55.993999 5.5019999 25
0 0 0 0
80.492996 -35.619999 6.3169999 30
74.540001 -32.886002 7.1430001 26
102.698 -45.408001 1.1900001 22
63.854 -28.099001 1.839 9
125.916 -55.168999 5.8010001 49
0 0 0 0
53.137001 -23.112 4.2849998 11
53.549 -23.223 5.2459998 6
54.681 -23.756001 0.76300001 3
83.050003 -35.91 2.5829999 28
83.594002 -35.987 4.0370002 15
0 0 0 0
81.153999 -34.685001 6.711 13
46.555 -19.84 4.651 49
54.696999 -23.348 0.88700002 3
83.183998 -35.341 2.7679999 15
91.367996 -38.646999 4.6040001 13
84.413002 -35.564999 5.6999998 23
81.566002 -34.247002 6.908 5
46.109001 -19.304001 4.6960001 54
50.178001 -21.035999 0.92299998 3
91.421997 -38.136002 3.2349999 28
91.414001 -37.964001 4.7919998 29
85.68 -35.445999 5.9510002 19
45.773998 -18.871 3.961 15
46.424999 -19.084 4.8109999 43
102.735 -42.278 2.102 21
90.774002 -37.173 3.395 24
73.376999 -29.912001 3.9860001 26
85.825996 -34.848 6.1209998 15
45.743 -18.51 4.039 49
46.798 -18.878 4.9310002 44
104.429 -42.168999 2.3399999 9
73.617996 -29.580999 2.892 17
92.762001 -37.106998 5.211 31
83.279999 -33.185001 6.085 10
46.139 -18.32 4.1539998 53
47.240002 -18.698999 5.0549998 37
74.028999 -29.323999 1.799 25
74.100998 -29.204 3.043 26
124.726 -48.936001 7.2199998 23
81.844002 -31.986 6.1149998 18
46.77 -18.212999 4.2839999 26
46.071999 -17.884001 5 4
92.192001 -35.799999 2.405 22
95.832001 -37.034 4.0999999 17
85.137001 -32.751999 5.0689998 14
82.363998 -31.552999 6.283 20
46.487999 -17.749001 4.329 1
46.132999 -17.555 5.072 3
97.125999 -36.970001 2.6919999 8
96.281998 -36.465 4.2719998 22
127.94 -48.235001 7.8109999 19
49.571999 -18.615 3.8540001 7
48.393002 -18.105 4.573 20
48.73 -18.173 5.4239998 16
98.675003 -36.799 2.892 11
96.947998 -35.973 4.4489999 25
97.328003 -35.944 6.0799999 25
48.738998 -17.924999 3.8559999 29
48.512001 -17.775 4.6479998 35
49.952999 -18.243 5.6230001 27
118.281 -43.188 3.641 33
95.343002 -34.636002 4.5100002 35
49.105 -17.756001 3.135 5
49.212002 -17.718 3.957 12
48.703999 -17.472 4.7249999 8
49.381001 -17.659 5.6129999 42
59.903 -21.408001 1.925 45
95.248001 -33.869999 4.631 39
95.615997 -33.847 6.223 36
49.597 -17.482 4.0479999 59
73.934998 -25.962 7.2589998 29
47.848999 -16.746 5.4899998 24
60.268002 -21.073999 2.0139999 9
49.805 -17.326 2.48 43
49.924 -17.285 3.306 36
49.896999 -17.204 4.125 18
49.333 -16.944 4.8930001 16
48.055 -16.451 5.5609999 65
49.874001 -17.058001 1.725 35
60.264 -20.504999 3.0669999 56
95.994003 -32.512001 6.4549999 24
50.137001 -16.903999 4.1939998 6
47.695 -16.016001 4.7729998 36
48.534 -16.243 5.6570001 35
60.674 -20.280001 2.1630001 50
60.891998 -20.249001 3.1589999 16
96.352997 -31.886999 6.5689998 34
98.922997 -32.594002 8.3610001 18
48.977001 -16.075001 4.941 29
48.402 -15.83 5.6789999 37
97.608002 -31.875 3.5739999 23
61.237999 -19.895 3.233 42
97.077003 -31.381001 6.697 34
0 0 0 0
48.472 -15.533 4.9260001 37
47.588001 -15.194 5.6149998 1
99.509003 -31.723 3.7279999 31
97.847 -31.025999 5.244 24
97.138 -30.653999 6.776 27
0 0 0 0
48.563999 -15.194 4.9629998 65
48.480999 -15.111 5.7459998 6
73.367996 -22.827999 2.8010001 30
98.639999 -30.525 5.3509998 28
98.531998 -30.344999 6.9320002 32
0 0 0 0
48.578999 -14.829 4.9899998 57
51.592999 -15.69 6.1399999 35
72.665001 -22.054001 2.822 27
100.865 -30.445 5.5320001 18
120.362 -36.152 8.533 16
0 0 0 0
48.446999 -14.422 4.9949999 39
51.659 -15.316 6.165 18
72.858002 -21.554001 2.8670001 38
120.415 -35.431 6.658 31
121.548 -35.580002 8.6660004 21
122.21 -35.604 10.675 16
51.784 -15.021 5.3569999 25
0 0 0 0
73.115997 -21.070999 2.9070001 38
121.626 -34.853001 6.77 16
50.761002 -14.47 3.635 66
50.551998 -14.34 4.4289999 90
0 0 0 0
50.181 -14.12 6.0089998 3
50.575001 -14.191 2.0280001 66
50.449001 -14.074 2.822 19
122.36 -33.955002 8.7910004 21
84.828003 -23.427999 7.4460001 38
84.848 -23.323999 8.8030005 37
0 0 0 0
120.355 -32.848 4.8520002 11
121.277 -32.908001 6.8039999 53
0 0 0 0
83.649002 -22.458 7.3449998 32
84.139 -22.485001 8.7299995 42
84.989998 -22.615 10.179 51
121.97 -32.349998 4.9310002 16
0 0 0 0
0 0 0 0
84.091003 -21.938 7.3800001 22
83.924004 -21.790001 8.6990004 45
84.540001 -21.855 10.112 14
123.602 -31.848 4.9949999 16
0 0 0 0
0 0 0 0
84.848999 -21.500999 7.4349999 13
84.761002 -21.374001 8.7709999 33
84.845001 -21.304001 10.129 31
0 0 0 0
0 0 0 0
85.275002 -21.077999 6.1069999 7
87.988998 -21.636999 7.6869998 10
85.474998 -20.914 8.8179998 33
86.792999 -21.139 10.331 31
0 0 0 0
85.958 -20.724001 4.7870002 17
87.753998 -21.030001 6.257 16
82.535004 -19.677999 7.1830001 21
82.542999 -19.584 8.4840002 16
86.704002 -20.469999 10.28 45
0 0 0 0
87.810997 -20.514999 4.8559999 46
0 0 0 0
82.900002 -19.148001 7.1750002 16
82.560997 -18.969999 8.4429998 44
87.585999 -20.031 10.338 39
86.398003 -19.673 3.3989999 36
0 0 0 0
84.696999 -19.044001 5.9629998 28
87.581001 -19.583 7.533 12
82.820999 -18.416 8.4180002 22
84.441002 -18.681999 9.9110003 13
86.455002 -19.040001 3.3540001 8
85.901001 -18.792999 4.6599998 26
85.003998 -18.48 5.9299998 10
71.857002 -15.533 6.131 35
72.508003 -15.584 7.3179998 37
84.528999 -18.073999 9.8559999 35
86.732002 -18.455 3.3069999 31
86.782997 -18.337 4.6469998 15
0 0 0 0
71.744003 -14.974 6.066 31
72.132004 -14.966 7.2199998 38
52.618999 -10.862 6.0900002 27
87.713997 -18.014999 3.277 10
85.885002 -17.521 4.5289998 37
88.750999 -17.986 6.0500002 18
72.023003 -14.505 6.0250001 33
52.243999 -10.46 5.1830001 61
52.417999 -10.439 6.0170002 43
52.546001 -10.409 1.918 21
52.479 -10.324 2.721 48
52.459999 -10.251 3.5280001 42
73.063004 -14.182 6.04 14
52.405998 -10.113 5.1440001 35
52.768002 -10.125 6.0009999 23
110.976 -21.174999 3.9430001 24
87.052002 -16.489 4.4250002 10
97.397003 -18.32 6.4460001 19
82.960999 -15.505 6.7690001 27
72.198997 -13.413 7.0079999 18
71.053001 -13.122 8 36
77.582001 -14.244 2.674 8
87.141998 -15.88 4.3309999 10
87.249001 -15.786 5.6729999 10
76.869003 -13.813 6.1799998 26
71.026001 -12.683 6.8060002 14
70.519997 -12.516 7.8499999 32
77.905998 -13.742 2.5910001 38
96.848 -16.955999 4.697 12
99.610001 -17.309999 6.3540001 7
77.184998 -13.318 6.1069999 15
70.655998 -12.107 6.6760001 31
70.690002 -12.036 7.7719998 32
77.507004 -13.112 2.4760001 32
96.724998 -16.237 4.5609999 31
73.855003 -12.307 4.6090002 14
70.968002 -11.739 5.5159998 3
70.759003 -11.627 6.5869999 20
69.887001 -11.407 7.5830002 41
77.959999 -12.639 2.3829999 29
97.146004 -15.617 4.4400001 19
75.443001 -12.036 4.5970001 4
86.266998 -13.658 6.5749998 27
70.242996 -11.041 6.4299998 9
70.024002 -10.93 7.487 36
78.031998 -12.098 2.266 38
98.406998 -15.127 4.348 7
74.601997 -11.374 4.4299998 7
72.849998 -11.023 5.4369998 12
73.084 -10.975 6.572 5
70.558998 -10.517 7.4260001 25
109.726 -16.239 3.0079999 40
0 0 0 0
73.940002 -10.754 4.2659998 29
74.778 -10.79 5.4530001 4
76.116997 -10.901 6.7129998 12
70.682999 -10.046 7.316 36
58.481998 -8.2469997 1.503 5
110.254 -15.407 4.4980001 32
108.938 -15.094 6.0939999 12
73.511002 -10.095 5.2270002 25
0 0 0 0
70.783997 -9.5679998 7.1939998 13
111.96 -15.011 2.6719999 42
110.608 -14.694 4.3060002 43
74.850998 -9.8549995 4.046 13
113.879 -14.861 7.8829999 36
73.802002 -9.5480003 6.2309999 16
71.811996 -9.2139997 7.1589999 8
0 0 0 0
109.756 -13.828 4.0599999 12
110.373 -13.772 5.7490001 12
112.913 -13.963 7.592 9
75.362999 -9.2320004 6.2090001 9
73.473999 -8.9219999 7.1729999 21
0 0 0 0
108.339 -12.907 3.783 53
109.94 -12.971 5.4970002 25
110.168 -12.871 7.1739998 38
75.808998 -8.7729998 6.086 4
73.461998 -8.4259996 7.0149999 20
86.344002 -9.809 1.533 37
110.397 -12.406 3.6170001 16
109.052 -12.125 5.2140002 35
110.387 -12.152 6.9460001 43
77.306999 -8.4250002 6.0349998 20
73.914001 -7.9770002 6.8920002 21
85.167 -9.0979996 1.321 30
110.277 -11.643 3.3599999 20
55.076 -5.75 2.506 3
110.58 -11.424 6.6999998 9
76.607002 -7.8299999 5.8000002 24
56.151001 -5.6799998 5.1020002 14
86.967003 -8.7019997 1.141 17
55.368999 -5.474 1.5549999 43
109.881 -10.737 4.7350001 57
55.049999 -5.3169999 3.201 15
54.839001 -5.237 4.0170002 30
54.278999 -5.1259999 4.7979999 20
27.191999 -2.5380001 0.289 9
68.259003 -6.2940001 1.747 19
97.908997 -8.9160004 3.9749999 22
56.112 -5.0450001 3.1199999 6
113.21 -10.057 8.0039997 26
56.630001 -4.974 4.8600001 9
25.514 -2.2130001 0.205 6
68.244003 -5.8429999 1.5700001 31
97.648003 -8.2489996 3.71 44
111.595 -9.3039999 5.9169998 32
112.481 -9.2620001 7.6599998 32
114.111 -9.2770004 9.4940004 9
32.127998 -2.579 0.17299999 16
67.343002 -5.3280001 1.369 8
97.603996 -7.6160002 3.448 38
111.973 -8.6149998 5.6360002 37
112.982 -8.5670004 7.3839998 42
113.804 -8.5170002 9.1560001 38
32.965 -2.431 0.085000001 72
67.364998 -4.8920002 1.181 23
110.631 -7.9159999 3.5969999 25
111.657 -7.8730001 5.3070002 35
112.09 -7.7849998 7.013 13
113.46 -7.7620001 8.8079996 32
33.645 -2.266 -0.0080000004 30
0 0 0 0
87.764999 -5.7189999 2.5999999 7
111.554 -7.145 4.974 27
111.708 -7.0419998 6.6609998 37
114.375 -7.0929999 8.5419998 13
64.738998 -3.9460001 -0.211 5
67.523003 -4.0440001 0.787 4
67.712997 -3.9809999 1.802 3
88.403 -5.1069999 3.6789999 8
111.87 -6.3460002 6.335 45
111.659 -6.2249999 8.0039997 12
34.966 -1.9119999 -0.221 27
35.062 -1.8789999 0.301 5
67.486 -3.5420001 1.586 30
97.922997 -5.0359998 3.7679999 26
111.93 -5.6459999 5.9879999 33
112.983 -5.5840001 7.7420001 29
35.366001 -1.711 -0.33700001 37
35.584999 -1.684 0.191 23
95.678001 -4.427 1.944 41
98.371002 -4.4460001 3.4679999 37
111.537 -4.9260001 5.605 43
112.348 -4.848 7.3330002 29
34.831001 -1.467 -0.44800001 2
70.801003 -2.9089999 0.145 37
82.950996 -3.325 1.411 32
95.722 -3.7379999 3.0599999 38
110.529 -4.1989999 5.1880002 31
111.498 -4.1240001 6.9070001 26
0 0 0 0
36.422001 -1.273 -0.048999999 21
95.490997 -3.2379999 1.296 6
36.111 -1.187 1.03 7
112.31 -3.5840001 4.8909998 13
63.5 -1.9630001 3.7179999 18
35.202 -1.052 -0.69599998 45
36.228001 -1.045 -0.176 150
36.198002 -1.006 0.36300001 39
82.703003 -2.2149999 2.0680001 9
111.59 -2.881 4.4650002 40
63.402 -1.576 3.4890001 53
34.195999 -0.81599998 -0.80000001 46
36.813 -0.84200001 -0.31099999 2
72.276001 -1.58 0.46900001 24
82.681 -1.728 1.776 22
62.978001 -1.253 2.296 24
62.998001 -1.192 3.2409999 25
29.226999 -0.523 -0.792 30
37.5 -0.63499999 -0.45500001 49
37.703999 -0.60000002 0.105 15
0 0 0 0
63.384998 -0.88300002 2.075 26
62.457001 -0.81199998 2.9820001 46
27.974001 -0.336 -0.86400002 30
0 0 0 0
38.060001 -0.38299999 -0.037 40
96.880997 -0.884 1.358 9
63.141998 -0.51499999 1.831 23
62.219002 -0.447 2.737 40
26.033001 -0.161 -0.90600002 34
33.359001 -0.17200001 -0.66299999 6
38.110001 -0.16 -0.186 1
90.961998 -0.29499999 0.91600001 19
62.923 -0.14300001 1.577 13
57.750999 -0.078000002 2.3150001 3
25.205 -0.0089999996 -0.97899997 72
30.014999 0.017000001 -0.71600002 34
57.752998 0.086000003 -0.51200002 87
38.720001 0.096000001 0.236 9
57.652 0.198 1.216 39
57.603001 0.25299999 2.0780001 40
20.368 0.108 -0.875 12
28.014999 0.176 -0.78299999 39
38.938999 0.28099999 -0.505 39
39.001999 0.317 0.079000004 60
86.474998 0.78500003 1.474 24
63.257 0.63099998 2.029 40
19.822001 0.21699999 -0.935 50
26.240999 0.31200001 -0.84399998 81
37.688999 0.484 -0.64600003 27
39.294998 0.54000002 -0.082999997 67
80.327003 1.179 1.035 86
67.244003 1.05 1.876 12
19.250999 0.31900001 -0.991 54
25.389999 0.44299999 -0.92500001 71
31.895 0.58499998 -0.68199998 33
39.229 0.755 -0.249 1
87.056999 1.7589999 0.75199997 23
67.498001 1.426 1.597 27
19.077 0.421 -1.066 51
20.731001 0.47499999 -0.84600002 6
32.215 0.76800001 -0.82999998 63
39.848 0.986 -0.42699999 3
67.501999 1.732 0.28999999 6
0 0 0 0
19.018 0.523 -1.148 52
20.083 0.56900001 -0.90899998 44
25.775999 0.75400001 -0.77899998 5
27.101 0.81699997 -0.41100001 20
40.16 1.2460001 -0.003 22
93.644997 2.99 1.399 11
18.827 0.61900002 -1.223 52
19.150999 0.64499998 -0.954 53
25.535 0.88300002 -0.88700002 46
27.01 0.95700002 -0.53100002 37
40.419998 1.467 -0.185 32
40.476002 1.506 0.42300001 1
18.653 0.71200001 -1.299 55
18.665001 0.72799999 -1.017 59
21.042999 0.838 -0.82800001 2
26.879999 1.0930001 -0.65200001 39
27.011999 1.122 -0.24699999 26
47.537998 2.017 0.27900001 5
18.601999 0.80699998 -1.385 55
18.547001 0.82099998 -1.1 56
20.332001 0.91600001 -0.898 46
26.955 1.237 -0.78100002 26
26.76 1.251 -0.37099999 59
41.013 1.954 0.048 2
18.684 0.90700001 -1.483 49
18.493 0.91299999 -1.186 74
19.274 0.96700001 -0.94300002 54
27.011999 1.377 -0.912 26
26.645 1.381 -0.49599999 55
41.126999 2.1659999 -0.14399999 34
18.57 0.995 -1.566 49
18.351999 0.99800003 -1.267 59
18.471001 1.02 -0.99400002 65
21.122999 1.183 -0.81599998 1
26.648001 1.5140001 -0.625 56
27.011999 1.558 -0.22499999 19
18.375 1.077 -1.642 28
18.273001 1.085 -1.353 50
18.256001 1.098 -1.073 57
20.410999 1.244 -0.889 49
26.839001 1.656 -0.75999999 41
26.915001 1.684 -0.35499999 53
18.188 1.155 -1.719 9
18.322001 1.177 -1.45 57
18.131001 1.178 -1.1569999 70
19.172001 1.261 -0.93099999 54
0 0 0 0
26.921 1.813 -0.48800001 48
17.514999 1.197 -1.747 11
18.346001 1.268 -1.5470001 49
18.108999 1.265 -1.25 59
18.277 1.29 -0.98199999 53
21.370001 1.525 -0.82099998 5
27.466 1.983 -0.63800001 49
16.718 1.223 -1.757 10
18.179001 1.3430001 -1.63 27
18.011999 1.344 -1.3380001 57
17.958 1.353 -1.058 63
20.348 1.549 -0.88800001 47
27.854 2.1429999 -0.792 39
15.944 1.242 -1.762 11
17.934 1.409 -1.705 9
18.055 1.431 -1.438 53
17.878 1.4299999 -1.149 53
19.172001 1.549 -0.93800002 54
27.701 2.2590001 -0.93199998 28
15.211 1.256 -1.766 10
17.344999 1.444 -1.744 11
17.959 1.507 -1.528 52
17.841 1.5089999 -1.242 71
18.087999 1.544 -0.98199999 58
21.336 1.8380001 -0.83200002 7
14.533 1.266 -1.7690001 11
16.483999 1.447 -1.749 10
17.91 1.584 -1.623 36
17.796 1.586 -1.337 56
17.733999 1.5930001 -1.059 55
20.344 1.8430001 -0.90200001 56
13.895 1.273 -1.77 10
15.705 1.448 -1.755 10
17.690001 1.643 -1.702 12
17.731001 1.658 -1.4299999 53
17.663 1.664 -1.152 53
19.007 1.8049999 -0.94700003 54
13.314 1.278 -1.773 12
14.963 1.4450001 -1.757 11
17.117001 1.664 -1.743 11
17.833 1.745 -1.538 46
17.598 1.734 -1.245 62
17.848 1.771 -0.98699999 62
12.787 1.2819999 -1.778 11
14.309 1.443 -1.7640001 11
16.264999 1.65 -1.749 9
17.721001 1.809 -1.6289999 34
17.6 1.809 -1.344 56
17.481001 1.809 -1.0650001 52
12.273 1.283 -1.779 12
13.652 1.4349999 -1.7640001 11
15.478 1.636 -1.755 12
17.485001 1.859 -1.71 11
17.669001 1.89 -1.452 49
17.479 1.882 -1.165 59
11.785 1.281 -1.781 12
13.07 1.428 -1.767 12
14.761 1.6210001 -1.762 11
16.805 1.8559999 -1.742 10
17.525 1.947 -1.543 49
17.375 1.942 -1.2589999 64
11.328 1.278 -1.781 12
12.531 1.42 -1.77 12
14.092 1.605 -1.766 11
15.957 1.826 -1.748 11
17.507 2.0139999 -1.643 31
17.365999 2.01 -1.359 51
10.913 1.275 -1.784 13
12.009 1.409 -1.77 11
13.423 1.582 -1.765 11
15.179 1.7970001 -1.7539999 11
17.243999 2.052 -1.721 10
17.424999 2.0840001 -1.467 58
10.531 1.272 -1.788 12
11.546 1.399 -1.773 12
12.859 1.5650001 -1.7690001 13
14.473 1.7690001 -1.76 10
16.487 2.0250001 -1.745 10
17.421 2.1500001 -1.5700001 46
10.165 1.267 -1.791 12
11.118 1.39 -1.777 12
12.329 1.5470001 -1.773 12
13.791 1.738 -1.762 10
15.625 1.978 -1.749 11
17.261 2.1949999 -1.66 21
9.8109999 1.26 -1.7920001 11
10.699 1.378 -1.779 13
11.81 1.526 -1.773 12
13.155 1.706 -1.763 12
14.88 1.938 -1.757 11
16.969 2.22 -1.735 14
9.4879999 1.253 -1.794 11
10.333 1.368 -1.784 12
11.35 1.507 -1.775 12
12.595 1.679 -1.767 12
14.147 1.893 -1.7589999 10
16.084999 2.1619999 -1.744 11
9.1660004 1.243 -1.794 11
9.967 1.355 -1.786 11
10.926 1.49 -1.779 13
12.063 1.65 -1.7690001 12
13.498 1.853 -1.762 10
15.264 2.1040001 -1.75 12
8.8929996 1.237 -1.8 11
9.632 1.3430001 -1.79 11
10.517 1.47 -1.781 12
11.586 1.625 -1.774 12
12.871 1.811 -1.763 12
14.523 2.05 -1.756 10
8.6070004 1.227 -1.801 11
9.2889996 1.327 -1.788 11
10.143 1.452 -1.785 12
11.118 1.597 -1.775 12
12.322 1.775 -1.767 12
13.802 1.995 -1.757 10
8.3430004 1.217 -1.803 10
8.9829998 1.313 -1.79 11
9.7790003 1.433 -1.786 12
10.71 1.573 -1.78 13
11.825 1.742 -1.773 11
13.145 1.942 -1.7589999 11
8.0839996 1.206 -1.803 10
8.7089996 1.301 -1.795 12
9.4359999 1.413 -1.788 10
10.297 1.545 -1.78 12
11.313 1.702 -1.771 12
12.578 1.898 -1.7640001 12
7.8470001 1.196 -1.806 10
8.4329996 1.2869999 -1.7970001 12
9.1169996 1.3940001 -1.79 11
9.9250002 1.52 -1.783 11
10.875 1.67 -1.775 12
12.033 1.853 -1.767 11
7.6259999 1.186 -1.809 10
8.1750002 1.272 -1.799 10
8.8330002 1.377 -1.794 12
9.5880003 1.497 -1.786 11
10.47 1.638 -1.777 12
11.547 1.811 -1.77 12
7.414 1.175 -1.811 10
7.9310002 1.258 -1.8 11
8.5600004 1.359 -1.7970001 12
9.2580004 1.472 -1.788 11
10.104 1.61 -1.783 12
11.078 1.77 -1.773 11
7.1939998 1.161 -1.8099999 12
7.7020001 1.244 -1.803 10
8.302 1.342 -1.801 12
8.9460001 1.448 -1.79 11
9.7340002 1.5779999 -1.784 12
10.648 1.73 -1.775 11
6.9920001 1.148 -1.8099999 10
7.5019999 1.232 -1.8099999 10
8.0380001 1.321 -1.8 10
8.6780005 1.428 -1.796 11
9.3940001 1.549 -1.786 11
10.253 1.694 -1.779 12
6.8099999 1.137 -1.813 10
7.2859998 1.217 -1.811 10
7.802 1.304 -1.803 10
8.3950005 1.404 -1.7970001 11
9.0710001 1.5190001 -1.7869999 11
9.8760004 1.6569999 -1.781 12
6.6339998 1.125 -1.8150001 11
7.053 1.196 -1.804 11
7.579 1.286 -1.806 10
8.1289997 1.38 -1.7970001 11
8.7910004 1.494 -1.793 11
9.5179996 1.62 -1.7819999 11
6.4699998 1.114 -1.819 11
6.8709998 1.183 -1.809 10
7.3600001 1.267 -1.807 12
7.881 1.358 -1.798 10
8.5050001 1.467 -1.794 11
9.1999998 1.5880001 -1.785 11
