# .PCD v0.7 - Point Cloud Data file format
VERSION 0.7
FIELDS x y z intensity
SIZE 4 4 4 4
TYPE F F F F
COUNT 1 1 1 1
WIDTH 1915
HEIGHT 1
VIEWPOINT 0 0 0 1 0 0 0
POINTS 1915
DATA ascii
0 0 0 0
0 0 0 0
0 0 0 0
51.049999 -24.818001 8.1389999 54
47.984001 -23.33 8.4919996 6
0 0 0 0
0 0 0 0
0 0 0 0
0 0 0 0
48.778999 -23.343 7.8130002 5
48.226002 -23.079 8.5670004 22
49.868999 -23.879 9.7390003 5
0 0 0 0
0 0 0 0
0 0 0 0
48.727001 -22.945 7.8369999 20
49.395 -23.26 8.8030005 9
48.314999 -22.766001 9.4589996 3
0 0 0 0
0 0 0 0
0 0 0 0
49.59 -22.972 8.0059996 17
47.553001 -22.025999 8.4980001 5
48.719002 -22.576 9.5579996 3
0 0 0 0
0 0 0 0
0 0 0 0
47.752998 -21.75 7.7329998 6
47.749001 -21.747999 8.5539999 19
49.213001 -22.424 9.6730003 6
0 0 0 0
0 0 0 0
0 0 0 0
47.757 -21.389 7.7519999 21
49.651001 -22.233999 8.9110003 7
49.528 -22.188999 9.7460003 29
50.131001 -22.478001 10.744 5
0 0 0 0
0 0 0 0
47.933998 -21.096001 7.7930002 2
48.884998 -21.51 8.7819996 11
49.84 -21.937 9.8140001 17
50.351002 -22.179001 10.793 4
0 0 0 0
0 0 0 0
50.689999 -21.912001 8.2510004 26
50.348999 -21.759001 9.0509996 18
50.084999 -21.653 9.8629999 20
50.504002 -21.85 10.823 3
0 0 0 0
0 0 0 0
50.574001 -21.469 8.2379999 3
0 0 0 0
49.141998 -20.858 9.677 6
50.049999 -21.261 10.721 2
0 0 0 0
0 0 0 0
0 0 0 0
50.173 -20.9 9.0170002 5
49.626999 -20.674999 9.7639999 8
0 0 0 0
0 0 0 0
0 0 0 0
0 0 0 0
0 0 0 0
49.456001 -20.212999 9.717 5
0 0 0 0
0 0 0 0
0 0 0 0
0 0 0 0
0 0 0 0
0 0 0 0
0 0 0 0
0 0 0 0
0 0 0 0
0 0 0 0
0 0 0 0
0 0 0 0
0 0 0 0
0 0 0 0
0 0 0 0
0 0 0 0
0 0 0 0
0 0 0 0
0 0 0 0
0 0 0 0
0 0 0 0
0 0 0 0
0 0 0 0
0 0 0 0
0 0 0 0
0 0 0 0
0 0 0 0
47.731998 -17.658001 7.6739998 60
0 0 0 0
0 0 0 0
0 0 0 0
0 0 0 0
0 0 0 0
47.755001 -17.292999 7.645 57
0 0 0 0
0 0 0 0
0 0 0 0
0 0 0 0
0 0 0 0
48.362 -17.135 7.7030001 25
48.333 -17.110001 8.4849997 46
0 0 0 0
0 0 0 0
0 0 0 0
0 0 0 0
49.007999 -16.986 7.7639999 67
48.174999 -16.681 8.4099998 45
0 0 0 0
0 0 0 0
0 0 0 0
0 0 0 0
48.397999 -16.402 7.619 70
47.702999 -16.150999 8.2799997 16
0 0 0 0
0 0 0 0
0 0 0 0
0 0 0 0
48.407001 -16.033001 7.5669999 49
48.223999 -15.956 8.3140001 36
0 0 0 0
0 0 0 0
0 0 0 0
0 0 0 0
49.099998 -15.888 7.6199999 47
48.738998 -15.757 8.3430004 63
0 0 0 0
0 0 0 0
0 0 0 0
0 0 0 0
50.164001 -15.851 7.7199998 52
49.323002 -15.569 8.3769999 45
0 0 0 0
0 0 0 0
0 0 0 0
0 0 0 0
49.685001 -15.319 7.5780001 47
49.397999 -15.211 8.3179998 36
0 0 0 0
0 0 0 0
0 0 0 0
0 0 0 0
49.985001 -15.031 7.5489998 59
0 0 0 0
0 0 0 0
0 0 0 0
0 0 0 0
0 0 0 0
49.478001 -14.508 7.3969998 69
0 0 0 0
0 0 0 0
0 0 0 0
0 0 0 0
0 0 0 0
49.083 -14.025 7.256 52
48.658001 -13.882 7.9569998 40
0 0 0 0
0 0 0 0
0 0 0 0
0 0 0 0
49.43 -13.756 7.2199998 62
48.798 -13.559 7.8899999 18
0 0 0 0
0 0 0 0
0 0 0 0
0 0 0 0
50.096001 -13.568 7.223 58
49.768002 -13.457 7.9510002 4
0 0 0 0
0 0 0 0
0 0 0 0
0 0 0 0
50.042999 -13.185 7.1199999 6
50.09 -13.174 7.9039998 23
0 0 0 0
0 0 0 0
0 0 0 0
0 0 0 0
0 0 0 0
50.172001 -12.828 7.8109999 2
0 0 0 0
0 0 0 0
0 0 0 0
0 0 0 0
0 0 0 0
0 0 0 0
0 0 0 0
0 0 0 0
0 0 0 0
0 0 0 0
48.352001 -11.684 6.5669999 4
0 0 0 0
0 0 0 0
0 0 0 0
0 0 0 0
0 0 0 0
0 0 0 0
0 0 0 0
0 0 0 0
0 0 0 0
0 0 0 0
0 0 0 0
84.792999 -19.283001 11.117 7
0 0 0 0
0 0 0 0
0 0 0 0
0 0 0 0
0 0 0 0
85.440002 -18.827999 10.986 17
0 0 0 0
0 0 0 0
0 0 0 0
0 0 0 0
0 0 0 0
84.157997 -17.959 10.605 9
0 0 0 0
52.411999 -11.135 8.2030001 45
0 0 0 0
0 0 0 0
0 0 0 0
86.133003 -17.783001 10.62 43
0 0 0 0
52.229 -10.73 8.0270004 66
48.798 -10.009 8.2510004 5
0 0 0 0
50.417999 -10.313 10.095 14
86.106003 -17.181999 10.375 45
0 0 0 0
52.27 -10.379 7.8829999 62
48.904999 -9.691 8.125 26
48.701 -9.6339998 8.8450003 42
48.907001 -9.6630001 9.6459999 23
82.283997 -15.854 9.6759996 7
87.075996 -16.733 11.55 10
52.284 -10.022 7.7280002 62
49.325001 -9.4359999 8.0459995 7
48.643002 -9.2889996 8.6850004 46
48.949001 -9.3360004 9.5019999 48
83.964996 -15.618 9.6280003 31
51.495998 -9.5489998 6.677 5
48.113998 -8.8979998 6.967 2
49.194 -9.0749998 7.8709998 38
48.929001 -9.0089998 8.5810003 51
48.853001 -8.9799995 9.3249998 14
71.955002 -12.899 8.0279999 48
51.438 -9.191 6.5089998 11
49.417 -8.8050003 6.9990001 34
48.424 -8.6070004 7.5949998 8
49.841999 -8.8380003 8.5790005 25
48.905998 -8.6599998 9.1750002 42
51.115002 -8.8219995 5.54 2
51.560001 -8.8690004 6.3590002 46
48.558998 -8.3269997 6.7189999 49
49.57 -8.4809999 7.612 67
49.797001 -8.5 8.408 50
48.838001 -8.3199997 8.9989996 47
51.249001 -8.507 5.3870001 60
51.326 -8.4890003 6.1599998 54
48.666 -8.026 6.572 62
50.055 -8.2320004 7.5170002 44
49.030998 -8.0430002 8.1110001 60
49.363998 -8.0830002 8.9250002 60
51.506001 -8.2159996 5.244 31
51.304001 -8.1560001 5.987 57
48.963001 -7.7579999 6.447 6
49.499001 -7.8179998 7.263 56
49.433998 -7.7859998 8.0050001 45
50.029999 -7.8639998 8.868 19
71.179001 -10.898 7.0029998 18
51.625999 -7.8730001 5.8449998 2
71.217003 -10.825 9.1289997 42
49.152 -7.447 7.04 23
50.130001 -7.5760002 7.941 50
49.813999 -7.506 8.651 37
72.68 -10.668 6.8979998 10
69.834999 -10.206 7.6589999 45
69.925003 -10.184 8.7119999 46
49.226002 -7.1440001 6.8730001 66
50.132999 -7.256 7.7579999 30
49.624001 -7.1620002 8.4350004 46
72.436996 -10.176 6.6100001 12
69.500999 -9.7209997 7.369 37
69.661003 -9.7040005 8.4230003 35
49.502998 -6.8699999 6.7270002 5
50.266998 -6.9549999 7.5900002 36
49.508999 -6.8299999 8.2279997 32
70.015999 -9.3979998 6.1290002 25
69.728996 -9.316 7.132 32
69.690002 -9.2709999 8.1630001 46
49.606998 -6.573 6.552 4
49.444 -6.5279999 7.2750001 40
49.433998 -6.5079999 8.0229998 8
70.000999 -8.96 5.8600001 3
70.700996 -9.0059996 6.96 6
69.060997 -8.7600002 7.823 40
69.780998 -8.8140001 8.9460001 31
49.700001 -6.2550001 7.119 6
49.300999 -6.1830001 7.8060002 25
85.334 -10.411 6.8189998 26
71.098 -8.6330004 6.7270002 12
69.181 -8.3599997 7.5700002 27
69.657997 -8.3800001 8.6590004 42
73.292 -8.783 10.21 13
49.476002 -5.9060001 7.638 9
71.972 -8.3500004 5.4660001 8
76.343002 -8.8129997 6.9200001 12
69.417 -7.9720001 7.3169999 34
69.733002 -7.967 8.3850002 35
71.061996 -8.0860004 9.6099997 31
0 0 0 0
72.485001 -7.98 5.2129998 10
73.517998 -8.0459995 6.362 4
70.079002 -7.6300001 7.099 21
69.589996 -7.5380001 8.0819998 39
70.833 -7.6360002 9.2840004 31
0 0 0 0
97.690002 -10.175 6.6139998 24
72.285004 -7.4860001 5.954 5
70.244003 -7.2319999 6.8200002 10
69.609001 -7.1300001 7.7909999 35
70.691002 -7.2030001 8.9650002 32
0 0 0 0
110.522 -10.883 7.0240002 31
72.440002 -7.0869999 5.6630001 5
76.251999 -7.4130001 7.0819998 13
70.787003 -6.8439999 7.6230001 18
70.106003 -6.7379999 8.5889997 35
53.310001 -5.0960002 7.3280001 3
74.024002 -6.869 4.3860002 9
112.696 -10.385 8.3240004 34
72.796997 -6.6669998 6.448 5
71.316002 -6.4889998 7.3699999 3
71.103996 -6.4310002 8.4029999 33
52.172001 -4.6929998 6.9460001 16
109.532 -9.5539999 6.0149999 12
110.192 -9.54 7.6589999 12
74.633003 -6.414 6.2789998 19
72.499001 -6.1900001 7.171 13
71.639999 -6.0770001 8.1479998 30
52.185001 -4.3979998 6.7119999 40
108.848 -8.8900003 5.4889998 39
108.624 -8.8009996 7.0609999 24
109.762 -8.8299999 8.7469997 23
75.795998 -6.0500002 7.1529999 15
71.672997 -5.6799998 7.8249998 31
52.479 -4.132 6.5110002 18
108.332 -8.2589998 4.9699998 43
108.829 -8.2270002 6.579 24
108.985 -8.1700001 8.184 31
72.508003 -5.395 6.513 13
71.765999 -5.2979999 7.507 27
55.146999 -4.04 6.5879998 5
108.99 -7.7220001 4.493 34
53.768002 -3.776 3.0009999 6
110.04 -7.6560001 7.7490001 33
72.750999 -5.0170002 6.1919999 8
54.983002 -3.7609999 5.493 15
54.679001 -3.7079999 6.2709999 4
54.235001 -3.5550001 1.979 17
53.985001 -3.503 2.7550001 38
112.978 -7.2649999 7.4219999 26
55.050999 -3.506 4.4250002 3
73.136002 -4.6139998 6.9569998 25
53.694 -3.358 5.9039998 9
54.254002 -3.277 1.721 36
54.626999 -3.263 2.5280001 29
53.874001 -3.184 3.2809999 6
54.925999 -3.214 4.152 22
53.223999 -3.0810001 4.8060002 23
72.894997 -4.177 7.6599998 15
66.935997 -3.7019999 1.798 32
96.690002 -5.2839999 4.0040002 47
110.742 -5.9809999 6.204 38
112.1 -5.9840002 7.9239998 21
75.052002 -3.9590001 6.4070001 13
74.957001 -3.911 7.5079999 28
67.158997 -3.375 1.469 26
96.134003 -4.7680001 3.5020001 55
112.093 -5.4879999 5.7210002 9
110.624 -5.3499999 7.2709999 31
113.271 -5.4060001 9.1059999 48
0 0 0 0
96.220001 -4.362 1.622 16
95.977997 -4.2909999 3.017 53
96.709999 -4.2620001 4.4530001 23
111.076 -4.8239999 6.7410002 40
111.457 -4.7750001 8.4060001 30
112.636 -4.757 10.156 17
31.67 -1.283 0.373 1
66.453003 -2.651 1.752 3
96.814003 -3.7980001 3.9630001 34
110.555 -4.2659998 6.145 29
111.802 -4.244 7.8569999 28
112.718 -4.2129998 9.5860004 44
32.118 -1.149 0.212 27
66.105003 -2.3210001 1.399 14
86.471001 -2.9809999 3.0929999 5
110.808 -3.7460001 5.5819998 35
111.054 -3.687 7.2290001 22
111.091 -3.619 8.8669996 9
32.312 -1.0039999 0.041999999 2
109.853 -3.3429999 1.744 16
86.549004 -2.5799999 2.642 9
97.473 -2.8429999 4.4029999 31
111.706 -3.1900001 6.6890001 25
112.222 -3.1329999 8.3710003 24
31.93 -0.847 -0.127 1
85.896004 -2.221 0.90600002 9
66.176003 -1.668 1.665 27
96.570999 -2.372 3.845 42
110.374 -2.6400001 6.0149999 41
110.541 -2.573 7.6500001 37
31.771999 -0.69999999 -0.29899999 2
33.618999 -0.71799999 0.17299999 3
66.101997 -1.37 1.307 20
96.195999 -1.931 3.312 39
97.07 -1.8890001 4.77 34
110.99 -2.0910001 7.0900002 37
31.658001 -0.56 -0.47099999 2
33.84 -0.57599998 -0.0089999996 38
33.900002 -0.55500001 0.48699999 1
66.251999 -1.041 1.9220001 17
96.920998 -1.462 4.2379999 20
110.578 -1.599 6.4640002 47
0 0 0 0
34.091 -0.43399999 -0.197 40
34.263 -0.41299999 0.30199999 38
94.747002 -1.081 2.2249999 37
95 -1.024 3.6300001 15
110.532 -1.122 5.8520002 42
30.386 -0.28 -0.79100001 52
34.327999 -0.294 -0.389 19
34.327 -0.27200001 0.113 2
94.666 -0.69 1.705 19
94.455002 -0.62599999 3.0880001 36
97.418999 -0.58099997 4.6170001 12
24.742001 -0.127 -0.78299999 29
33.408001 -0.15000001 -0.56699997 43
34.279999 -0.13 -0.081 1
70.401001 -0.221 0.86699998 9
81.632004 -0.20200001 2.2049999 38
94.424004 -0.17399999 3.9419999 19
23.538 -0.026000001 -0.88200003 60
28.664 -0.013 -0.653 5
34.933998 0.0060000001 -0.28099999 19
35.09 0.028999999 0.23199999 19
81.922997 0.121 1.751 30
34.622002 0.074000001 1.249 4
23.450001 0.064000003 -1.0140001 70
28.261999 0.097000003 -0.80699998 63
34.084999 0.139 -0.472 8
35.228001 0.167 0.030999999 8
35.347 0.191 0.551 9
34.893002 0.212 1.057 15
19.007999 0.125 -0.935 52
24.045 0.175 -0.829 74
33.091 0.26100001 -0.65100002 47
34.898998 0.30000001 -0.17399999 150
35.347 0.32600001 0.345 8
81.250999 0.80800003 1.987 25
18.891001 0.19499999 -1.0420001 57
23.596001 0.259 -0.95200002 68
27.843 0.324 -0.713 28
34.852001 0.428 -0.377 10
65.913002 0.85399997 0.25799999 5
81.209999 1.107 1.5140001 6
18.825001 0.26199999 -1.152 59
18.792 0.27399999 -0.87099999 45
0 0 0 0
33.673 0.53600001 -0.565 41
60.042999 0.99599999 -0.122 9
36.196999 0.625 0.45899999 14
18.743999 0.32699999 -1.261 56
18.687 0.338 -0.98000002 62
23.636 0.44400001 -0.889 69
28.139 0.54799998 -0.64300001 28
36.243 0.73000002 -0.29100001 32
36.380001 0.75700003 0.243 20
18.677 0.391 -1.372 42
18.652 0.40200001 -1.092 54
18.870001 0.419 -0.824 20
26.232 0.60000002 -0.75700003 33
34.789001 0.81900001 -0.48800001 22
36.535 0.88499999 0.026000001 33
18.788 0.45500001 -1.4960001 8
18.566 0.461 -1.201 55
18.492001 0.47099999 -0.921 53
24.167 0.63200003 -0.84399998 80
28.125999 0.75599998 -0.56699997 3
36.694 1.012 -0.197 42
18.582001 0.50999999 -1.597 16
18.547001 0.52100003 -1.316 54
18.493 0.53200001 -1.0369999 54
19.089001 0.56099999 -0.78500003 4
26.723 0.80400002 -0.70300001 43
36.728001 1.131 -0.421 29
18.139999 0.55500001 -1.674 12
18.622 0.58099997 -1.439 40
18.493 0.58999997 -1.153 53
18.476999 0.602 -0.87599999 61
24.301001 0.80800003 -0.79100001 54
30.820999 1.046 -0.546 5
17.132999 0.57599998 -1.692 10
18.525 0.63499999 -1.551 36
18.396 0.64300001 -1.263 58
18.247 0.64999998 -0.98000002 56
23.799999 0.86400002 -0.92500001 65
27.509001 1.018 -0.66100001 31
16.128 0.59100002 -1.698 9
18.205 0.67799997 -1.642 10
18.34 0.69499999 -1.3789999 57
18.219999 0.70300001 -1.096 54
18.570999 0.72899997 -0.83999997 40
24.912001 0.99599999 -0.75599998 65
15.285 0.60299999 -1.71 11
17.393 0.69800001 -1.683 11
18.363001 0.74900001 -1.499 52
18.179001 0.75300002 -1.21 47
18.099001 0.76200002 -0.93400002 53
23.903999 1.024 -0.87699997 62
14.473 0.611 -1.714 11
16.332001 0.69999999 -1.687 10
18.159 0.79000002 -1.601 18
18.299999 0.80800003 -1.337 43
18.077999 0.81099999 -1.05 61
18.879 0.86000001 -0.81300002 24
13.754 0.61699998 -1.721 11
15.447 0.70200002 -1.697 11
17.753 0.81900001 -1.681 11
18.329 0.85799998 -1.4579999 57
18.028999 0.85600001 -1.163 65
18.052999 0.87 -0.89399999 54
13.096 0.62 -1.726 11
14.664 0.704 -1.709 10
16.655001 0.81 -1.686 10
18.177999 0.89600003 -1.5650001 33
18.025999 0.90200001 -1.28 53
17.889999 0.90700001 -1.001 55
12.477 0.62099999 -1.729 12
13.899 0.70099998 -1.7130001 10
15.697 0.80199999 -1.6950001 12
17.862 0.92500001 -1.6569999 10
18.184999 0.954 -1.411 44
17.847 0.94800001 -1.115 48
11.949 0.62300003 -1.738 11
13.21 0.69700003 -1.7180001 13
14.871 0.79500002 -1.705 11
16.957001 0.91799998 -1.686 10
18.146999 0.995 -1.529 43
17.896999 0.99299997 -1.237 51
11.43 0.62199998 -1.742 12
12.606 0.69400001 -1.726 13
14.094 0.78500003 -1.7130001 11
15.898 0.89600003 -1.688 11
17.791 1.015 -1.618 13
17.856001 1.031 -1.354 59
10.951 0.61900002 -1.7460001 13
12.053 0.68900001 -1.733 12
13.394 0.77399999 -1.719 12
15.074 0.88099998 -1.702 11
17.254999 1.021 -1.686 11
17.865999 1.0700001 -1.474 49
10.517 0.616 -1.751 12
11.509 0.68199998 -1.7359999 13
12.751 0.76300001 -1.725 13
14.258 0.86299998 -1.709 11
16.108999 0.986 -1.684 12
17.775 1.101 -1.587 15
10.106 0.61199999 -1.7539999 11
11.028 0.67400002 -1.74 13
12.185 0.75300002 -1.733 12
13.554 0.847 -1.717 10
15.262 0.96399999 -1.699 12
17.472 1.1160001 -1.678 11
9.7349997 0.60699999 -1.758 10
10.582 0.66600001 -1.744 12
11.64 0.74000001 -1.7359999 13
12.878 0.82800001 -1.72 13
14.432 0.93800002 -1.705 11
16.334999 1.073 -1.679 10
9.4020004 0.602 -1.766 11
10.173 0.65799999 -1.749 12
11.153 0.72899997 -1.7410001 13
12.299 0.81199998 -1.728 13
13.703 0.91399997 -1.7130001 11
15.443 1.041 -1.693 12
9.0699997 0.59600002 -1.7690001 11
9.7959995 0.64999998 -1.7539999 11
10.695 0.71600002 -1.7460001 13
11.764 0.796 -1.7359999 11
13.002 0.88800001 -1.715 13
14.617 1.0089999 -1.7029999 11
8.7639999 0.58899999 -1.772 11
9.4420004 0.63999999 -1.758 11
10.267 0.70300001 -1.748 12
11.252 0.778 -1.738 13
12.419 0.86699998 -1.724 13
13.872 0.97799999 -1.711 11
8.4809999 0.58200002 -1.778 11
9.1169996 0.63099998 -1.763 11
9.8889999 0.69099998 -1.755 12
10.792 0.76099998 -1.744 13
11.899 0.847 -1.7359999 12
13.159 0.94599998 -1.715 12
8.2209997 0.57499999 -1.784 11
8.8070002 0.62099999 -1.768 11
9.5270004 0.67799997 -1.7589999 11
10.359 0.74400002 -1.747 12
11.354 0.824 -1.737 13
12.544 0.91900003 -1.722 13
7.9749999 0.56699997 -1.79 11
8.5209999 0.611 -1.773 11
9.1890001 0.66500002 -1.763 11
9.9650002 0.72799999 -1.752 11
10.894 0.80299997 -1.743 13
11.983 0.89200002 -1.729 12
7.7350001 0.55900002 -1.793 10
8.2550001 0.60100001 -1.778 11
8.8809996 0.653 -1.7690001 11
9.5889997 0.71100003 -1.755 11
10.431 0.78100002 -1.743 12
11.451 0.86500001 -1.733 12
7.5120001 0.55000001 -1.798 10
8.0030003 0.59100002 -1.784 11
8.5900002 0.63999999 -1.774 11
9.2449999 0.69499999 -1.7589999 12
10.034 0.76099998 -1.749 12
10.977 0.83999997 -1.739 13
7.2800002 0.54000002 -1.798 9
7.7639999 0.57999998 -1.788 10
8.316 0.62699997 -1.779 11
8.948 0.68000001 -1.768 11
9.6619997 0.741 -1.753 12
10.53 0.815 -1.743 12
7.0339999 0.52700001 -1.791 10
7.5380001 0.56999999 -1.793 10
8.0620003 0.61400002 -1.784 11
8.6370001 0.66399997 -1.7690001 11
9.3280001 0.72299999 -1.76 12
10.127 0.792 -1.749 11
6.8379998 0.51700002 -1.793 11
7.3140001 0.55699998 -1.794 9
7.8189998 0.60100001 -1.7869999 11
8.3690004 0.648 -1.775 11
9.0170002 0.70499998 -1.766 11
9.75 0.76899999 -1.753 12
6.6620002 0.50800002 -1.798 11
7.0799999 0.54400003 -1.79 11
7.6009998 0.58899999 -1.794 10
8.118 0.634 -1.7819999 11
8.7040005 0.685 -1.768 11
9.4060001 0.74699998 -1.7589999 11
6.4899998 0.49700001 -1.801 11
6.8649998 0.53100002 -1.788 11
7.3720002 0.574 -1.796 10
7.8730001 0.61799997 -1.786 11
8.4329996 0.66799998 -1.775 11
9.0780001 0.72500002 -1.763 12
6.3109999 0.486 -1.801 11
6.6869998 0.51899999 -1.793 11
7.1370001 0.55800003 -1.7920001 11
7.6420002 0.60299999 -1.791 10
8.1759996 0.65100002 -1.781 11
8.7819996 0.70499998 -1.7690001 11
6.1570001 0.47600001 -1.8049999 11
6.5050001 0.50700003 -1.794 11
6.9229999 0.54400003 -1.791 11
7.4219999 0.588 -1.794 10
7.9320002 0.63300002 -1.785 11
8.493 0.68400002 -1.772 11
5.9959998 0.465 -1.8049999 10
6.3340001 0.495 -1.796 11
6.7449999 0.53100002 -1.796 10
7.1950002 0.57099998 -1.793 11
7.6820002 0.61500001 -1.785 11
8.2510004 0.66600001 -1.781 11
5.8540001 0.454 -1.808 10
6.1750002 0.48199999 -1.798 11
6.5689998 0.51700002 -1.798 11
6.9710002 0.55400002 -1.789 11
7.4699998 0.59799999 -1.791 11
8.0010004 0.64600003 -1.785 11
5.7140002 0.44299999 -1.8099999 9
6.04 0.472 -1.8049999 11
6.3990002 0.50400001 -1.8 11
6.7880001 0.53899997 -1.793 11
7.2470002 0.57999998 -1.791 11
7.7319999 0.62400001 -1.7819999 11
5.5749998 0.43099999 -1.8099999 10
5.8800001 0.458 -1.803 10
6.2280002 0.48899999 -1.8 11
6.6149998 0.52399999 -1.7970001 11
7.0419998 0.56199998 -1.793 12
7.5050001 0.60399997 -1.784 11
5.454 0.421 -1.814 10
5.7389998 0.44600001 -1.8049999 9
6.0809999 0.47600001 -1.804 12
6.4419999 0.509 -1.798 11
6.8449998 0.54500002 -1.793 11
7.2930002 0.58600003 -1.7869999 11
5.3280001 0.40900001 -1.8150001 10
5.6149998 0.43399999 -1.8099999 10
5.9320002 0.463 -1.806 11
6.2810001 0.49399999 -1.801 11
6.6599998 0.528 -1.794 11
7.0900002 0.56699997 -1.789 11
5.2150002 0.398 -1.819 10
5.4809999 0.421 -1.8099999 11
5.7979999 0.449 -1.8099999 10
6.1170001 0.47799999 -1.8 11
6.494 0.51200002 -1.798 11
6.8829999 0.54699999 -1.788 11
5.1110001 0.38699999 -1.824 11
5.3579998 0.40900001 -1.812 11
5.6620002 0.43599999 -1.811 10
5.9759998 0.46399999 -1.804 11
6.3309999 0.495 -1.8 12
6.6999998 0.52899998 -1.789 11
4.9889998 0.37400001 -1.8200001 10
5.257 0.398 -1.819 11
5.5320001 0.42199999 -1.812 12
5.835 0.449 -1.806 11
6.171 0.479 -1.8 11
6.533 0.51099998 -1.7920001 12
4.8870001 0.36300001 -1.822 9
5.145 0.38499999 -1.821 11
5.4039998 0.40799999 -1.812 11
5.7030001 0.43399999 -1.808 10
6.0300002 0.463 -1.804 11
6.369 0.493 -1.794 11
4.7979999 0.352 -1.8279999 10
5.0359998 0.373 -1.822 11
5.296 0.39500001 -1.817 12
5.5739999 0.41999999 -1.8099999 10
5.8920002 0.447 -1.807 11
6.21 0.47600001 -1.795 11
4.7059999 0.34099999 -1.831 10
4.921 0.359 -1.8200001 11
5.1929998 0.382 -1.822 11
5.4510002 0.405 -1.812 11
5.7389998 0.43000001 -1.803 11
6.0650001 0.45899999 -1.7970001 11
4.6059999 0.32800001 -1.83 10
4.8210001 0.347 -1.821 10
5.0799999 0.36899999 -1.821 12
5.3449998 0.391 -1.816 11
5.585 0.41299999 -1.796 11
5.9180002 0.44100001 -1.7970001 11
4.5180001 0.317 -1.832 10
4.7449999 0.336 -1.83 11
4.9749999 0.35499999 -1.823 10
5.2270002 0.37599999 -1.817 11
5.5019999 0.40000001 -1.811 11
5.79 0.42500001 -1.801 11
4.4419999 0.30599999 -1.837 9
4.6469998 0.32300001 -1.829 11
4.8740001 0.34200001 -1.824 11
5.1230001 0.36300001 -1.819 11
5.355 0.38299999 -1.802 10
5.6729999 0.40900001 -1.806 11
4.3520002 0.29300001 -1.835 10
4.5599999 0.31 -1.831 10
4.7820001 0.329 -1.827 11
5.0170002 0.34799999 -1.8200001 11
5.2800002 0.37 -1.816 11
5.5479999 0.39300001 -1.806 11
4.2779999 0.28200001 -1.839 10
4.4720001 0.29800001 -1.831 11
4.6900001 0.31600001 -1.827 10
4.915 0.33399999 -1.8200001 10
5.1739998 0.35499999 -1.818 12
5.4330001 0.377 -1.808 11
4.1849999 0.26899999 -1.834 9
4.3920002 0.28600001 -1.834 10
4.6079998 0.303 -1.832 11
4.8270001 0.31999999 -1.824 11
5.079 0.34099999 -1.822 11
5.3309999 0.361 -1.813 11
4.1170001 0.25799999 -1.837 9
4.3119998 0.273 -1.835 10
4.5159998 0.289 -1.83 11
4.7280002 0.30599999 -1.822 10
4.9699998 0.32499999 -1.8200001 12
5.224 0.345 -1.8150001 11
4.0370002 0.24600001 -1.835 8
4.2329998 0.26100001 -1.835 10
4.4359999 0.27599999 -1.832 10
4.6529999 0.29300001 -1.829 11
4.8720002 0.31 -1.8200001 11
5.1279998 0.33000001 -1.818 11
3.971 0.234 -1.8380001 9
4.1609998 0.249 -1.837 10
4.362 0.264 -1.835 10
4.5669999 0.27900001 -1.829 10
4.7849998 0.296 -1.823 11
5.0229998 0.31400001 -1.817 11
3.9119999 0.223 -1.842 9
4.086 0.236 -1.836 10
4.2849998 0.25 -1.836 10
4.4860001 0.26499999 -1.831 10
4.6929998 0.28099999 -1.822 10
4.928 0.29800001 -1.818 11
3.855 0.212 -1.847 9
4.0170002 0.22400001 -1.837 9
4.2119999 0.23800001 -1.837 10
4.4089999 0.252 -1.832 10
4.6139998 0.26699999 -1.825 11
4.8369999 0.28299999 -1.819 11
3.7939999 0.2 -1.849 8
3.954 0.212 -1.84 9
4.132 0.22400001 -1.834 10
4.336 0.23800001 -1.834 11
4.5370002 0.252 -1.8279999 10
4.7540002 0.26800001 -1.822 11
3.7219999 0.18799999 -1.844 8
3.8929999 0.2 -1.842 9
4.0710001 0.212 -1.8380001 11
4.2610002 0.22499999 -1.835 10
4.4619999 0.23800001 -1.83 10
4.6739998 0.25299999 -1.824 10
3.6700001 0.177 -1.848 8
3.8369999 0.18799999 -1.846 9
3.997 0.198 -1.836 9
4.1960001 0.211 -1.8380001 9
4.3870001 0.22400001 -1.831 10
4.5970001 0.23800001 -1.827 10
3.612 0.16500001 -1.849 8
3.7739999 0.175 -1.845 9
3.9419999 0.186 -1.84 9
4.118 0.198 -1.834 10
4.3179998 0.20999999 -1.8329999 10
4.52 0.223 -1.8279999 10
3.5569999 0.153 -1.849 8
3.7260001 0.164 -1.851 9
3.885 0.17399999 -1.8430001 10
4.0539999 0.184 -1.836 10
4.2519999 0.19599999 -1.836 10
4.447 0.20900001 -1.829 10
3.5020001 0.142 -1.849 8
3.6630001 0.15099999 -1.849 8
3.823 0.161 -1.8430001 9
3.993 0.171 -1.837 9
4.184 0.182 -1.836 9
4.3759999 0.19400001 -1.83 10
3.4519999 0.13 -1.85 8
3.6129999 0.139 -1.851 9
3.7739999 0.149 -1.847 9
3.924 0.15800001 -1.834 9
4.1160002 0.168 -1.835 10
4.3189998 0.18000001 -1.836 10
3.4000001 0.119 -1.85 8
3.5610001 0.127 -1.852 9
3.723 0.13600001 -1.85 9
3.878 0.145 -1.841 9
4.0500002 0.155 -1.834 10
4.2420001 0.16500001 -1.8329999 10
3.3510001 0.107 -1.85 8
3.5039999 0.115 -1.849 9
3.661 0.123 -1.847 9
3.826 0.132 -1.8430001 9
3.987 0.141 -1.8329999 10
4.1859999 0.15099999 -1.836 10
3.3069999 0.096000001 -1.852 7
3.4560001 0.103 -1.851 9
3.6110001 0.111 -1.848 9
3.7679999 0.119 -1.842 9
3.931 0.127 -1.835 9
4.1209998 0.13699999 -1.836 10
3.256 0.083999999 -1.849 7
3.4070001 0.090999998 -1.85 8
3.5680001 0.098999999 -1.852 9
3.7219999 0.106 -1.846 8
3.8829999 0.114 -1.839 9
4.0609999 0.122 -1.836 9
3.2179999 0.072999999 -1.853 7
3.362 0.079999998 -1.851 8
3.5139999 0.086000003 -1.85 9
3.674 0.093999997 -1.848 8
3.8280001 0.101 -1.839 9
4.0040002 0.109 -1.836 9
3.1730001 0.061999999 -1.852 7
3.316 0.068000004 -1.851 8
3.4679999 0.074000001 -1.85 9
3.625 0.081 -1.849 9
3.783 0.088 -1.842 9
3.951 0.094999999 -1.837 9
3.138 0.050999999 -1.8559999 7
3.277 0.056000002 -1.853 8
3.4219999 0.061999999 -1.85 8
3.5780001 0.068000004 -1.849 9
3.74 0.075000003 -1.846 8
3.8989999 0.081 -1.8380001 9
3.1010001 0.039000001 -1.858 6
3.2379999 0.045000002 -1.855 7
3.3829999 0.050000001 -1.853 8
3.53 0.055 -1.848 8
3.6919999 0.061000001 -1.847 9
3.8469999 0.067000002 -1.8380001 8
3.062 0.028000001 -1.857 6
3.198 0.033 -1.855 7
3.3399999 0.037999999 -1.853 8
3.4909999 0.043000001 -1.851 8
3.6489999 0.048 -1.849 8
3.8080001 0.054000001 -1.8430001 9
3.03 0.017000001 -1.8609999 6
3.161 0.021 -1.857 7
3.296 0.026000001 -1.851 8
3.45 0.029999999 -1.852 8
3.6010001 0.035 -1.848 9
3.763 0.039999999 -1.845 8
2.013 0.0040000002 -1.251 6
3.1210001 0.0099999998 -1.8559999 7
3.26 0.014 -1.853 7
3.408 0.017999999 -1.852 8
3.556 0.022 -1.847 8
3.7179999 0.026000001 -1.845 8
1.6 -0.0020000001 -1.006 2
3.085 -0.001 -1.8559999 7
3.223 0.0020000001 -1.854 8
3.3599999 0.0049999999 -1.848 8
3.5179999 0.0089999996 -1.849 8
3.677 0.013 -1.847 8
1.538 -0.0080000004 -0.97899997 2
3.052 -0.012 -1.857 6
3.1849999 -0.0089999996 -1.853 7
3.3329999 -0.0060000001 -1.854 9
3.477 -0.003 -1.849 8
3.635 0 -1.847 8
1.4960001 -0.013 -0.963 3
3.023 -0.024 -1.86 6
3.148 -0.021 -1.852 7
3.2909999 -0.017999999 -1.851 8
3.441 -0.016000001 -1.85 8
3.5940001 -0.013 -1.846 8
1.461 -0.018999999 -0.95099998 3
0 0 0 0
3.1229999 -0.033 -1.857 6
3.2539999 -0.029999999 -1.85 8
3.4030001 -0.028000001 -1.85 8
3.5580001 -0.026000001 -1.848 8
1.434 -0.024 -0.94300002 4
1.6210001 -0.025 -1.0190001 1
3.0929999 -0.044 -1.858 7
3.223 -0.043000001 -1.852 8
3.368 -0.041000001 -1.849 8
3.5220001 -0.039000001 -1.848 8
1.406 -0.028999999 -0.93400002 4
1.5599999 -0.029999999 -0.991 2
3.056 -0.056000002 -1.855 7
3.1949999 -0.055 -1.854 8
3.336 -0.054000001 -1.851 8
3.483 -0.052000001 -1.847 8
0 0 0 0
1.516 -0.035999998 -0.972 2
3.033 -0.068000004 -1.86 6
3.1619999 -0.067000002 -1.854 7
3.3 -0.066 -1.849 8
3.448 -0.064999998 -1.847 8
0 0 0 0
1.4859999 -0.041000001 -0.96200001 3
0 0 0 0
3.1340001 -0.079000004 -1.854 7
3.267 -0.078000002 -1.848 7
3.4159999 -0.078000002 -1.847 8
0 0 0 0
1.462 -0.046 -0.95599997 5
0 0 0 0
3.112 -0.090999998 -1.859 6
3.2490001 -0.090999998 -1.855 7
3.3959999 -0.092 -1.853 8
0 0 0 0
1.441 -0.052000001 -0.95099998 5
1.59 -0.055 -1.002 1
3.0829999 -0.103 -1.857 7
3.2119999 -0.103 -1.85 7
3.3570001 -0.104 -1.848 7
0 0 0 0
1.414 -0.057 -0.94099998 5
1.556 -0.059999999 -0.98900002 2
3.059 -0.115 -1.859 7
3.1889999 -0.115 -1.853 7
3.339 -0.117 -1.854 8
0 0 0 0
0 0 0 0
1.523 -0.064999998 -0.97600001 2
3.029 -0.126 -1.8559999 7
3.1619999 -0.12800001 -1.852 7
3.3039999 -0.12899999 -1.849 7
0 0 0 0
0 0 0 0
1.497 -0.071000002 -0.96700001 3
3.0109999 -0.138 -1.859 6
3.1370001 -0.14 -1.851 7
3.2809999 -0.142 -1.85 7
0 0 0 0
0 0 0 0
1.476 -0.075999998 -0.96100003 4
2.9790001 -0.149 -1.854 6
3.1229999 -0.152 -1.857 7
3.2639999 -0.155 -1.855 7
0 0 0 0
0 0 0 0
1.4529999 -0.081 -0.95300001 4
0 0 0 0
3.1010001 -0.164 -1.857 6
3.237 -0.167 -1.852 7
0 0 0 0
0 0 0 0
1.436 -0.086000003 -0.949 4
1.594 -0.093000002 -1.006 1
3.073 -0.176 -1.853 6
3.2160001 -0.18000001 -1.853 7
0 0 0 0
0 0 0 0
1.421 -0.092 -0.94499999 4
1.5599999 -0.097999997 -0.991 1
3.063 -0.189 -1.859 7
3.198 -0.193 -1.855 7
0 0 0 0
0 0 0 0
0 0 0 0
1.5420001 -0.104 -0.986 2
3.04 -0.2 -1.8559999 7
3.175 -0.205 -1.852 7
0 0 0 0
0 0 0 0
0 0 0 0
1.518 -0.109 -0.97600001 2
3.0250001 -0.213 -1.858 6
3.164 -0.21799999 -1.857 7
0 0 0 0
0 0 0 0
0 0 0 0
1.51 -0.115 -0.97600001 2
3.007 -0.22400001 -1.857 6
3.145 -0.23 -1.855 7
0 0 0 0
0 0 0 0
0 0 0 0
1.495 -0.12 -0.972 2
2.9890001 -0.236 -1.855 6
3.125 -0.242 -1.853 7
0 0 0 0
0 0 0 0
0 0 0 0
1.4809999 -0.126 -0.96700001 2
2.9809999 -0.248 -1.859 7
3.119 -0.255 -1.857 7
0 0 0 0
0 0 0 0
0 0 0 0
1.469 -0.131 -0.963 2
0 0 0 0
3.1070001 -0.26800001 -1.858 6
0 0 0 0
0 0 0 0
0 0 0 0
1.454 -0.13600001 -0.95700002 2
0 0 0 0
3.095 -0.28 -1.858 6
0 0 0 0
0 0 0 0
0 0 0 0
1.444 -0.141 -0.954 2
0 0 0 0
3.082 -0.292 -1.857 6
0 0 0 0
0 0 0 0
0 0 0 0
0 0 0 0
1.653 -0.16599999 -1.046 1
3.0769999 -0.30500001 -1.86 6
0 0 0 0
0 0 0 0
0 0 0 0
0 0 0 0
1.587 -0.16599999 -1.008 1
3.0680001 -0.317 -1.859 6
0 0 0 0
0 0 0 0
0 0 0 0
0 0 0 0
1.574 -0.17200001 -1.002 1
3.0650001 -0.33000001 -1.862 7
0 0 0 0
0 0 0 0
0 0 0 0
0 0 0 0
1.5650001 -0.177 -0.99800003 1
3.0569999 -0.34200001 -1.8609999 6
0 0 0 0
0 0 0 0
0 0 0 0
0 0 0 0
1.5599999 -0.184 -0.99699998 1
3.0510001 -0.354 -1.8609999 6
0 0 0 0
0 0 0 0
0 0 0 0
0 0 0 0
1.561 -0.19 -0.99900001 1
3.0510001 -0.36700001 -1.863 6
0 0 0 0
0 0 0 0
0 0 0 0
0 0 0 0
1.5549999 -0.19599999 -0.99599999 1
3.0510001 -0.38 -1.865 6
0 0 0 0
0 0 0 0
0 0 0 0
0 0 0 0
1.559 -0.20299999 -0.99900001 1
3.046 -0.39199999 -1.862 6
0 0 0 0
0 0 0 0
0 0 0 0
0 0 0 0
1.559 -0.20999999 -0.99900001 1
3.05 -0.405 -1.8660001 6
0 0 0 0
0 0 0 0
0 0 0 0
0 0 0 0
1.561 -0.21600001 -1 1
3.0450001 -0.41600001 -1.862 6
0 0 0 0
0 0 0 0
0 0 0 0
0 0 0 0
1.563 -0.223 -1.001 1
3.049 -0.42899999 -1.864 6
0 0 0 0
0 0 0 0
0 0 0 0
0 0 0 0
1.567 -0.23 -1.003 1
3.05 -0.442 -1.862 6
0 0 0 0
0 0 0 0
0 0 0 0
0 0 0 0
1.579 -0.23800001 -1.01 1
3.0550001 -0.454 -1.862 7
0 0 0 0
0 0 0 0
0 0 0 0
0 0 0 0
1.608 -0.248 -1.026 1
3.056 -0.46599999 -1.86 6
0 0 0 0
0 0 0 0
0 0 0 0
0 0 0 0
1.734 -0.27399999 -1.105 2
3.0650001 -0.479 -1.862 6
0 0 0 0
0 0 0 0
0 0 0 0
1.446 -0.237 -0.96399999 2
1.848 -0.29899999 -1.175 2
3.0739999 -0.49200001 -1.862 6
0 0 0 0
0 0 0 0
0 0 0 0
1.454 -0.244 -0.96700001 2
0 0 0 0
3.0840001 -0.505 -1.863 6
0 0 0 0
0 0 0 0
0 0 0 0
1.465 -0.25099999 -0.972 2
0 0 0 0
3.0969999 -0.51800001 -1.865 7
0 0 0 0
0 0 0 0
0 0 0 0
1.478 -0.259 -0.977 2
2.938 -0.50800002 -1.85 8
3.1029999 -0.52999997 -1.862 7
0 0 0 0
0 0 0 0
0 0 0 0
1.49 -0.266 -0.98100001 2
2.9679999 -0.52399999 -1.8609999 6
3.1159999 -0.54299998 -1.862 7
0 0 0 0
0 0 0 0
0 0 0 0
1.515 -0.27599999 -0.99299997 2
2.99 -0.53799999 -1.867 6
3.132 -0.55699998 -1.863 6
0 0 0 0
0 0 0 0
0 0 0 0
1.529 -0.28400001 -0.99800003 2
3.003 -0.55000001 -1.867 6
3.148 -0.56999999 -1.863 7
0 0 0 0
0 0 0 0
0 0 0 0
1.55 -0.292 -1.007 2
3.0139999 -0.56199998 -1.864 6
3.1670001 -0.58399999 -1.865 7
0 0 0 0
0 0 0 0
0 0 0 0
1.5700001 -0.301 -1.0140001 2
3.0339999 -0.57499999 -1.8660001 7
3.1830001 -0.597 -1.864 7
0 0 0 0
0 0 0 0
0 0 0 0
1.591 -0.31 -1.022 3
3.0480001 -0.58700001 -1.864 7
3.211 -0.61199999 -1.869 7
1.206 -0.249 -0.89499998 10
0 0 0 0
0 0 0 0
1.745 -0.34599999 -1.114 4
3.0769999 -0.602 -1.87 7
3.2309999 -0.62599999 -1.869 7
0 0 0 0
0 0 0 0
1.467 -0.29800001 -0.97799999 2
2.0320001 -0.40799999 -1.289 4
3.089 -0.61400002 -1.865 6
3.2449999 -0.63800001 -1.865 7
0 0 0 0
0 0 0 0
1.492 -0.308 -0.98799998 3
2.9630001 -0.60399997 -1.867 5
3.109 -0.62699997 -1.864 6
3.2709999 -0.65200001 -1.8660001 7
0 0 0 0
0 0 0 0
1.515 -0.317 -0.99599999 5
2.9909999 -0.61799997 -1.8710001 6
3.138 -0.64099997 -1.868 7
3.29 -0.66500002 -1.863 7
0 0 0 0
0 0 0 0
1.529 -0.324 -0.99800003 4
3.0079999 -0.62900001 -1.867 6
3.1670001 -0.65499997 -1.8710001 7
3.3199999 -0.68000001 -1.865 7
0 0 0 0
0 0 0 0
1.55 -0.33199999 -1.0039999 3
3.0339999 -0.64200002 -1.869 6
3.1849999 -0.667 -1.8660001 7
3.3510001 -0.69499999 -1.868 8
0 0 0 0
0 0 0 0
1.62 -0.35100001 -1.041 2
3.059 -0.65499997 -1.869 6
3.2149999 -0.68099999 -1.868 7
3.3770001 -0.70899999 -1.8660001 8
0 0 0 0
0 0 0 0
0 0 0 0
3.089 -0.66799998 -1.8710001 6
3.244 -0.69499999 -1.868 7
3.4100001 -0.72399998 -1.867 8
0 0 0 0
0 0 0 0
2.967 -0.65600002 -1.873 5
3.1140001 -0.68099999 -1.869 7
3.2739999 -0.708 -1.868 7
3.444 -0.73900002 -1.869 7
0 0 0 0
0 0 0 0
2.9960001 -0.66900003 -1.874 6
3.142 -0.69400001 -1.869 7
3.3050001 -0.722 -1.868 7
3.4679999 -0.75099999 -1.864 7
0 0 0 0
1.524 -0.347 -0.99299997 5
3.023 -0.68099999 -1.872 6
3.178 -0.708 -1.8710001 7
3.339 -0.736 -1.869 8
3.5079999 -0.76700002 -1.8660001 7
0 0 0 0
1.566 -0.36000001 -1.011 2
3.0510001 -0.69300002 -1.872 6
3.2060001 -0.72000003 -1.869 7
3.375 -0.75099999 -1.87 8
3.5510001 -0.78299999 -1.869 8
0 0 0 0
0 0 0 0
3.0910001 -0.708 -1.876 7
3.2420001 -0.73400003 -1.87 7
3.4119999 -0.76599997 -1.8710001 8
3.585 -0.79799998 -1.867 7
0 0 0 0
2.964 -0.69199997 -1.874 6
3.119 -0.71899998 -1.874 7
3.277 -0.74800003 -1.87 7
3.4449999 -0.77899998 -1.869 8
3.6199999 -0.81199998 -1.865 8
0 0 0 0
2.9990001 -0.704 -1.876 7
3.1489999 -0.73100001 -1.8710001 7
3.316 -0.76200002 -1.872 7
3.4809999 -0.79299998 -1.867 8
3.668 -0.829 -1.867 8
1.523 -0.36399999 -0.991 2
3.0350001 -0.71700001 -1.877 7
3.1830001 -0.74400002 -1.87 7
3.352 -0.77600002 -1.8710001 8
3.523 -0.80800003 -1.867 8
3.7060001 -0.84299999 -1.865 8
1.642 -0.39500001 -1.057 3
3.062 -0.72799999 -1.872 7
3.224 -0.75800002 -1.872 8
3.3940001 -0.79000002 -1.872 9
3.5669999 -0.82300001 -1.868 8
3.743 -0.85699999 -1.86 8
2.9419999 -0.71100003 -1.8710001 9
3.1040001 -0.74199998 -1.875 7
3.2650001 -0.77200001 -1.873 7
3.4360001 -0.80500001 -1.872 8
3.6099999 -0.838 -1.867 8
3.793 -0.87400001 -1.8609999 8
2.9860001 -0.72600001 -1.877 6
3.1440001 -0.755 -1.877 8
3.306 -0.78500003 -1.874 8
3.4749999 -0.81800002 -1.87 8
3.6500001 -0.852 -1.864 8
3.842 -0.88999999 -1.86 9
3.0250001 -0.73799998 -1.878 6
3.1789999 -0.76700002 -1.874 8
3.348 -0.79900002 -1.874 8
3.523 -0.833 -1.8710001 8
3.7 -0.86799997 -1.865 8
3.895 -0.90700001 -1.8609999 9
3.0669999 -0.75099999 -1.8789999 7
3.223 -0.77999997 -1.876 7
3.3940001 -0.81300002 -1.874 8
3.569 -0.84799999 -1.8710001 8
3.7479999 -0.88300002 -1.864 9
3.941 -0.92199999 -1.857 9
3.1029999 -0.76200002 -1.877 7
3.2650001 -0.79299998 -1.875 8
3.4430001 -0.82800001 -1.876 8
3.612 -0.861 -1.868 8
3.799 -0.89899999 -1.863 8
4.0050001 -0.94099998 -1.8609999 9
3.1429999 -0.77399999 -1.876 7
3.312 -0.80699998 -1.877 8
3.483 -0.84100002 -1.873 8
3.668 -0.87800002 -1.8710001 8
3.852 -0.91500002 -1.862 9
4.0669999 -0.95899999 -1.862 9
3.187 -0.787 -1.877 7
3.3529999 -0.81900001 -1.874 8
3.533 -0.85500002 -1.873 8
3.714 -0.89099997 -1.867 9
3.904 -0.93000001 -1.86 9
4.1290002 -0.977 -1.862 9
3.2290001 -0.79900002 -1.875 7
3.401 -0.833 -1.874 8
3.592 -0.87099999 -1.877 8
3.7720001 -0.90700001 -1.869 8
3.97 -0.94800001 -1.864 9
4.197 -0.99599999 -1.865 9
3.277 -0.81199998 -1.876 7
3.4519999 -0.847 -1.876 9
3.638 -0.884 -1.874 8
3.823 -0.92199999 -1.8660001 8
4.0310001 -0.96499997 -1.863 10
4.2579999 -1.012 -1.862 10
3.323 -0.824 -1.875 8
3.503 -0.86000001 -1.875 9
3.6860001 -0.89700001 -1.87 9
3.881 -0.93699998 -1.8660001 9
4.0960002 -0.98199999 -1.864 9
4.3249998 -1.03 -1.8609999 9
3.3729999 -0.83700001 -1.875 8
3.5550001 -0.87400001 -1.874 9
3.744 -0.912 -1.8710001 8
3.938 -0.95200002 -1.864 9
4.1630001 -0.99900001 -1.864 9
4.3979998 -1.049 -1.862 9
3.425 -0.85000002 -1.876 8
3.608 -0.88700002 -1.874 9
3.8010001 -0.92699999 -1.87 8
4.0079999 -0.97000003 -1.867 9
4.2350001 -1.018 -1.8660001 10
4.4679999 -1.068 -1.86 9
3.47 -0.86199999 -1.872 11
3.6630001 -0.90100002 -1.873 9
3.8510001 -0.93900001 -1.865 9
4.072 -0.986 -1.8660001 9
4.2969999 -1.033 -1.862 9
4.539 -1.085 -1.858 9
3.5339999 -0.87699997 -1.877 8
3.7190001 -0.91399997 -1.8710001 9
3.915 -0.95499998 -1.865 9
4.138 -1.002 -1.8660001 10
4.3709998 -1.051 -1.862 10
4.6139998 -1.103 -1.855 10
3.586 -0.889 -1.874 8
3.777 -0.92799997 -1.87 9
3.9849999 -0.972 -1.868 10
4.2090001 -1.0190001 -1.865 9
4.448 -1.0700001 -1.862 10
4.6989999 -1.123 -1.855 10
3.652 -0.90399998 -1.877 8
3.835 -0.94099998 -1.867 9
4.052 -0.98699999 -1.867 10
4.2849998 -1.036 -1.8660001 10
4.5250001 -1.087 -1.86 9
4.7859998 -1.1440001 -1.854 10
3.7079999 -0.917 -1.875 8
3.9000001 -0.95599997 -1.867 9
4.125 -1.003 -1.868 10
4.3579998 -1.052 -1.864 10
4.6009998 -1.104 -1.857 10
4.8769999 -1.164 -1.855 9
3.7709999 -0.93000001 -1.875 8
3.9660001 -0.97000003 -1.8660001 10
4.198 -1.0190001 -1.868 10
4.4380002 -1.0700001 -1.865 10
4.6880002 -1.123 -1.857 10
4.9790001 -1.187 -1.857 10
3.823 -0.94099998 -1.869 8
4.0349998 -0.98500001 -1.8660001 10
4.2729998 -1.035 -1.867 10
4.5190001 -1.087 -1.864 10
4.777 -1.143 -1.857 10
5.0710001 -1.206 -1.854 11
3.891 -0.95499998 -1.868 8
4.1110001 -1 -1.867 10
4.3579998 -1.053 -1.87 10
4.5949998 -1.103 -1.86 10
4.8800001 -1.164 -1.86 10
5.178 -1.229 -1.8559999 10
3.9619999 -0.96899998 -1.868 9
4.1869998 -1.016 -1.867 10
4.428 -1.066 -1.864 10
4.6869998 -1.122 -1.8609999 10
4.974 -1.183 -1.859 10
5.2789998 -1.25 -1.853 11
4.0300002 -0.98199999 -1.8660001 9
4.263 -1.031 -1.8660001 10
4.506 -1.082 -1.862 10
4.7779999 -1.1390001 -1.86 10
5.0770001 -1.204 -1.859 10
5.362 -1.265 -1.8430001 10
4.1100001 -0.99699998 -1.869 10
4.3470001 -1.0470001 -1.867 10
4.599 -1.1 -1.863 10
4.8699999 -1.1569999 -1.858 10
5.1729999 -1.222 -1.855 11
5.493 -1.291 -1.847 10
4.1859999 -1.011 -1.868 9
4.427 -1.061 -1.8660001 10
4.6900001 -1.117 -1.863 10
4.9759998 -1.177 -1.86 10
5.2779999 -1.242 -1.853 11
5.6139998 -1.3150001 -1.847 11
4.2659998 -1.026 -1.869 10
4.5100002 -1.076 -1.864 10
4.7789998 -1.133 -1.8609999 11
5.072 -1.1950001 -1.857 9
5.3839998 -1.261 -1.85 10
5.7319999 -1.336 -1.8430001 11
4.3460002 -1.039 -1.867 9
4.5900002 -1.09 -1.86 10
4.881 -1.151 -1.862 11
5.1880002 -1.216 -1.86 11
5.4920001 -1.28 -1.845 11
5.881 -1.364 -1.848 11
4.4330001 -1.054 -1.867 9
4.6859999 -1.1059999 -1.86 10
4.9899998 -1.17 -1.864 11
5.2859998 -1.232 -1.854 12
5.631 -1.3049999 -1.85 11
6.006 -1.386 -1.8430001 11
4.5229998 -1.069 -1.867 10
4.7880001 -1.123 -1.862 11
5.0949998 -1.187 -1.863 11
5.4219999 -1.256 -1.86 11
5.7690001 -1.33 -1.852 11
6.1599998 -1.413 -1.845 11
4.6069999 -1.081 -1.864 9
4.882 -1.138 -1.859 11
5.1869998 -1.201 -1.8559999 10
5.5279999 -1.273 -1.854 11
5.901 -1.352 -1.85 11
6.3189998 -1.441 -1.847 10
4.6989999 -1.095 -1.862 10
4.9910002 -1.155 -1.86 10
5.303 -1.22 -1.8559999 11
5.6589999 -1.294 -1.855 11
6.052 -1.377 -1.852 11
6.467 -1.465 -1.842 10
4.7810001 -1.1059999 -1.855 10
5.0910001 -1.17 -1.857 10
5.421 -1.238 -1.855 10
5.789 -1.314 -1.853 12
6.1849999 -1.397 -1.847 11
6.632 -1.4910001 -1.841 10
4.8969998 -1.124 -1.86 10
5.2179999 -1.189 -1.862 11
5.5450001 -1.256 -1.854 10
5.928 -1.335 -1.853 10
6.3499999 -1.423 -1.849 10
6.809 -1.5190001 -1.84 11
5.0100002 -1.14 -1.862 11
5.322 -1.2029999 -1.857 10
5.6750002 -1.275 -1.854 11
6.072 -1.357 -1.851 11
6.5110002 -1.448 -1.848 11
6.9970002 -1.549 -1.841 10
5.112 -1.153 -1.858 10
5.4359999 -1.2180001 -1.853 11
5.8109999 -1.294 -1.854 10
6.217 -1.377 -1.85 11
6.6700001 -1.47 -1.844 11
7.1799998 -1.576 -1.8380001 11
5.223 -1.1670001 -1.857 10
5.5450001 -1.2309999 -1.848 12
5.961 -1.3150001 -1.8559999 11
6.369 -1.398 -1.848 11
6.848 -1.4960001 -1.844 11
7.3709998 -1.603 -1.834 11
5.3410001 -1.182 -1.8559999 11
5.6900001 -1.251 -1.852 11
6.0890002 -1.331 -1.85 11
6.5320001 -1.42 -1.847 11
7.033 -1.521 -1.842 11
7.6079998 -1.6390001 -1.839 10
5.4559999 -1.1950001 -1.853 10
5.822 -1.267 -1.85 11
6.243 -1.351 -1.85 10
6.6929998 -1.4400001 -1.8430001 11
7.2350001 -1.549 -1.8430001 9
7.8200002 -1.6670001 -1.834 10
5.592 -1.212 -1.8559999 10
5.9629998 -1.284 -1.849 12
6.3979998 -1.369 -1.848 11
6.8800001 -1.465 -1.8430001 10
7.4489999 -1.5779999 -1.844 10
8.0310001 -1.694 -1.827 10
5.7160001 -1.224 -1.852 10
6.1040001 -1.299 -1.846 11
6.5619998 -1.388 -1.846 11
7.0749998 -1.489 -1.844 11
7.638 -1.6 -1.836 10
8.2639999 -1.724 -1.822 11
5.8569999 -1.24 -1.852 11
6.2550001 -1.316 -1.844 11
6.7340002 -1.408 -1.844 11
7.2729998 -1.513 -1.8430001 10
7.8449998 -1.624 -1.83 11
8.5190001 -1.756 -1.8200001 11
5.9990001 -1.2539999 -1.851 11
6.4190001 -1.3329999 -1.844 11
6.9200001 -1.429 -1.845 11
7.4710002 -1.535 -1.839 10
8.0760002 -1.651 -1.827 11
8.7880001 -1.789 -1.816 11
6.1440001 -1.268 -1.848 10
6.5799999 -1.349 -1.841 11
7.1090002 -1.449 -1.8430001 12
7.665 -1.554 -1.832 10
8.3079996 -1.677 -1.821 11
9.0640001 -1.821 -1.8099999 12
6.3109999 -1.284 -1.851 11
6.7470002 -1.364 -1.8380001 11
7.3060002 -1.469 -1.841 11
7.888 -1.5779999 -1.829 10
8.5790005 -1.7079999 -1.821 11
9.3610001 -1.855 -1.8049999 11
6.4650002 -1.2970001 -1.847 11
6.9419999 -1.3839999 -1.84 12
7.5110002 -1.489 -1.839 10
8.1129999 -1.6 -1.824 11
8.8360004 -1.734 -1.814 11
9.6750002 -1.89 -1.8 11
6.631 -1.311 -1.846 11
7.1279998 -1.4 -1.8380001 11
7.7090001 -1.506 -1.8329999 10
8.3500004 -1.622 -1.8200001 11
9.099 -1.7589999 -1.806 11
10.014 -1.928 -1.7970001 11
6.7950001 -1.323 -1.841 11
7.3439999 -1.421 -1.841 10
7.9299998 -1.525 -1.829 11
8.6120005 -1.647 -1.817 12
9.4119997 -1.7920001 -1.804 12
10.393 -1.97 -1.795 12
6.994 -1.34 -1.844 10
7.533 -1.434 -1.834 10
8.1610003 -1.544 -1.825 11
8.875 -1.67 -1.812 11
9.7259998 -1.821 -1.799 11
10.783 -2.01 -1.79 13
7.1700001 -1.35 -1.8380001 11
7.7490001 -1.45 -1.832 11
8.3830004 -1.5599999 -1.817 10
9.1529999 -1.693 -1.806 11
10.076 -1.855 -1.796 12
11.221 -2.056 -1.789 12
7.3889999 -1.367 -1.841 10
7.9580002 -1.4630001 -1.825 11
8.6370001 -1.579 -1.813 11
9.4499998 -1.7180001 -1.801 13
10.437 -1.887 -1.791 12
11.683 -2.1029999 -1.786 11
7.5960002 -1.38 -1.839 11
8.1820002 -1.477 -1.8200001 11
8.9189997 -1.6 -1.811 11
9.7700005 -1.743 -1.7970001 11
10.841 -1.924 -1.79 13
12.18 -2.152 -1.784 11
7.7940001 -1.3890001 -1.8329999 10
8.4259996 -1.492 -1.817 11
9.2010002 -1.619 -1.806 12
10.119 -1.771 -1.795 12
11.279 -1.9630001 -1.789 13
12.697 -2.2 -1.778 11
7.9990001 -1.397 -1.825 10
8.6750002 -1.505 -1.812 11
9.5019999 -1.6390001 -1.802 13
10.488 -1.799 -1.7920001 12
11.736 -2.0020001 -1.786 12
13.241 -2.2479999 -1.772 11
8.2299995 -1.408 -1.822 11
8.9429998 -1.52 -1.808 12
9.8100004 -1.656 -1.796 11
10.877 -1.826 -1.788 13
12.228 -2.0420001 -1.783 12
13.873 -2.3050001 -1.7690001 10
8.4650002 -1.4170001 -1.817 11
9.2299995 -1.534 -1.8049999 13
10.15 -1.677 -1.793 12
11.312 -1.858 -1.7869999 13
12.707 -2.076 -1.773 12
14.54 -2.3629999 -1.7640001 11
8.7200003 -1.427 -1.814 11
9.5150003 -1.546 -1.798 13
10.524 -1.699 -1.791 12
11.761 -1.888 -1.784 12
13.258 -2.1159999 -1.768 11
15.27 -2.425 -1.7589999 11
8.9949999 -1.437 -1.812 12
9.8280001 -1.559 -1.794 12
10.909 -1.72 -1.788 13
12.247 -1.919 -1.781 12
13.894 -2.165 -1.768 10
16.031 -2.484 -1.75 9
9.2589998 -1.443 -1.804 13
10.154 -1.571 -1.789 12
11.331 -1.742 -1.786 14
12.746 -1.947 -1.775 12
14.553 -2.21 -1.762 11
16.872 -2.5480001 -1.74 10
9.5600004 -1.451 -1.802 12
10.527 -1.586 -1.7869999 14
11.786 -1.7640001 -1.784 13
13.298 -1.978 -1.771 11
15.283 -2.26 -1.7589999 11
17.757999 -2.6110001 -1.726 11
9.8730001 -1.4579999 -1.7970001 13
10.915 -1.6 -1.785 13
12.242 -1.7819999 -1.777 13
13.904 -2.0109999 -1.767 10
16.027 -2.3039999 -1.749 9
18.74 -2.6789999 -1.712 13
10.189 -1.462 -1.791 12
11.323 -1.613 -1.7819999 14
12.739 -1.802 -1.773 13
14.526 -2.0409999 -1.76 11
16.84 -2.352 -1.739 10
19.780001 -2.7460001 -1.693 14
10.547 -1.469 -1.789 13
11.761 -1.626 -1.779 14
13.288 -1.823 -1.77 12
15.209 -2.073 -1.7539999 11
17.739 -2.402 -1.73 11
20.950001 -2.8199999 -1.673 16
10.926 -1.475 -1.7869999 13
12.217 -1.637 -1.776 12
13.865 -1.8430001 -1.766 11
15.952 -2.1059999 -1.747 9
18.632999 -2.444 -1.711 13
22.302999 -2.9059999 -1.656 18
11.336 -1.4809999 -1.786 13
12.692 -1.6440001 -1.77 12
14.475 -1.8609999 -1.7589999 12
16.771 -2.1400001 -1.7410001 10
19.698 -2.497 -1.698 14
23.874001 -3.0050001 -1.6390001 20
11.772 -1.485 -1.784 13
13.224 -1.654 -1.767 12
15.165 -1.882 -1.757 11
17.594 -2.1670001 -1.727 11
20.791 -2.5420001 -1.676 16
25.527 -3.099 -1.613 16
12.211 -1.485 -1.78 12
13.788 -1.6619999 -1.7640001 11
15.889 -1.9 -1.75 9
18.516001 -2.1960001 -1.714 12
22.059 -2.596 -1.656 18
27.229 -3.181 -1.572 10
12.674 -1.482 -1.774 12
14.382 -1.6670001 -1.758 13
16.655001 -1.914 -1.742 10
19.487 -2.221 -1.697 14
23.507999 -2.6589999 -1.6390001 20
29.316999 -3.2909999 -1.5369999 8
13.185 -1.4809999 -1.772 12
15.01 -1.67 -1.751 11
17.448 -1.924 -1.73 11
20.472 -2.2379999 -1.673 15
25.153 -2.727 -1.6210001 17
31.457001 -3.3840001 -1.485 6
13.719 -1.475 -1.768 12
15.685 -1.671 -1.745 10
18.299 -1.931 -1.717 12
21.746 -2.2750001 -1.663 17
26.801001 -2.78 -1.5880001 10
33.926998 -3.49 -1.428 5
14.277 -1.467 -1.762 12
16.424 -1.671 -1.74 10
19.153999 -1.9299999 -1.696 13
22.993 -2.296 -1.64 18
28.711 -2.8410001 -1.5549999 8
36.499001 -3.5799999 -1.353 4
14.872 -1.456 -1.756 12
17.163 -1.6619999 -1.728 11
20.188999 -1.9349999 -1.683 15
24.871 -2.3610001 -1.646 22
30.705999 -2.8870001 -1.507 6
39.821999 -3.7090001 -1.276 1
15.558 -1.4450001 -1.755 11
17.943001 -1.649 -1.7130001 12
21.205 -1.927 -1.659 17
26.157 -2.352 -1.598 11
26.283001 -2.339 -1.158 2
42.537998 -3.7479999 -1.152 1
16.228001 -1.425 -1.7460001 10
18.82 -1.6339999 -1.7 13
22.341999 -1.9170001 -1.635 15
25.924999 -2.1989999 -1.454 26
24.704 -2.073 -0.96600002 75
50.972 -4.2329998 -1.1339999 2
16.962 -1.403 -1.739 10
19.688 -1.608 -1.6799999 14
23.743 -1.916 -1.6210001 8
23.907 -1.9069999 -1.225 62
26.115999 -2.0580001 -0.89600003 34
51.152 -3.984 -0.89300001 8
17.702999 -1.372 -1.726 11
20.642 -1.579 -1.659 16
24.018999 -1.813 -1.522 22
23.198 -1.729 -1.0779999 63
27.948 -2.0569999 -0.82800001 33
56.592999 -4.1149998 -0.72500002 20
18.493 -1.335 -1.712 13
21.76 -1.549 -1.6440001 17
23.273001 -1.6339999 -1.364 63
23.253 -1.61 -0.97100002 71
29.389999 -2.0090001 -0.73400003 20
54.161999 -3.651 -0.44499999 2
19.290001 -1.291 -1.693 14
22.690001 -1.4960001 -1.607 27
22.917999 -1.488 -1.237 61
24.306 -1.5549999 -0.90399998 34
31.32 -1.974 -0.63999999 1
59.389999 -3.688 -0.223 61
20.165001 -1.2410001 -1.675 15
22.877001 -1.3839999 -1.5140001 12
22.948 -1.3660001 -1.1339999 57
25.9 -1.516 -0.84500003 150
26.514999 -1.526 -0.42199999 32
24.871 -1.408 0.017000001 1
21.155001 -1.1849999 -1.659 16
23.205999 -1.277 -1.431 51
22.948 -1.24 -1.03 72
24.358999 -1.2920001 -0.68699998 5
24.322001 -1.268 -0.28200001 72
30.214001 -1.546 0.15000001 39
22.181 -1.122 -1.641 18
23.048 -1.142 -1.319 71
23.332001 -1.133 -0.94700003 74
25.957001 -1.234 -0.62099999 50
24.250999 -1.13 -0.177 0
30.863001 -1.409 0.28400001 13
22.917 -1.031 -1.594 14
23.049 -1.013 -1.219 67
24.101 -1.035 -0.87400001 29
24.408001 -1.023 -0.47999999 48
31.542999 -1.2920001 -0.097999997 2
31.677 -1.267 0.42300001 1
23.173 -0.91100001 -1.512 39
23.125 -0.88499999 -1.124 77
25.479 -0.94999999 -0.81699997 150
30.796 -1.118 -0.479 13
31.993999 -1.1289999 0.029999999 67
66.003998 -2.266 1.149 6
23.245001 -0.77999997 -1.418 64
23.15 -0.75300002 -1.029 79
27.749001 -0.875 -0.77499998 27
54.25 -1.6569999 -0.62199998 2
61.112 -1.808 0.30199999 3
97.003998 -2.7750001 2.072 18
23.195 -0.64399999 -1.3200001 74
23.371 -0.62599999 -0.94499999 72
30.459 -0.78399998 -0.73000002 47
31.679001 -0.78399998 -0.23800001 2
85.759003 -2.0380001 0.75999999 7
66.177002 -1.507 1.671 46
23.224001 -0.509 -1.228 69
24.034 -0.50099999 -0.875 63
32.276001 -0.64200002 -0.64700001 38
33.647999 -0.63499999 -0.123 38
33.762001 -0.60299999 0.428 3
66.372002 -1.123 1.925 14
23.256001 -0.373 -1.1390001 80
24.757999 -0.37200001 -0.80800003 17
33.535999 -0.47 -0.546 40
34.105 -0.44400001 0.001 47
0 0 0 0
94.378998 -1.0420001 3.082 47
23.277 -0.234 -1.052 77
0 0 0 0
34.276001 -0.27599999 -0.43200001 19
67.146004 -0.47600001 0.24600001 8
81.821999 -0.498 1.632 11
94.334999 -0.47799999 3.4170001 43
23.365999 -0.096000001 -0.97100002 74
28.143999 -0.086999997 -0.71200001 6
34.693001 -0.071999997 -0.31299999 4
34.943001 -0.039000001 0.25099999 16
81.793999 -0.0049999999 1.919 39
94.349998 0.090000004 3.7460001 33
23.73 0.045000002 -0.90100002 78
28.837999 0.083999999 -0.62699997 0
35.188 0.139 -0.19499999 44
35.317001 0.17399999 0.37599999 44
34.882 0.208 0.93699998 9
35.178001 0.245 1.5140001 2
24.25 0.19499999 -0.83700001 74
33.870998 0.30500001 -0.62099999 82
34.889999 0.352 -0.075000003 68
70.640999 0.78600001 0.99000001 18
94.862999 1.153 2.8640001 19
61.459 0.80800003 2.848 9
25.931 0.36899999 -0.80800003 28
34.554001 0.52700001 -0.51800001 25
64.612 1.049 0.071000002 5
89.700996 1.549 1.5470001 16
0 0 0 0
60.859001 1.181 3.016 62
27.323 0.55900002 -0.76200002 56
35.956001 0.77200001 -0.42300001 19
36.408001 0.82099998 0.15700001 11
96.164001 2.2650001 1.964 12
61.966999 1.522 2.2620001 29
60.990002 1.562 3.21 48
27.870001 0.74599999 -0.68800002 28
36.589001 1.018 -0.31600001 47
36.790001 1.061 0.27200001 39
79.630997 2.3770001 1.869 6
61.396 1.898 2.428 51
60.776001 1.941 3.3800001 60
0 0 0 0
56.416 1.925 -0.31900001 14
83.594002 2.9389999 0.86699998 14
77.737999 2.812 2.052 25
56.324001 2.0940001 2.3900001 19
61.442001 2.3529999 3.595 35
31.040001 1.226 -0.58099997 5
37.344002 1.513 -0.102 8
37.377998 1.553 0.495 30
56.234001 2.3940001 1.6440001 6
56.209999 2.4530001 2.5450001 31
56.226002 2.5139999 3.447 29
34.306 1.5779999 -0.54400003 4
37.633999 1.768 0.0020000001 62
37.675999 1.809 0.60299999 14
62.118999 3.0450001 1.987 24
62.153999 3.1110001 2.9820001 52
61.897999 3.1659999 3.961 28
0 0 0 0
37.924 2.026 0.103 32
0 0 0 0
62.120998 3.447 2.1500001 3
62.243 3.5179999 3.148 40
62.202 3.5840001 4.1409998 7
38.229 2.2520001 -0.40400001 3
65.848 3.944 0.34799999 29
66.147003 4.0310001 1.402 57
62.705002 3.885 2.3269999 10
62.089001 3.914 3.296 27
62.574001 4.0139999 4.3210001 4
38.502998 2.5209999 -0.31 82
38.617001 2.5680001 0.30000001 25
0 0 0 0
66.139 4.5349998 2.6159999 18
61.555 4.2870002 3.4159999 7
78.084999 5.5229998 5.5780001 36
38.796001 2.7969999 -0.22 40
38.887001 2.8440001 0.39500001 29
78.035004 5.783 2.0280001 27
78.333 5.888 3.2809999 58
