# .PCD v0.7 - Point Cloud Data file format
VERSION 0.7
FIELDS x y z intensity
SIZE 4 4 4 4
TYPE F F F F
COUNT 1 1 1 1
WIDTH 1831
HEIGHT 1
VIEWPOINT 0 0 0 1 0 0 0
POINTS 1831
DATA ascii
10.48 -1.41 -1.793 12
11.69 -1.569 -1.784 12
7.6599998 -1.026 -1.841 11
8.2519999 -1.1 -1.823 11
8.9820004 -1.193 -1.813 12
9.8409996 -1.303 -1.8 13
10.891 -1.438 -1.79 13
12.21 -1.608 -1.7819999 12
7.862 -1.033 -1.8329999 10
8.5019999 -1.112 -1.819 11
9.2790003 -1.209 -1.808 12
10.194 -1.324 -1.795 13
11.334 -1.467 -1.785 13
12.764 -1.648 -1.778 12
8.1020002 -1.0420001 -1.831 11
8.7819996 -1.125 -1.816 12
9.5930004 -1.224 -1.803 13
10.577 -1.345 -1.79 13
11.838 -1.5 -1.785 12
13.384 -1.691 -1.774 12
8.3400002 -1.05 -1.825 11
9.0670004 -1.136 -1.812 12
9.9370003 -1.24 -1.799 13
10.998 -1.367 -1.7869999 12
12.351 -1.531 -1.78 12
14.025 -1.733 -1.768 12
8.5959997 -1.058 -1.821 11
9.3669996 -1.147 -1.807 13
10.291 -1.255 -1.793 13
11.433 -1.3890001 -1.781 13
12.907 -1.562 -1.775 12
14.765 -1.781 -1.765 12
8.8629999 -1.064 -1.8150001 12
9.6800003 -1.1569999 -1.801 12
10.688 -1.272 -1.791 13
11.964 -1.418 -1.785 13
13.539 -1.598 -1.774 11
15.526 -1.827 -1.756 11
9.1630001 -1.072 -1.813 12
10.009 -1.166 -1.794 13
11.11 -1.288 -1.7869999 16
12.481 -1.4400001 -1.779 12
14.207 -1.633 -1.7690001 11
16.426001 -1.882 -1.752 10
9.4569998 -1.0779999 -1.807 12
10.367 -1.175 -1.789 12
11.568 -1.304 -1.784 13
13.043 -1.464 -1.774 11
14.91 -1.6670001 -1.76 12
17.375 -1.9349999 -1.742 11
9.7959995 -1.084 -1.8049999 13
10.761 -1.184 -1.784 13
12.066 -1.321 -1.781 13
13.681 -1.4910001 -1.772 11
15.711 -1.704 -1.7539999 9
18.417 -1.99 -1.7309999 12
10.115 -1.086 -1.796 12
11.189 -1.1950001 -1.7819999 13
12.59 -1.337 -1.777 12
14.351 -1.517 -1.7690001 12
16.627001 -1.749 -1.752 12
19.471001 -2.039 -1.709 14
10.48 -1.09 -1.7920001 13
11.638 -1.2029999 -1.778 14
13.174 -1.354 -1.775 12
15.069 -1.54 -1.761 12
17.575001 -1.788 -1.743 11
20.648001 -2.0899999 -1.684 16
10.867 -1.092 -1.7869999 13
12.152 -1.214 -1.779 13
13.777 -1.368 -1.7690001 11
15.841 -1.563 -1.752 9
18.570999 -1.823 -1.726 12
21.995001 -2.1489999 -1.66 17
11.306 -1.096 -1.786 14
12.663 -1.22 -1.773 12
14.449 -1.383 -1.765 12
16.737 -1.592 -1.748 10
19.631001 -1.857 -1.706 14
23.671 -2.227 -1.6440001 20
11.748 -1.096 -1.781 13
13.248 -1.227 -1.771 11
15.15 -1.3940001 -1.756 12
17.701 -1.618 -1.74 11
20.785999 -1.8890001 -1.6799999 16
24.200001 -2.1860001 -1.536 22
12.264 -1.098 -1.7819999 12
13.861 -1.232 -1.767 12
15.927 -1.406 -1.75 9
18.634001 -1.6339999 -1.72 13
22.124001 -1.927 -1.658 18
23.916 -2.069 -1.377 62
12.759 -1.094 -1.775 12
14.486 -1.232 -1.7589999 13
16.816999 -1.42 -1.7460001 10
19.700001 -1.651 -1.701 14
23.34 -1.943 -1.6109999 27
23.531 -1.9450001 -1.219 71
13.333 -1.091 -1.774 11
15.175 -1.232 -1.752 12
17.75 -1.4299999 -1.738 11
20.841 -1.665 -1.678 16
23.819 -1.888 -1.506 29
23.635 -1.86 -1.089 38
13.932 -1.085 -1.7690001 12
15.956 -1.2309999 -1.7460001 9
18.694 -1.4299999 -1.72 13
22.236 -1.687 -1.661 18
23.540001 -1.771 -1.353 14
23.796 -1.776 -0.95999998 46
14.577 -1.076 -1.7640001 13
16.846001 -1.2309999 -1.744 10
19.690001 -1.426 -1.698 14
23.409 -1.679 -1.614 17
23.573 -1.676 -1.221 71
25.231001 -1.779 -0.87699997 65
15.263 -1.063 -1.757 12
17.743 -1.223 -1.734 11
20.851999 -1.423 -1.678 16
23.736 -1.604 -1.503 44
23.583 -1.5779999 -1.09 76
28.752001 -1.906 -0.84100002 74
15.995 -1.046 -1.749 9
18.659 -1.206 -1.717 13
22.167999 -1.4170001 -1.658 18
23.708 -1.5 -1.368 66
23.867001 -1.494 -0.97100002 74
26.377001 -1.6339999 -0.62599999 132
16.891001 -1.031 -1.749 10
19.621 -1.183 -1.694 14
23.451 -1.398 -1.624 19
23.715 -1.396 -1.237 68
24.896999 -1.449 -0.87699997 24
25.000999 -1.438 -0.458 14
17.750999 -1.006 -1.739 11
20.695999 -1.1569999 -1.6720001 16
23.820999 -1.314 -1.518 37
23.757 -1.293 -1.1109999 79
25.323999 -1.3609999 -0.755 68
31.573 -1.675 -0.41 9
18.625999 -0.97100002 -1.72 12
22.013 -1.131 -1.6569999 17
23.868 -1.2079999 -1.391 67
23.917999 -1.193 -0.98900002 67
28.514999 -1.402 -0.699 1
32.779999 -1.59 -0.25400001 22
19.547001 -0.93000001 -1.698 14
23.333 -1.092 -1.631 19
23.778999 -1.095 -1.2589999 82
24.593 -1.114 -0.889 44
0 0 0 0
63.377998 -2.779 -0.163 23
20.584999 -0.884 -1.678 16
23.846001 -1.005 -1.54 27
23.829 -0.986 -1.138 75
28.379999 -1.153 -0.87800002 46
32.599998 -1.299 -0.46200001 14
66.903 -2.618 0.16599999 12
21.839001 -0.83499998 -1.665 17
24.042999 -0.89899999 -1.427 63
23.879999 -0.87400001 -1.016 82
30.938 -1.107 -0.796 77
34.348999 -1.2029999 -0.31099999 23
34.509998 -1.182 0.26100001 5
23.184999 -0.77200001 -1.6440001 19
24.058001 -0.78200001 -1.302 65
24.552 -0.77899998 -0.91799998 85
0 0 0 0
34.702999 -1.045 -0.14 42
34.908001 -1.025 0.43700001 14
23.886 -0.68000001 -1.572 17
23.940001 -0.662 -1.176 74
25.934999 -0.69599998 -0.84200001 15
34.793999 -0.90600002 -0.55000001 42
34.926998 -0.88099998 0.027000001 2
95.275002 -2.326 1.655 29
24.153999 -0.56900001 -1.47 48
23.983999 -0.54400003 -1.059 81
31.132 -0.68099999 -0.85799998 40
34.182999 -0.71799999 -0.37400001 2
70.436996 -1.425 0.39300001 42
82.178001 -1.594 1.818 42
24.239 -0.449 -1.3559999 65
24.098 -0.426 -0.94800001 70
29.306 -0.49399999 -0.667 1
35.727001 -0.57099998 -0.222 60
35.806999 -0.542 0.368 22
35.374001 -0.505 0.94800001 8
19.655001 -0.26300001 -1.0039999 29
24.827999 -0.31200001 -0.85799998 25
34.294998 -0.40200001 -0.61900002 43
35.973999 -0.391 -0.055 40
35.500999 -0.35299999 0.53100002 124
35.901001 -0.32600001 1.128 2
19.525 -0.16 -0.90399998 33
0 0 0 0
35.506001 -0.227 -0.472 14
70.282997 -0.38800001 0.221 24
82.003998 -0.38 1.607 20
112.719 -0.42500001 4.0580001 22
19.527 -0.056000002 -0.81199998 0
28.659 -0.057 -0.72100002 31
36.073002 -0.041000001 -0.31600001 3
36.852001 -0.0080000004 0.28200001 19
114.586 0.079999998 2.76 50
62.407001 0.1 2.527 24
24.469999 0.059 -0.90600002 90
30.032 0.1 -0.62 0
37.028999 0.15700001 -0.15800001 17
37.137001 0.191 0.449 29
62.138 0.375 1.767 7
62.276001 0.43399999 2.79 39
25.667999 0.2 -0.83700001 55
35.449001 0.30899999 -0.57599998 46
37.393002 0.361 0.0020000001 49
90.410004 0.95700002 1.484 8
62.429001 0.72000003 2.0450001 29
61.455002 0.76700002 3.017 43
27.247 0.36300001 -0.76800001 54
36.612999 0.52200001 -0.435 1
83.919998 1.274 0.36700001 7
78.552002 1.267 1.625 4
61.832001 1.057 2.2869999 53
62.139999 1.12 3.3099999 57
28.693001 0.54100001 -0.68599999 34
37.353001 0.741 -0.285 1
37.881001 0.78799999 0.32600001 1
56.917 1.239 1.416 65
56.881001 1.294 2.3410001 62
56.875 1.348 3.266 32
0 0 0 0
38.16 0.97299999 -0.132 44
38.237999 1.011 0.486 21
62.416 1.709 1.8049999 25
62.308998 1.771 2.816 42
56.959999 1.676 3.5 16
0 0 0 0
38.460999 1.2 0.021 50
79.606003 2.562 1.3329999 14
62.771999 2.0829999 2.0680001 13
62.965 2.151 3.0940001 44
62.793999 2.2090001 4.105 6
38.66 1.392 -0.44800001 26
38.618999 1.428 0.175 1
77.302002 2.9389999 1.6 7
62.584 2.441 2.306 19
62.977001 2.5209999 3.3399999 58
65.597 2.6949999 4.5419998 19
38.373001 1.6059999 -0.29499999 1
66.824997 2.8640001 0.56099999 111
66.940002 2.934 1.64 3
63.085999 2.832 2.5650001 9
63.096001 2.8989999 3.586 14
65.541 3.0810001 4.7849998 23
39.266998 1.876 -0.152 26
39.355999 1.92 0.479 47
0 0 0 0
67.330002 3.4260001 2.99 25
65.850998 3.421 3.987 7
67.920998 3.5999999 5.2090001 4
39.533001 2.1270001 -0.0049999999 44
39.651001 2.1719999 0.62900001 17
78.278 4.3660002 2.497 40
77.328003 4.395 3.711 16
67.203003 3.8929999 4.3080001 35
67.620003 3.9890001 5.4250002 42
39.743999 2.375 0.13600001 4
109.175 6.638 2.1210001 8
78.752998 4.8709998 2.7920001 27
89.408997 5.6230001 4.605 10
88.717003 5.678 5.9970002 8
0 0 0 0
47.247002 3.1129999 0.329 12
83.879997 5.6139998 1.923 35
78.369003 5.3249998 3.049 40
90.237 6.2309999 4.9580002 15
91.087997 6.3920002 6.4689999 21
62.985001 4.4920001 5.4879999 5
40.395 2.9130001 0.41999999 49
93.167 6.809 2.45 28
78.734001 5.842 3.3299999 8
89.636002 6.75 5.2270002 20
0 0 0 0
63.014999 4.888 5.6999998 21
40.645 3.1830001 0.55699998 18
93.207001 7.395 2.7579999 24
92.262001 7.421 4.2020001 21
90.031998 7.3390002 5.539 17
0 0 0 0
55.061001 4.6170001 5.1560001 24
0 0 0 0
75.425003 6.46 2.474 30
0 0 0 0
0 0 0 0
0 0 0 0
59.522999 5.369 5.7600002 27
75.869003 6.901 1.5190001 13
75.114998 6.9099998 2.6949999 29
0 0 0 0
0 0 0 0
59.678001 5.6939998 4.9970002 4
59.734001 5.77 5.96 19
75.029999 7.303 1.729 11
74.734001 7.3559999 2.9059999 36
0 0 0 0
59.583 5.9990001 4.2119999 22
59.442001 6.0560002 5.1529999 52
56.312 5.8060002 5.7849998 26
0 0 0 0
59.937 6.2839999 2.5020001 2
59.877998 6.3460002 3.45 39
60.195 6.4510002 4.427 6
59.957001 6.5009999 5.3699999 16
54.973999 6.0300002 5.8049998 14
59.789001 6.5960002 1.72 45
76.003998 8.467 3.3859999 29
110.934 12.486 6.7010002 9
58.976002 6.7080002 4.5009999 40
59.423 6.8330002 5.4840002 25
54.610001 6.3470001 5.915 48
75.333 8.8030005 2.369 32
0 0 0 0
119.419 14.232 7.5359998 29
0 0 0 0
55.132 6.704 5.2350001 4
55.671001 6.842 6.1789999 48
118.438 14.634 4.0370002 23
118.852 14.819 5.9250002 32
118.532 14.913 7.7839999 28
0 0 0 0
54.997002 7.0539999 5.362 21
58.139999 7.5349998 6.5999999 13
120.424 15.678 4.4029999 11
116.872 15.349 6.1139998 29
118.931 15.764 8.1070004 32
119.943 16.047001 10.081 15
55.293999 7.4689999 5.5289998 36
57.087002 7.7880001 6.6230001 27
116.819 16.01 4.5570002 35
117.134 16.191999 6.4159999 44
117.811 16.421 8.3149996 30
119.689 16.832001 10.347 19
56.909 8.0780001 5.8270001 24
56.868 8.1490002 6.7340002 25
61.34 8.8249998 2.5350001 31
61.201 8.8760004 3.4909999 45
61.161999 8.9440002 4.4549999 68
60.895 8.9790001 5.402 78
56.980999 8.474 5.9619999 5
58.037998 8.7119999 7.0029998 2
60.619999 9.1350002 2.6389999 38
60.464001 9.1820002 3.582 36
118.33 18.108 8.8789997 19
119.187 18.392 10.834 25
65.144997 10.139 6.96 36
58.039001 9.1149998 7.1300001 4
118.158 18.620001 5.3889999 26
117.272 18.612 7.191 53
118.074 18.884001 9.1029997 31
0 0 0 0
63.083 10.256 6.869 11
57.736 9.4700003 7.2140002 15
119.159 19.615 5.6750002 35
119.438 19.796 7.5630002 46
124.042 20.712 9.8120003 16
64.292 10.816 6.105 8
60.046001 10.183 6.6589999 11
57.646999 9.8599997 7.316 24
119.221 20.452999 5.901 33
119.364 20.618 7.7820001 29
119.766 20.841 9.7019997 28
62.949001 11.037 6.0970001 9
64.508003 11.399 7.276 27
55.967999 9.9709997 7.21 2
118.877 21.246 6.099 28
118.25 21.275 7.9229999 26
119.856 21.712 9.9250002 34
62.964001 11.489 6.2119999 24
61.004002 11.214 6.9910002 25
57.401001 10.639 7.4980001 51
118.468 22.017 6.2789998 33
117.732 22.02 8.0880003 29
63.132 11.887 5.3330002 8
61.205002 11.606 6.1409998 20
60.846001 11.626 7.0770001 19
57.967999 11.16 7.671 15
62.685001 12.102 3.4230001 5
62.331001 12.105 4.381 16
0 0 0 0
64.482002 12.691 6.572 13
63.612999 12.608 7.4980001 37
58.639 11.71 7.8520002 49
61.712002 12.357 3.4590001 10
62.537998 12.599 4.4889998 19
0 0 0 0
60.568001 12.362 6.2639999 23
59.629002 12.256 7.119 15
58.650002 12.141 7.9429998 30
0 0 0 0
61.255001 12.783 4.48 9
62.230999 13.069 5.5359998 16
60.306999 12.747 6.322 22
58.282001 12.401 7.04 46
58.102001 12.452 7.9510002 65
0 0 0 0
190.21899 41.084999 14.157 28
60.643002 13.176 5.4699998 46
58.335999 12.755 6.1890001 7
58.127998 12.795 7.0949998 41
58.358002 12.933 8.0609999 46
123.646 27.469999 7.4060001 30
126.84 28.333 9.5889997 12
60.634998 13.623 5.5419998 13
60.063 13.577 6.4439998 43
58.166 13.235 7.1700001 45
58.863998 13.483 8.2019997 39
122.56 28.134001 7.4679999 31
68.389 15.784 5.244 12
59.223 13.746 5.4770002 24
59.442001 13.879 6.4419999 9
58.337002 13.705 7.2550001 33
0 0 0 0
0 0 0 0
67.949997 16.188 5.2740002 5
59.895 14.344 5.5960002 24
59.408001 14.313 6.4970002 18
58.214001 14.112 7.2989998 42
58.710999 14.326 8.3059998 15
122.507 29.955999 7.6880002 11
0 0 0 0
59.858002 14.784 5.645 18
61.376999 15.246 6.7649999 25
58.402 14.597 7.375 49
58.571999 14.731 8.3409996 28
121.886 30.716 7.7410002 39
68.249001 17.282 5.408 20
59.550999 15.158 5.6620002 64
0 0 0 0
58.606998 15.086 7.4460001 37
69.766998 18.075001 9.9919996 30
121.423 31.518 7.79 29
80.624001 21.025999 6.4419999 14
68.393997 17.926001 6.5489998 34
59.448002 15.663 6.6409998 46
69.07 18.304001 8.8240004 18
68.481003 18.261999 9.8570004 31
70.012001 18.705999 4.5289998 30
68.823997 18.471001 5.5370002 3
59.528 16.055 5.7340002 6
59.879002 16.232 6.724 58
69.174004 18.854 8.8789997 29
68.786003 18.863001 9.941 31
73.792 20.268 4.8039999 20
73.581001 20.299 5.9510002 40
66.585999 18.457001 6.4429998 31
59.73 16.639 6.7350001 22
69.321999 19.419001 8.9309998 34
70.212997 19.784 10.185 19
68.582001 19.358999 4.4879999 9
66.846001 18.950001 5.4310002 4
66.842003 19.037001 6.493 36
65.753998 18.820999 7.4390001 33
69.675003 20.052 9.0039997 7
70.492996 20.402 10.253 41
101.791 29.507 6.6820002 9
65.932999 19.194 5.3730001 44
66.652 19.490999 6.4920001 41
66.036003 19.41 7.4889998 35
72.640999 21.461 9.4099998 11
71.151001 21.141001 10.371 30
69.093002 20.561001 4.5430002 3
74.972 22.400999 6.1170001 13
0 0 0 0
65.884003 19.864 7.4829998 32
74.722 22.648001 9.6949997 18
71.101997 21.672001 10.381 33
82.872002 25.299 5.4520001 7
86.071999 26.379 7.027 22
65.663002 20.209999 6.408 33
65.106003 20.132999 7.3990002 41
74.977997 23.299999 9.7340002 16
71.519997 22.347 10.449 27
100.577 31.485001 6.6079998 29
82.648003 25.969999 6.7420001 24
67.022003 21.145 6.539 20
65.699997 20.823 7.4660001 28
73.358002 23.362 9.5249996 27
71.125 22.771999 10.394 29
101.425 32.525002 6.6430001 8
68.444 22.028999 5.5710001 38
68.799004 22.23 6.7010002 21
67.237 21.822001 7.632 23
73.082001 23.834999 9.4799995 29
78.144997 25.624001 11.415 14
104.559 34.346001 6.8169999 9
109.181 35.986 8.8579998 32
68.995003 22.830999 6.7030001 37
72.768997 24.184999 8.243 23
72.845001 24.325001 9.4350004 20
0 0 0 0
0 0 0 0
0 0 0 0
74.018997 25.063999 7.1630001 6
74.047997 25.183001 8.3660002 8
72.539001 24.785 9.3739996 12
0 0 0 0
0 0 0 0
0 0 0 0
82.025002 28.416 7.901 30
0 0 0 0
72.128998 25.202999 9.2910004 38
0 0 0 0
196.67101 69.195 12.522 25
0 0 0 0
81.806 28.972 7.8379998 24
0 0 0 0
0 0 0 0
0 0 0 0
28.606001 10.286 1.8 6
0 0 0 0
0 0 0 0
0 0 0 0
0 0 0 0
0 0 0 0
27.85 10.231 1.7309999 37
0 0 0 0
0 0 0 0
0 0 0 0
0 0 0 0
0 0 0 0
27.112 10.17 1.659 43
141.51601 53.242001 10.941 23
0 0 0 0
0 0 0 0
0 0 0 0
0 0 0 0
26.700001 10.225 1.608 45
27.757 10.658 2.1199999 25
0 0 0 0
0 0 0 0
0 0 0 0
0 0 0 0
26.362 10.299 1.558 46
27.253 10.676 2.0510001 32
0 0 0 0
0 0 0 0
0 0 0 0
0 0 0 0
26.076 10.394 1.5089999 48
26.740999 10.687 1.98 45
0 0 0 0
0 0 0 0
0 0 0 0
0 0 0 0
25.854 10.507 1.462 49
26.391001 10.753 1.921 45
102.416 41.852001 9.1289997 25
0 0 0 0
0 0 0 0
0 0 0 0
25.622999 10.613 1.413 49
26.135 10.85 1.868 46
27.408001 11.411 2.4070001 2
0 0 0 0
0 0 0 0
0 0 0 0
25.409 10.723 1.362 50
25.868 10.941 1.809 45
26.874001 11.398 2.3199999 20
105.97 45.092999 10.905 17
194.14101 82.903999 23.208 33
0 0 0 0
25.235001 10.845 1.313 47
25.653 11.049 1.7539999 45
26.511 11.449 2.2490001 30
101.457 43.952999 10.287 24
0 0 0 0
0 0 0 0
25.055 10.964 1.261 52
25.416 11.145 1.696 51
26.200001 11.519 2.1800001 37
79.047997 34.854 7.8909998 20
190.106 84.113998 22.149 32
0 0 0 0
24.903 11.09 1.207 50
14.897 6.6479998 0.96700001 56
25.889 11.583 2.109 42
78.485001 35.213001 7.7020001 29
81.319 36.608002 9.3400002 22
0 0 0 0
14.808 6.71 0.68900001 56
14.782 6.711 0.93199998 70
14.736 6.7069998 1.174 65
0 0 0 0
75.940002 34.766998 8.592 14
78.893997 36.250999 10.258 12
14.712 6.7789998 0.65600002 66
14.681 6.777 0.89700001 86
14.645 6.7750001 1.1390001 82
26.393 12.244 2.494 0
74.985001 34.896999 8.3450003 25
75.181999 35.118 9.6370001 24
14.628 6.8520002 0.62199998 69
14.572 6.8379998 0.861 62
14.557 6.8449998 1.103 62
14.529 6.8499999 1.345 4
72.265999 34.18 7.9060001 11
74.230003 35.235001 9.3769999 30
14.512 6.9089999 0.58499998 55
14.493 6.9109998 0.82499999 76
14.47 6.914 1.066 77
14.46 6.9260001 1.308 7
71.565002 34.384998 7.684 30
73.878998 35.624001 9.1890001 21
14.44 6.9850001 0.55000001 6
14.409 6.9809999 0.78899997 70
14.383 6.9809999 1.028 77
14.381 6.9970002 1.271 0
71.151001 34.719002 7.4920001 22
74.706001 36.577999 9.1370001 19
17.112 8.4060001 0.611 38
14.319 7.0440001 0.75 41
14.315 7.0560002 0.991 72
25.448 12.573 2.1919999 36
70.957001 35.155998 7.316 21
73.693001 36.630001 8.8570004 14
16.915001 8.4370003 0.56199998 37
17.346001 8.6630001 0.86799997 40
24.59 12.303 1.6440001 50
25.188999 12.63 2.1110001 43
0 0 0 0
71.128998 35.883999 8.3900003 26
16.738001 8.4750004 0.514 40
17.117001 8.6759996 0.81400001 42
24.485001 12.432 1.5779999 51
24.98 12.711 2.033 42
71.227997 36.341 7.013 24
71.040001 36.360001 8.217 6
16.722 8.5900002 0.47099999 41
17.011 8.7480001 0.76599997 39
24.362 12.548 1.5089999 46
24.843 12.823 1.961 46
70.897003 36.685001 6.8119998 26
72.864998 37.82 8.2510004 20
16.778999 8.743 0.426 28
17.004999 8.8690004 0.72000003 31
17.358 9.066 1.029 16
24.688 12.921 1.885 48
25.990999 13.638 2.431 8
75.387001 39.671001 8.3520002 16
16.601 8.7709999 0.375 30
16.790001 8.8780003 0.66500002 39
17.355 9.1899996 0.98299998 27
24.566 13.032 1.812 47
25.591 13.608 2.3269999 28
73.028999 38.948002 7.902 27
16.452999 8.8109999 0.324 39
16.729 8.9659996 0.61500001 37
17.174999 9.217 0.92400002 35
24.455 13.148 1.737 47
25.413 13.693 2.244 30
72.702003 39.289001 7.6729999 19
16.320999 8.8579998 0.27399999 46
16.594 9.0120001 0.56099999 39
17.087 9.29 0.87099999 38
24.363001 13.269 1.6619999 47
25.169001 13.739 2.152 30
82.150002 44.966999 8.4490004 27
16.288 8.9560003 0.22400001 40
16.527 9.092 0.50999999 39
16.833 9.2700005 0.81 42
24.254999 13.379 1.585 46
24.938999 13.785 2.0610001 35
77.882004 43.16 7.7930002 20
16.207001 9.0240002 0.17200001 40
16.447001 9.1610003 0.458 40
16.757 9.3430004 0.755 42
24.27 13.552 1.5140001 39
24.759001 13.854 1.976 35
77.002998 43.195999 7.4860001 22
16.186001 9.125 0.12 31
16.343 9.217 0.403 42
16.650999 9.3990002 0.699 41
24.173 13.662 1.4349999 27
24.673 13.972 1.893 40
76.391998 43.365002 7.1960001 15
16.136999 9.2080002 0.067000002 38
16.305 9.3059998 0.34999999 37
16.604 9.4829998 0.64499998 38
17.115999 9.7880001 0.963 5
24.608 14.098 1.814 36
25.827 14.831 2.355 5
16.120001 9.3059998 0.013 30
16.246 9.3809996 0.29499999 37
16.573 9.5749998 0.58999997 35
17.33 10.025 0.91900003 12
24.436001 14.16 1.724 43
25.57 14.85 2.253 12
16.169001 9.4420004 -0.041000001 34
16.205999 9.4639997 0.23899999 38
16.537001 9.6619997 0.53299999 36
17.033001 9.9630003 0.847 21
24.337999 14.259 1.64 45
25.405001 14.916 2.158 26
16.105 9.5100002 -0.097000003 28
16.16 9.5410004 0.185 39
16.433001 9.7069998 0.47499999 34
16.969999 10.033 0.78899997 25
24.294001 14.387 1.5549999 45
25.229 14.97 2.0610001 31
16.070999 9.5930004 -0.154 40
16.134001 9.6289997 0.12800001 39
16.353001 9.7629995 0.417 33
16.792 10.033 0.72299999 38
24.247999 14.509 1.472 45
25.058001 15.022 1.965 31
16.1 9.7110004 -0.211 37
16.080999 9.6960001 0.071000002 47
16.299 9.8290005 0.359 34
16.753 10.11 0.66399997 40
24.284 14.675 1.392 47
24.972 15.119 1.873 30
16.02 9.7609997 -0.27000001 45
16.115 9.8140001 0.012 39
16.264 9.9069996 0.30000001 38
16.66 10.154 0.60299999 40
24.211 14.774 1.3049999 41
24.893999 15.218 1.783 30
16.028999 9.8629999 -0.329 39
16.049999 9.8690004 -0.045000002 40
16.202 9.9630003 0.241 38
16.693001 10.271 0.54400003 33
24.232 14.926 1.22 41
24.875 15.347 1.6950001 35
16.084999 9.9910002 -0.391 39
16.184999 10.047 -0.106 40
16.193001 10.049 0.18099999 42
16.636 10.329 0.48199999 30
24.204 15.044 1.133 43
24.847 15.468 1.6059999 35
16.066 10.072 -0.45100001 35
16.113001 10.093 -0.16599999 43
16.201 10.146 0.121 36
16.625999 10.415 0.421 31
24.190001 15.166 1.044 44
24.809 15.578 1.515 30
16.038 10.144 -0.51200002 40
16.051001 10.143 -0.226 42
16.195999 10.231 0.059999999 32
16.489 10.418 0.35600001 40
24.264 15.343 0.95700002 46
24.809999 15.708 1.424 30
16.111 10.278 -0.57999998 31
16.044001 10.223 -0.289 46
16.233 10.339 -0.0020000001 37
16.504 10.512 0.294 32
24.256001 15.461 0.86799997 37
24.885 15.882 1.337 31
16.127001 10.372 -0.64300001 33
16.172001 10.389 -0.354 39
16.23 10.42 -0.064000003 31
16.52 10.606 0.23100001 37
24.355 15.645 0.77700001 38
25.011 16.086 1.249 33
16.201 10.504 -0.71200001 40
16.294001 10.55 -0.42300001 30
16.238001 10.506 -0.12800001 35
16.539 10.7 0.16599999 32
24.572001 15.903 0.69099998 31
25.013 16.205999 1.152 31
15.8 10.322 -0.759 38
16.188999 10.561 -0.484 30
16.253 10.593 -0.193 33
16.594999 10.814 0.102 30
24.73 16.120001 0.59899998 33
25.157 16.413 1.063 21
15.289 10.059 -0.79699999 41
16.292999 10.704 -0.55400002 32
16.330999 10.719 -0.25999999 30
16.666 10.935 0.037 14
24.829 16.292999 0.50400001 38
124.296 81.630997 4.783 29
14.556 9.6440001 -0.81900001 39
16.419001 10.859 -0.625 22
16.356001 10.806 -0.32499999 37
16.700001 11.028 -0.028999999 10
25.332001 16.73 0.414 25
124.116 82.027 4.2800002 48
13.8 9.2019997 -0.83499998 42
16.538 11.008 -0.69800001 18
16.721001 11.116 -0.40000001 29
35.560001 23.627001 -0.20299999 42
25.353001 16.844999 0.315 1
80.973999 53.834 2.474 29
13.064 8.7659998 -0.84500003 41
15.415 10.323 -0.71499997 9
16.756001 11.206 -0.47 7
35.268002 23.57 -0.347 43
56.497002 37.751999 0.47299999 49
0 0 0 0
12.862 8.6809998 -0.88499999 40
15.17 10.218 -0.76599997 29
18.461 12.416 -0.59299999 12
35.005001 23.523001 -0.48800001 8
0 0 0 0
56.244999 37.800999 1.266 8
12.844 8.717 -0.94 55
14.658 9.9250002 -0.80199999 44
18.465 12.484 -0.67000002 23
0 0 0 0
37.359001 25.225 0.0080000004 13
56.282001 38.011002 1.041 33
12.812 8.7390003 -0.99199998 52
13.852 9.427 -0.81599998 44
18.472 12.55 -0.74800003 19
27.389999 18.589001 -0.60500002 4
35.150002 23.844 -0.134 20
56.088001 38.053001 0.80900002 46
12.806 8.7770004 -1.045 43
13.074 8.9390001 -0.824 44
15.565 10.623 -0.69499999 6
18.438 12.568 -0.484 0
35.076 23.893999 -0.27700001 35
55.879002 38.066002 0.579 48
12.798 8.8100004 -1.1 41
12.824 8.8059998 -0.86299998 51
15.402 10.555 -0.75199997 25
18.434 12.616 -0.56 9
31.681 21.667 -0.38100001 1
55.782001 38.146 0.34799999 30
12.789 8.8389997 -1.153 47
12.783 8.8120003 -0.91500002 43
14.933 10.272 -0.792 42
18.452 12.675 -0.639 16
0 0 0 0
37.029999 25.41 0.079999998 4
12.826 8.8979998 -1.212 39
12.774 8.8369999 -0.96799999 52
14.228 9.8210001 -0.81300002 40
18.459 12.721 -0.713 17
0 0 0 0
35.231998 24.249001 -0.067000002 8
12.903 8.9809999 -1.273 40
12.82 8.8959999 -1.025 44
13.498 9.3450003 -0.82800001 43
18.459999 12.759 -0.792 19
0 0 0 0
35.150002 24.257 -0.211 46
12.925 9.0220003 -1.331 41
12.792 8.9020004 -1.077 47
12.916 8.967 -0.847 39
15.519 10.754 -0.73000002 11
18.434 12.758 -0.52600002 4
35.013 24.219999 -0.35499999 46
12.937 9.0539999 -1.387 41
12.78 8.915 -1.13 50
12.813 8.915 -0.89399999 40
15.114 10.496 -0.773 35
18.438 12.788 -0.60100001 13
0 0 0 0
12.917 9.0600004 -1.439 37
12.83 8.9680004 -1.188 40
12.812 8.9320002 -0.94599998 42
14.528 10.107 -0.80299997 40
18.450001 12.817 -0.67900002 21
0 0 0 0
12.928 9.0830002 -1.4960001 30
12.902 9.0340004 -1.249 39
12.834 8.9610004 -1.002 44
13.749 9.5790005 -0.81699997 40
18.454 12.837 -0.75400001 17
26.837 18.652 -0.60299999 4
12.843 9.0369997 -1.54 15
12.895 9.0410004 -1.302 42
12.825 8.9650002 -1.054 41
13.06 9.1090002 -0.82999998 38
15.482 10.78 -0.69700003 0
18.427 12.817 -0.48899999 1
12.778 9 -1.586 7
12.901 9.0539999 -1.3559999 41
12.814 8.9650002 -1.1059999 39
12.784 8.9219999 -0.86400002 38
15.229 10.61 -0.74699998 12
18.431 12.826 -0.565 11
12.676 8.934 -1.626 7
12.942 9.0869999 -1.414 38
12.805 8.9619999 -1.158 41
12.792 8.9309998 -0.91799998 40
14.752 10.28 -0.78399998 37
18.441 12.834 -0.639 22
12.306 8.6759996 -1.628 8
12.93 9.0799999 -1.465 36
12.867 9.0059996 -1.216 41
12.838 8.9619999 -0.97299999 44
14.102 9.8249998 -0.80599999 40
18.444 12.832 -0.71399999 15
11.962 8.4329996 -1.632 7
12.889 9.0489998 -1.5140001 22
12.942 9.0550003 -1.275 40
12.829 8.9510002 -1.023 43
13.468 9.3769999 -0.824 42
18.427 12.811 -0.787 16
11.671 8.2229996 -1.64 9
12.8 8.9809999 -1.5549999 9
12.926 9.0380001 -1.326 43
12.815 8.934 -1.074 44
12.949 9.007 -0.84500003 39
15.556 10.803 -0.727 11
11.375 8.007 -1.6440001 9
12.775 8.9549999 -1.602 8
12.937 9.0360003 -1.378 38
12.783 8.901 -1.122 53
12.833 8.915 -0.88700002 40
15.158 10.512 -0.76800001 33
11.103 7.8060002 -1.649 8
12.551 8.7849998 -1.625 8
12.947 9.0290003 -1.4299999 39
12.811 8.9060001 -1.174 42
12.817 8.8879995 -0.93699998 48
14.65 10.141 -0.79900002 41
10.842 7.6100001 -1.652 8
12.17 8.5039997 -1.622 8
12.955 9.0170002 -1.482 34
12.853 8.9180002 -1.229 40
12.787 8.849 -0.98400003 51
13.932 9.6230001 -0.815 37
10.589 7.4169998 -1.655 8
11.885 8.2869997 -1.63 8
12.892 8.9530001 -1.524 23
12.872 8.9099998 -1.28 40
12.793 8.8310003 -1.034 42
13.271 9.1420002 -0.82800001 44
10.368 7.2449999 -1.66 8
11.609 8.0740004 -1.636 9
12.825 8.8830004 -1.564 11
12.858 8.8760004 -1.327 41
12.808 8.816 -1.084 41
12.87 8.8400002 -0.85100001 44
10.162 7.0809999 -1.665 8
11.344 7.8660002 -1.642 9
12.799 8.8380003 -1.61 8
12.88 8.8629999 -1.378 37
12.823 8.7980003 -1.133 47
12.792 8.757 -0.89399999 48
9.9580002 6.9159999 -1.668 8
11.085 7.6609998 -1.645 8
12.576 8.6540003 -1.628 8
12.981 8.901 -1.437 35
12.837 8.776 -1.181 48
12.82 8.743 -0.94400001 50
9.7709999 6.7620001 -1.673 9
10.85 7.4710002 -1.649 8
12.246 8.3950005 -1.6289999 8
13.022 8.8940001 -1.488 40
12.858 8.7550001 -1.23 43
12.887 8.7530003 -0.995 42
9.5780001 6.6030002 -1.673 9
10.64 7.2969999 -1.655 8
11.971 8.1730003 -1.635 9
12.935 8.7969999 -1.525 25
12.925 8.7629995 -1.283 40
12.845 8.6859999 -1.039 51
9.4139996 6.461 -1.677 9
10.413 7.1100001 -1.656 9
11.713 7.961 -1.641 9
12.891 8.7270002 -1.564 14
12.993 8.7659998 -1.335 43
12.863 8.6560001 -1.086 37
9.2639999 6.3280001 -1.683 10
10.217 6.9419999 -1.66 8
11.468 7.7550001 -1.646 9
12.87 8.6689997 -1.6059999 12
13.009 8.7329998 -1.382 37
13.036 8.7259998 -1.146 45
9.1020002 6.1859999 -1.684 10
10.034 6.7820001 -1.664 8
11.239 7.5609999 -1.651 9
12.728 8.5270004 -1.632 12
13.048 8.7110004 -1.431 43
13.002 8.6549997 -1.186 38
8.9630003 6.0580001 -1.687 9
9.8640003 6.6300001 -1.668 9
11.01 7.3649998 -1.653 9
12.408 8.2650003 -1.631 8
13.037 8.6529999 -1.473 39
13.014 8.6120005 -1.232 41
8.8269997 5.9310002 -1.6900001 10
9.7019997 6.4819999 -1.6720001 9
10.802 7.1820002 -1.6569999 8
12.143 8.0389996 -1.636 8
13.039 8.6000004 -1.516 25
13.121 8.6280003 -1.285 37
8.6960001 5.8070002 -1.692 9
9.552 6.3429999 -1.676 10
10.61 7.0089998 -1.661 8
11.895 7.8239999 -1.64 9
12.983 8.507 -1.551 14
13.2 8.6210003 -1.335 30
8.5699997 5.6849999 -1.693 9
9.4049997 6.2030001 -1.679 9
10.418 6.836 -1.663 8
11.679 7.6290002 -1.647 9
12.965 8.4359999 -1.589 13
13.143 8.5240002 -1.3710001 43
8.4420004 5.5619998 -1.693 10
9.2690001 6.0700002 -1.681 10
10.262 6.6859999 -1.668 8
11.463 7.4349999 -1.65 8
12.942 8.3599997 -1.625 9
13.153 8.4680004 -1.4119999 40
8.3479996 5.4590001 -1.698 10
9.1379995 5.9400001 -1.6849999 9
10.094 6.527 -1.671 9
11.264 7.25 -1.654 9
12.728 8.1590004 -1.636 8
13.154 8.4029999 -1.451 40
8.2399998 5.348 -1.699 10
9.0159998 5.816 -1.687 10
9.941 6.3779998 -1.673 10
11.067 7.0669999 -1.6569999 9
12.41 7.8920002 -1.63 7
13.186 8.3549995 -1.494 36
8.1529999 5.2490001 -1.7029999 11
8.9020004 5.697 -1.6900001 10
9.7980003 6.2350001 -1.676 10
10.885 6.8940001 -1.66 9
12.215 7.704 -1.638 9
13.121 8.2449999 -1.522 23
8.0679998 5.151 -1.706 10
8.783 5.573 -1.691 10
9.6750002 6.105 -1.681 11
10.727 6.7340002 -1.665 9
12.013 7.5100002 -1.645 10
13.067 8.1389999 -1.552 17
7.9860001 5.053 -1.709 11
8.6750002 5.4549999 -1.691 9
9.5489998 5.9710002 -1.683 10
10.549 6.5640001 -1.665 9
11.794 7.3060002 -1.646 9
13.081 8.0740004 -1.589 16
7.9089999 4.96 -1.712 11
8.5810003 5.348 -1.6950001 11
9.4259996 5.8400002 -1.6849999 11
10.424 6.4260001 -1.671 9
11.615 7.1279998 -1.65 9
13.052 7.9790001 -1.619 16
7.835 4.8670001 -1.714 11
8.4919996 5.2410002 -1.697 10
9.3199997 5.7189999 -1.688 11
10.277 6.2740002 -1.673 9
11.437 6.9510002 -1.653 11
12.941 7.8340001 -1.638 14
7.7649999 4.776 -1.716 10
8.4200001 5.145 -1.702 11
9.2150002 5.599 -1.691 11
10.15 6.1350002 -1.676 10
11.283 6.7880001 -1.658 11
12.69 7.6040001 -1.637 11
7.6999998 4.6880002 -1.7180001 11
8.3409996 5.046 -1.7029999 10
9.1160002 5.4819999 -1.692 9
10.013 5.9899998 -1.675 10
11.132 6.6279998 -1.661 10
12.498 7.4109998 -1.641 11
7.6430001 4.605 -1.721 10
8.2729998 4.9520001 -1.707 11
9.0209999 5.368 -1.694 10
9.9180002 5.8699999 -1.681 11
10.994 6.4759998 -1.664 10
12.304 7.217 -1.643 11
7.5809999 4.5190001 -1.721 11
8.1990004 4.855 -1.7079999 11
8.9399996 5.2620001 -1.697 11
9.8199997 5.7490001 -1.6849999 10
10.86 6.3270001 -1.6670001 10
12.146 7.046 -1.648 10
7.5180001 4.4320002 -1.721 11
8.1350002 4.763 -1.71 11
8.8649998 5.1589999 -1.699 11
9.7200003 5.6259999 -1.686 11
10.734 6.1820002 -1.669 9
11.988 6.875 -1.651 10
7.4759998 4.3559999 -1.725 11
8.0790005 4.6760001 -1.7130001 11
8.7849998 5.053 -1.701 11
9.6230001 5.5050001 -1.688 11
10.627 6.0500002 -1.673 10
11.852 6.717 -1.656 11
7.4289999 4.2789998 -1.726 12
8.0170002 4.586 -1.7130001 11
8.7220001 4.9580002 -1.7029999 11
9.5550003 5.401 -1.692 11
10.536 5.9260001 -1.678 10
11.727 6.566 -1.66 10
7.381 4.1999998 -1.726 11
7.974 4.506 -1.716 11
8.6599998 4.8629999 -1.705 11
9.4659996 5.2859998 -1.693 12
10.415 5.7870002 -1.677 10
11.594 6.4130001 -1.6619999 11
7.348 4.1290002 -1.729 11
7.9250002 4.4229999 -1.7180001 11
8.6110001 4.7750001 -1.709 11
9.3940001 5.1799998 -1.6950001 10
10.345 5.6750002 -1.683 10
11.477 6.2670002 -1.664 11
7.3140001 4.0580001 -1.7309999 11
7.888 4.3460002 -1.721 11
8.5559998 4.684 -1.711 12
9.342 5.085 -1.7 11
10.261 5.5560002 -1.6849999 10
11.367 6.1259999 -1.6670001 10
7.2849998 3.9890001 -1.734 11
7.8410001 4.263 -1.721 12
8.5089998 4.5970001 -1.7130001 11
9.2679996 4.9770002 -1.699 10
10.175 5.4359999 -1.6849999 10
11.284 6 -1.671 10
7.27 3.927 -1.739 12
7.803 4.1859999 -1.723 11
8.4610004 4.5100002 -1.714 11
9.224 4.8870001 -1.704 11
10.111 5.3280001 -1.688 11
11.201 5.8740001 -1.674 10
7.2379999 3.8559999 -1.739 11
7.7789998 4.1149998 -1.726 11
8.4320002 4.4320002 -1.7180001 11
9.1730003 4.7930002 -1.705 11
10.053 5.223 -1.692 11
11.119 5.75 -1.677 10
7.2179999 3.7920001 -1.742 11
7.743 4.039 -1.727 11
8.3990002 4.3520002 -1.72 12
9.125 4.6999998 -1.706 11
10.003 5.1240001 -1.6950001 10
11.043 5.6279998 -1.679 10
7.2030001 3.7290001 -1.744 12
7.7119999 3.964 -1.726 11
8.3579998 4.2680001 -1.72 11
9.0959997 4.6160002 -1.71 11
9.948 5.02 -1.696 11
10.972 5.5100002 -1.6799999 11
7.1900001 3.668 -1.747 12
7.691 3.8940001 -1.728 11
8.3339996 4.1919999 -1.723 11
9.0489998 4.5240002 -1.71 11
9.9169998 4.9299998 -1.701 11
10.923 5.402 -1.684 10
7.1830001 3.608 -1.75 12
7.6799998 3.8310001 -1.7309999 12
8.3009996 4.112 -1.722 12
9.0220003 4.4419999 -1.7130001 11
9.8739996 4.8340001 -1.702 11
10.869 5.2930002 -1.686 10
7.1609998 3.543 -1.749 11
7.6630001 3.7639999 -1.732 11
8.2889996 4.0440001 -1.726 12
8.9940004 4.3600001 -1.714 11
9.8529997 4.7490001 -1.706 11
10.839 5.197 -1.6900001 10
7.1459999 3.48 -1.749 11
7.6399999 3.6930001 -1.7309999 10
8.2729998 3.9719999 -1.727 12
8.974 4.2820001 -1.716 11
9.8199997 4.658 -1.707 11
10.8 5.0960002 -1.692 11
7.1479998 3.4260001 -1.752 11
7.6389999 3.6340001 -1.735 11
8.2559996 3.9000001 -1.728 11
8.948 4.1999998 -1.716 12
9.7790003 4.5640001 -1.705 11
10.76 4.994 -1.693 11
7.138 3.365 -1.752 10
7.6399999 3.575 -1.738 11
8.2539997 3.835 -1.7309999 12
8.9519997 4.1329999 -1.721 11
9.7629995 4.4790001 -1.7079999 11
10.734 4.8990002 -1.694 10
7.151 3.3150001 -1.756 11
7.638 3.5139999 -1.739 11
8.2460003 3.767 -1.732 12
8.9350004 4.0560002 -1.72 11
9.7589998 4.4029999 -1.711 11
10.711 4.8060002 -1.696 10
7.1459999 3.256 -1.756 11
7.6360002 3.4530001 -1.74 11
8.243 3.701 -1.733 11
8.934 3.9849999 -1.722 11
9.7360001 4.3169999 -1.71 11
10.695 4.7160001 -1.697 12
7.1599998 3.2060001 -1.76 11
7.6389999 3.3940001 -1.7410001 11
8.2510004 3.6389999 -1.7359999 11
8.9230003 3.9100001 -1.722 12
9.75 4.2470002 -1.714 10
10.702 4.6339998 -1.7 11
7.1609998 3.1489999 -1.7589999 11
7.6420002 3.335 -1.742 11
8.2480001 3.5739999 -1.735 11
8.934 3.845 -1.724 12
9.7329998 4.1630001 -1.712 12
10.689 4.5469999 -1.7 11
7.1599998 3.092 -1.758 10
7.6459999 3.277 -1.742 10
8.2620001 3.5150001 -1.737 11
8.9440002 3.78 -1.726 13
9.7449999 4.0929999 -1.715 11
10.692 4.4640002 -1.701 11
7.1399999 3.027 -1.751 12
7.6739998 3.2279999 -1.7460001 12
8.2770004 3.4560001 -1.739 12
8.9560003 3.714 -1.727 12
9.757 4.0209999 -1.716 12
10.697 4.3829999 -1.701 11
7.158 2.977 -1.753 12
7.684 3.1719999 -1.7460001 11
8.2910004 3.3970001 -1.739 11
8.9770002 3.6530001 -1.73 12
9.7849998 3.9560001 -1.719 12
10.735 4.316 -1.706 12
7.1869998 2.9330001 -1.756 12
7.697 3.1159999 -1.7460001 11
8.3000002 3.335 -1.738 12
8.9790001 3.5840001 -1.727 12
9.8070002 3.8889999 -1.72 12
10.736 4.2319999 -1.704 11
7.2329998 2.8940001 -1.7640001 11
7.7189999 3.0639999 -1.747 11
8.335 3.2839999 -1.742 12
9.0120001 3.526 -1.729 12
9.8369999 3.8239999 -1.721 12
10.781 4.1659999 -1.707 12
7.2519999 2.8440001 -1.7640001 11
7.744 3.013 -1.748 11
8.3529997 3.2249999 -1.7410001 12
9.0509996 3.471 -1.732 12
9.8599997 3.756 -1.721 12
10.812 4.0929999 -1.707 12
7.2540002 2.7869999 -1.7589999 12
7.7740002 2.9630001 -1.749 11
8.3859997 3.1719999 -1.742 12
9.0679998 3.4059999 -1.73 12
9.8959999 3.6930001 -1.722 11
10.858 4.026 -1.709 11
7.3010001 2.747 -1.7640001 10
7.8060002 2.914 -1.751 11
8.4239998 3.1199999 -1.744 12
9.1210003 3.3540001 -1.733 12
9.9429998 3.632 -1.723 12
10.915 3.9630001 -1.711 11
7.3509998 2.7079999 -1.7690001 11
7.836 2.8629999 -1.75 11
8.4619999 3.0680001 -1.745 12
9.158 3.2969999 -1.733 12
9.9820004 3.569 -1.722 12
10.964 3.895 -1.711 12
7.3779998 2.6600001 -1.7690001 11
7.8740001 2.8150001 -1.751 11
8.5050001 3.0179999 -1.7460001 12
9.1999998 3.24 -1.733 13
10.041 3.513 -1.724 12
11.031 3.8340001 -1.712 12
7.402 2.6099999 -1.766 11
7.9180002 2.7690001 -1.752 11
8.5380001 2.9619999 -1.744 12
9.2740002 3.194 -1.738 12
10.114 3.46 -1.727 12
11.104 3.7739999 -1.7130001 11
7.4380002 2.5639999 -1.765 10
7.9590001 2.7219999 -1.752 10
8.599 2.9170001 -1.7460001 12
9.3070002 3.1340001 -1.734 12
10.174 3.402 -1.726 12
11.165 3.71 -1.711 12
7.4829998 2.5220001 -1.767 11
8.0080004 2.6760001 -1.753 11
8.6499996 2.868 -1.7460001 12
9.3850002 3.0880001 -1.737 13
10.239 3.346 -1.726 12
11.243 3.6489999 -1.711 12
7.5310001 2.48 -1.768 11
8.0509996 2.6289999 -1.751 11
8.7089996 2.8199999 -1.747 12
9.4460001 3.036 -1.7359999 12
10.329 3.296 -1.728 12
11.353 3.599 -1.7130001 12
7.5840001 2.438 -1.7690001 11
8.1199999 2.589 -1.755 11
8.7720003 2.7739999 -1.747 12
9.5179996 2.987 -1.737 12
10.42 3.247 -1.729 13
11.465 3.5480001 -1.715 11
7.6430001 2.3989999 -1.771 11
8.1689997 2.5409999 -1.753 11
8.8380003 2.727 -1.747 13
9.6099997 2.9419999 -1.739 12
10.51 3.194 -1.729 13
11.57 3.4920001 -1.715 11
7.6880002 2.3529999 -1.768 11
8.2410002 2.5 -1.7539999 11
8.915 2.6830001 -1.748 12
9.6870003 2.892 -1.738 12
10.616 3.1459999 -1.73 13
11.698 3.4430001 -1.716 11
7.7470002 2.312 -1.768 11
8.3059998 2.4560001 -1.7539999 11
8.9969997 2.6389999 -1.749 13
9.7869997 2.848 -1.74 12
10.721 3.096 -1.73 13
11.833 3.3940001 -1.717 12
7.809 2.2709999 -1.767 11
8.3889999 2.418 -1.756 12
9.0760002 2.5940001 -1.748 12
9.875 2.8 -1.738 12
10.837 3.049 -1.73 12
11.974 3.3440001 -1.717 12
7.8709998 2.2290001 -1.766 10
8.467 2.3770001 -1.757 12
9.1719999 2.553 -1.75 12
9.9960003 2.76 -1.7410001 12
10.96 3.0020001 -1.729 11
12.107 3.293 -1.714 12
7.947 2.191 -1.767 11
8.5469999 2.335 -1.756 12
9.2670002 2.51 -1.749 13
10.089 2.711 -1.738 12
11.098 2.9590001 -1.73 13
12.266 3.2460001 -1.714 11
8.0340004 2.155 -1.77 12
8.6370001 2.296 -1.757 11
9.3719997 2.4690001 -1.75 12
10.221 2.671 -1.74 12
11.241 2.915 -1.7309999 12
12.428 3.198 -1.712 11
8.1090002 2.115 -1.768 12
8.7320004 2.257 -1.757 11
9.4759998 2.428 -1.749 12
10.332 2.6240001 -1.737 12
11.394 2.8710001 -1.73 12
12.618 3.1559999 -1.712 11
8.1879997 2.075 -1.767 11
8.8389997 2.2190001 -1.7589999 12
9.5939999 2.388 -1.75 13
10.484 2.5869999 -1.739 12
11.567 2.8310001 -1.7309999 13
12.82 3.112 -1.712 11
8.283 2.0380001 -1.767 12
8.934 2.177 -1.757 12
9.7200003 2.3469999 -1.75 12
10.632 2.5450001 -1.739 13
11.738 2.7869999 -1.729 12
13.041 3.072 -1.711 12
8.375 1.999 -1.766 11
9.0419998 2.138 -1.756 12
9.8450003 2.3069999 -1.748 12
10.787 2.5050001 -1.739 13
11.896 2.74 -1.725 12
13.266 3.0309999 -1.71 12
8.4759998 1.962 -1.766 11
9.1630001 2.1010001 -1.756 12
9.9770002 2.266 -1.747 13
10.952 2.4660001 -1.738 13
12.108 2.7030001 -1.725 12
13.517 2.994 -1.709 12
8.5860004 1.926 -1.766 11
9.2849998 2.063 -1.755 12
10.126 2.2279999 -1.747 12
11.127 2.427 -1.738 13
12.307 2.661 -1.723 12
13.796 2.9579999 -1.709 13
8.7040005 1.891 -1.766 11
9.4180002 2.026 -1.755 12
10.297 2.194 -1.749 12
11.322 2.3900001 -1.738 14
12.566 2.6289999 -1.725 12
14.082 2.9219999 -1.7079999 12
8.8260002 1.855 -1.767 11
9.5570002 1.989 -1.7539999 12
10.459 2.155 -1.747 12
11.511 2.3499999 -1.735 12
12.792 2.589 -1.722 12
14.397 2.8889999 -1.707 12
8.9639997 1.821 -1.768 12
9.7049999 1.952 -1.753 11
10.622 2.1159999 -1.744 13
11.74 2.316 -1.7359999 13
13.061 2.5539999 -1.721 13
14.726 2.8540001 -1.704 14
9.0909996 1.784 -1.766 11
9.8610001 1.915 -1.752 11
10.82 2.0810001 -1.745 13
11.957 2.2780001 -1.734 15
13.373 2.5239999 -1.723 11
15.077 2.8199999 -1.701 14
9.2309999 1.748 -1.765 12
10.037 1.881 -1.753 12
11.017 2.0439999 -1.743 13
12.206 2.2420001 -1.733 14
13.65 2.484 -1.7180001 11
15.441 2.7850001 -1.696 15
9.3870001 1.714 -1.765 12
10.217 1.845 -1.752 12
11.249 2.01 -1.744 13
12.455 2.204 -1.729 12
14.007 2.4560001 -1.719 12
15.862 2.7550001 -1.693 15
9.5489998 1.679 -1.7640001 12
10.401 1.809 -1.75 12
11.463 1.973 -1.7410001 13
12.743 2.171 -1.729 12
14.357 2.4219999 -1.716 13
16.243 2.714 -1.681 15
9.7119999 1.642 -1.762 12
10.605 1.774 -1.749 12
11.711 1.938 -1.74 13
13.049 2.1370001 -1.727 11
14.735 2.3889999 -1.7130001 12
16.374001 2.6289999 -1.642 17
9.8900003 1.607 -1.761 12
10.822 1.739 -1.749 12
11.987 1.905 -1.74 13
13.41 2.108 -1.729 11
15.125 2.355 -1.707 13
16.540001 2.549 -1.603 24
10.081 1.572 -1.7589999 12
11.042 1.7029999 -1.7460001 12
12.263 1.87 -1.738 14
13.767 2.0769999 -1.728 11
15.578 2.326 -1.705 13
16.715 2.471 -1.563 45
10.289 1.538 -1.7589999 12
11.302 1.67 -1.7460001 12
12.562 1.835 -1.7359999 13
14.149 2.0439999 -1.726 12
16.08 2.299 -1.7029999 12
16.796 2.3759999 -1.51 57
10.509 1.503 -1.758 12
11.565 1.635 -1.745 12
12.903 1.803 -1.7359999 12
14.536 2.0079999 -1.72 12
16.544001 2.26 -1.691 14
16.761999 2.267 -1.446 45
10.736 1.4680001 -1.756 12
11.839 1.599 -1.742 12
13.252 1.768 -1.734 12
14.984 1.976 -1.717 12
16.792 2.1900001 -1.654 11
16.978001 2.1900001 -1.401 62
10.988 1.433 -1.755 13
12.139 1.564 -1.74 13
13.617 1.733 -1.729 11
15.462 1.9450001 -1.7130001 12
16.951 2.108 -1.6059999 23
16.99 2.089 -1.3380001 60
11.252 1.399 -1.7539999 13
12.475 1.531 -1.74 13
14.039 1.702 -1.729 12
15.974 1.913 -1.709 13
17.145 2.0280001 -1.558 51
17.018999 1.99 -1.274 59
11.521 1.3609999 -1.749 13
12.819 1.495 -1.737 12
14.47 1.666 -1.724 11
16.542999 1.881 -1.7029999 14
17.184999 1.9299999 -1.493 52
17.08 1.896 -1.211 63
11.847 1.3279999 -1.751 12
13.206 1.46 -1.735 12
14.982 1.635 -1.724 12
17.065001 1.8380001 -1.687 10
17.336 1.845 -1.4349999 39
17.143999 1.802 -1.145 56
12.182 1.293 -1.75 12
13.616 1.425 -1.733 12
15.486 1.598 -1.7180001 12
17.267 1.758 -1.635 13
17.337999 1.743 -1.363 51
17.215 1.709 -1.077 66
12.523 1.255 -1.7460001 14
14.043 1.388 -1.728 11
16.035 1.562 -1.711 12
17.504999 1.683 -1.585 36
17.396999 1.649 -1.294 59
17.341999 1.622 -1.012 55
12.917 1.22 -1.745 13
14.53 1.352 -1.725 11
16.622999 1.524 -1.7029999 10
17.759001 1.605 -1.531 56
17.445999 1.5549999 -1.222 66
17.597 1.5470001 -0.95099998 65
13.317 1.181 -1.7410001 12
15.073 1.317 -1.724 11
17.413 1.498 -1.707 8
17.726999 1.5039999 -1.451 51
17.525999 1.465 -1.151 72
18.15 1.495 -0.90100002 56
13.772 1.1440001 -1.74 11
15.641 1.279 -1.72 9
17.593 1.4170001 -1.648 16
17.681999 1.402 -1.369 51
17.624001 1.376 -1.08 76
19.097 1.469 -0.86199999 59
14.25 1.105 -1.7359999 11
16.247999 1.239 -1.7130001 11
17.849001 1.34 -1.591 35
17.743999 1.311 -1.293 70
17.792 1.293 -1.0089999 59
20.136999 1.441 -0.81699997 25
14.814 1.067 -1.7359999 12
16.945999 1.2 -1.7079999 10
17.968 1.251 -1.518 57
17.805 1.219 -1.215 67
17.973 1.21 -0.935 60
26.256001 1.738 -0.94199997 24
15.365 1.024 -1.729 11
17.759001 1.163 -1.707 8
17.965 1.155 -1.434 73
17.889 1.13 -1.136 82
18.829 1.169 -0.89099997 59
26.486 1.614 -0.824 27
16.014999 0.98199999 -1.726 11
18.014 1.084 -1.646 11
18.165001 1.073 -1.363 51
18.007999 1.044 -1.058 56
19.752001 1.123 -0.83999997 40
26.275 1.4680001 -0.69300002 36
16.679001 0.93599999 -1.717 12
18.348 1.0089999 -1.587 37
18.233 0.98299998 -1.28 57
18.249001 0.96499997 -0.98400003 56
24.709999 1.28 -0.93000001 72
26.362 1.34 -0.56599998 35
17.542 0.89499998 -1.72 12
18.511999 0.92500001 -1.512 48
18.319 0.89499998 -1.196 50
18.610001 0.89099997 -0.912 64
24.805 1.163 -0.81199998 69
31.719 1.455 -0.52399999 12
18.216999 0.838 -1.697 9
18.372999 0.82599998 -1.409 56
18.333 0.80500001 -1.1059999 60
19.497 0.83600003 -0.85699999 46
25.417999 1.066 -0.704 2
38.799 1.591 -0.44400001 4
18.489 0.75800002 -1.6289999 20
18.483999 0.74000001 -1.325 59
18.360001 0.71700001 -1.015 59
20.063999 0.76300001 -0.77999997 0
30.393999 1.128 -0.68599999 39
38.577999 1.396 -0.242 65
18.84 0.68099999 -1.564 44
18.624001 0.65499997 -1.239 56
18.621 0.63700002 -0.93300003 61
24.934 0.83099997 -0.84200001 74
31.57 1.023 -0.55000001 5
38.334 1.206 -0.041000001 11
18.813999 0.58999997 -1.464 60
18.621 0.56599998 -1.142 62
19.327 0.56999999 -0.86799997 42
26.613001 0.75999999 -0.75800002 65
37.673 1.044 -0.45699999 7
38.084 1.023 0.16 27
18.931 0.505 -1.374 41
18.704 0.48100001 -1.049 59
24.416 0.60799998 -0.96799999 72
28.784 0.69 -0.667 33
57.033001 1.321 -0.38800001 81
56.933998 1.271 0.54500002 72
18.905001 0.417 -1.271 59
18.811001 0.398 -0.95499998 60
24.746 0.50400001 -0.84899998 86
35.346001 0.68900001 -0.63 46
61.710999 1.154 -0.086000003 11
90.251999 1.615 1.3559999 20
19.087999 0.33399999 -1.181 63
19.191999 0.31999999 -0.87 45
27.068001 0.43000001 -0.78100002 54
37.412998 0.565 -0.46399999 20
37.508999 0.537 0.152 13
80.169998 1.086 1.647 4
19.079 0.25 -1.076 60
24.327 0.29899999 -0.97000003 69
28.569 0.33000001 -0.66799998 17
37.206001 0.40099999 -0.255 47
37.298 0.373 0.36000001 60
80.460999 0.74400002 2.109 16
19.142 0.167 -0.97399998 55
25.187 0.20200001 -0.86500001 60
35.262001 0.255 -0.62599999 46
37.014 0.241 -0.045000002 16
37.080002 0.215 0.56800002 2
62.289001 0.31799999 1.984 9
19.327 0.086999997 -0.87599999 41
27.707001 0.106 -0.79799998 49
36.692001 0.115 -0.44800001 48
36.82 0.090000004 0.15899999 21
0 0 0 0
62.391998 0.064999998 2.345 8
24.23 0.0089999996 -0.96200001 67
29.177999 -0.0080000004 -0.67400002 18
36.084 -0.034000002 -0.234 3
71.454002 -0.116 0.72399998 31
82.071999 -0.185 2.194 12
61.980999 -0.182 2.6919999 13
25.295 -0.092 -0.86000001 35
34.855 -0.15000001 -0.60500002 47
36.181999 -0.17900001 -0.025 14
81.983002 -0.456 1.3049999 17
95.420998 -0.59100002 3.112 44
62.652 -0.42500001 3.0880001 9
25.655001 -0.19400001 -0.72500002 1
35.967999 -0.29499999 -0.41600001 46
35.793999 -0.31600001 0.182 47
35.499001 -0.33399999 0.773 17
35.532001 -0.35499999 1.368 10
63.070999 -0.66799998 3.4860001 7
29.379999 -0.336 -0.65899998 3
35.806 -0.43000001 -0.205 40
35.794998 -0.45199999 0.39399999 10
35.201 -0.46399999 0.977 5
109.983 -1.5140001 4.901 12
111.065 -1.589 6.8130002 37
0 0 0 0
35.602001 -0.56099999 0.0070000002 25
82.386002 -1.342 1.3940001 27
94.968002 -1.601 3.2060001 45
109.762 -1.909 5.553 45
110.719 -1.982 7.4660001 22
34.292999 -0.64700001 -0.36300001 1
70.436996 -1.365 0.43099999 35
82.263 -1.635 1.886 31
95.211998 -1.939 3.783 18
110.934 -2.3150001 6.2810001 42
111.367 -2.3770001 8.1870003 16
34.980999 -0.78299999 -0.163 2
109.629 -2.506 1.324 35
94.969002 -2.2149999 2.7460001 48
97.901001 -2.3299999 4.4840002 17
111.247 -2.698 6.9759998 34
0 0 0 0
34.93 -0.903 0.046999998 51
95.416 -2.5079999 1.732 26
95.282997 -2.546 3.339 15
111.229 -3.0239999 5.7859998 54
112.144 -3.095 7.7350001 31
0 0 0 0
34.692001 -1.0140001 0.259 10
66.978996 -1.983 1.627 43
97.519997 -2.9300001 4.0240002 29
111.251 -3.388 6.4809999 46
0 0 0 0
0 0 0 0
110.102 -3.576 1.495 23
96.796997 -3.1789999 2.9519999 44
97.848 -3.25 4.645 25
112.026 -3.7609999 7.2220001 34
0 0 0 0
0 0 0 0
66.598999 -2.3740001 1.318 48
96.93 -3.4879999 3.562 48
110.999 -4.0300002 5.9629998 54
111.368 -4.0809999 7.8870001 12
0 0 0 0
0 0 0 0
66.863998 -2.5869999 1.739 19
97.626999 -3.8069999 4.1989999 37
111.293 -4.3709998 6.6820002 74
0 0 0 0
0 0 0 0
0 0 0 0
96.913002 -4.04 3.1370001 42
110.868 -4.6500001 5.4780002 52
111.467 -4.7049999 7.4169998 9
0 0 0 0
0 0 0 0
0 0 0 0
97.480003 -4.3449998 3.78 49
112.152 -5.0240002 6.2649999 30
112.178 -5.052 8.1940002 33
113.475 -5.1370001 10.249 22
0 0 0 0
52.597 -2.408 6.5830002 45
111.706 -5.29 5.052 30
111.649 -5.309 6.9640002 44
113.05 -5.3959999 8.9949999 35
0 0 0 0
0 0 0 0
53.868 -2.605 7.1030002 36
111.022 -5.5489998 5.73 50
112.708 -5.651 7.7550001 41
113.36 -5.7020001 9.7550001 28
0 0 0 0
53.202 -2.694 6.4359999 2
51.631001 -2.6259999 7.158 42
111.382 -5.855 6.4780002 39
113.413 -5.974 8.5469999 40
0 0 0 0
56.318001 -2.9820001 6.2049999 9
53.872002 -2.8599999 6.881 25
52.215 -2.78 7.5949998 52
112.337 -6.177 7.2610002 43
113.251 -6.2379999 9.2790003 35
0 0 0 0
0 0 0 0
51.589001 -2.8599999 6.9429998 72
51.307999 -2.8499999 7.8189998 58
111.771 -6.4130001 7.9720001 40
113.069 -6.494 10.027 17
56.118999 -3.2279999 5.9569998 5
53.948002 -3.1070001 6.677 45
51.477001 -2.9679999 7.2820001 87
51.284 -2.9619999 8.1730003 57
113.168 -6.7490001 8.8240004 39
56.173 -3.3510001 5.355 2
0 0 0 0
51.655998 -3.085 6.7420001 31
50.984001 -3.0469999 7.5640001 82
51.390999 -3.0739999 8.5459995 17
113.285 -6.9970002 9.5810003 17
0 0 0 0
54.113998 -3.3410001 6.473 27
51.598 -3.1860001 7.086 76
51.224998 -3.164 7.9520001 63
53.807999 -3.3239999 9.323 71
56.056 -3.5769999 5.1149998 7
0 0 0 0
54.362999 -3.4649999 6.875 16
51.251999 -3.2650001 7.3959999 82
51.784 -3.2980001 8.4029999 44
53.123001 -3.3829999 9.5860004 70
75.598999 -4.9699998 7.4109998 12
53.284 -3.4990001 6.1609998 56
52.911999 -3.471 7.0549998 16
51.049 -3.3469999 7.724 76
51.535999 -3.3770001 8.7299995 21
53.243 -3.487 9.9919996 67
0 0 0 0
0 0 0 0
51.598999 -3.477 7.2410002 11
51.534 -3.4679999 8.158 83
53.841999 -3.619 9.5019999 63
54.110001 -3.635 10.546 15
0 0 0 0
52.879002 -3.6589999 6.8439999 16
51.215 -3.5369999 7.5430002 32
51.287998 -3.536 8.4820004 69
53.441002 -3.6789999 9.8149996 73
0 0 0 0
52.604 -3.733 6.2350001 27
52.914001 -3.7460001 7.217 56
52.351002 -3.6989999 8.0839996 51
51.092999 -3.602 8.816 16
53.707001 -3.7780001 10.254 35
0 0 0 0
52.995998 -3.8429999 6.651 5
51.460999 -3.721 7.3779998 38
51.25 -3.697 8.276 72
53.759998 -3.868 9.6639996 84
0 0 0 0
0 0 0 0
52.983002 -3.918 7.02 47
51.428001 -3.7909999 7.737 46
51.352001 -3.773 8.6560001 49
53.325001 -3.9059999 9.9680004 65
0 0 0 0
0 0 0 0
0 0 0 0
50.962002 -3.823 8.0270004 94
53.012001 -3.9630001 9.3149996 37
53.388 -3.977 10.364 5
0 0 0 0
0 0 0 0
51.147999 -3.9119999 7.4889998 77
51.231998 -3.9030001 8.4289999 62
53.569 -4.0650001 9.7950001 71
0 0 0 0
0 0 0 0
0 0 0 0
50.929001 -3.9530001 7.8179998 46
51.880001 -4.0089998 8.908 99
53.483002 -4.1149998 10.166 37
0 0 0 0
0 0 0 0
0 0 0 0
50.983002 -4.0079999 8.1859999 61
0 0 0 0
0 0 0 0
0 0 0 0
0 0 0 0
0 0 0 0
50.998001 -4.0560002 8.5500002 80
53.637001 -4.244 9.9750004 69
0 0 0 0
0 0 0 0
0 0 0 0
0 0 0 0
52.188999 -4.1939998 9.1219997 57
53.455002 -4.2719998 10.33 12
0 0 0 0
0 0 0 0
0 0 0 0
0 0 0 0
53.737 -4.355 9.7749996 66
0 0 0 0
0 0 0 0
0 0 0 0
0 0 0 0
0 0 0 0
53.431 -4.362 10.103 11
0 0 0 0
0 0 0 0
0 0 0 0
0 0 0 0
0 0 0 0
0 0 0 0
0 0 0 0
0 0 0 0
0 0 0 0
0 0 0 0
0 0 0 0
0 0 0 0
0 0 0 0
0 0 0 0
0 0 0 0
0 0 0 0
0 0 0 0
0 0 0 0
0 0 0 0
0 0 0 0
0 0 0 0
0 0 0 0
