# .PCD v0.7 - Point Cloud Data file format
VERSION 0.7
FIELDS x y z intensity
SIZE 4 4 4 4
TYPE F F F F
COUNT 1 1 1 1
WIDTH 1859
HEIGHT 1
VIEWPOINT 0 0 0 1 0 0 0
POINTS 1859
DATA ascii
7.256 -3.8329999 -0.96100003 45
7.4369998 -3.9330001 -0.85100001 2
18.707001 -9.9069996 -1.807 6
22.635 -12.013 -1.786 5
6.9710002 -3.7320001 -1.163 34
6.9569998 -3.7249999 -1.034 36
7.0929999 -3.799 -0.92500001 48
7.4239998 -3.98 -0.83399999 1
19.197001 -10.308 -1.814 4
23.237 -12.501 -1.781 4
6.8709998 -3.7290001 -1.133 33
7.0549998 -3.829 -1.034 32
7.059 -3.832 -0.90600002 55
7.0700002 -3.842 -0.77899998 54
19.674 -10.707 -1.8150001 7
23.927 -13.047 -1.779 4
6.8039999 -3.7420001 -1.108 32
7.0580001 -3.8800001 -1.02 28
7.0250001 -3.8640001 -0.88599998 46
7.0219998 -3.8659999 -0.759 52
20.107 -11.085 -1.808 4
24.608 -13.594 -1.771 4
6.6890001 -3.7260001 -1.075 26
6.5879998 -3.6700001 -0.93699998 36
6.6479998 -3.704 -0.824 42
6.9759998 -3.8900001 -0.73699999 53
7.0419998 -3.9319999 -0.616 0
25.344 -14.179 -1.761 3
6.6230001 -3.7360001 -1.05 18
6.6420002 -3.7460001 -0.93000001 10
6.579 -3.711 -0.80000001 42
6.6440001 -3.7509999 -0.68599999 33
7.0149999 -3.9660001 -0.59600002 3
7.0339999 -3.984 -0.47099999 9
6.6479998 -3.796 -1.039 8
6.6789999 -3.812 -0.92000002 2
6.5869999 -3.7609999 -0.78500003 35
6.592 -3.767 -0.66399997 41
7.0279999 -4.0219998 -0.57999998 5
6.9910002 -4.0079999 -0.449 9
6.4450002 -3.724 -0.99199998 24
6.507 -3.7590001 -0.88 39
6.54 -3.779 -0.76300001 69
6.5760002 -3.802 -0.64600003 41
6.9790001 -4.0409999 -0.55699998 6
6.9809999 -4.0500002 -0.42899999 4
6.4790001 -3.7869999 -0.98100001 9
6.4499998 -3.7690001 -0.85600001 29
6.5089998 -3.8050001 -0.74299997 55
6.5599999 -3.8369999 -0.62699997 41
6.948 -4.0700002 -0.53600001 6
6.9640002 -4.086 -0.40900001 8
6.4190001 -3.7950001 -0.95599997 1
6.4349999 -3.802 -0.838 13
6.4650002 -3.8210001 -0.72100002 29
6.5539999 -3.8759999 -0.60900003 40
6.9549999 -4.119 -0.51700002 6
6.9850001 -4.145 -0.38999999 0
6.355 -3.7980001 -0.93000001 12
6.434 -3.8429999 -0.82099998 3
6.4660001 -3.8629999 -0.70300001 12
6.658 -3.9809999 -0.60000002 10
6.6420002 -3.977 -0.47499999 27
32.358002 -19.41 -1.714 36
6.4549999 -3.898 -0.92699999 33
6.4400001 -3.888 -0.80299997 17
6.4219999 -3.8770001 -0.68000001 41
6.5749998 -3.973 -0.57300001 33
6.5819998 -3.9820001 -0.45100001 5
35.039001 -21.238001 -1.753 4
6.4359999 -3.927 -0.90700001 34
6.4460001 -3.9319999 -0.78600001 51
6.48 -3.9530001 -0.66799998 52
6.5599999 -4.0040002 -0.55299997 34
6.566 -4.013 -0.43000001 4
32.062 -19.634001 -1.505 1
6.4260001 -3.96 -0.88700002 33
6.441 -3.9679999 -0.76700002 49
6.4770002 -3.9909999 -0.648 42
6.5370002 -4.0300002 -0.53100002 12
6.5549998 -4.046 -0.40900001 8
39.388 -24.360001 -1.724 2
6.4190001 -3.9949999 -0.86799997 31
6.4289999 -3.9979999 -0.74599999 49
6.4889998 -4.0359998 -0.63 37
6.5619998 -4.0840001 -0.51200002 6
6.5469999 -4.0799999 -0.38800001 3
32.029999 -19.997999 -1.299 30
6.4260001 -4.0359998 -0.84899998 28
6.4310002 -4.0370002 -0.727 42
6.5370002 -4.1040001 -0.61400002 5
6.566 -4.125 -0.49200001 15
32.553001 -20.476 -1.824 9
32.082001 -20.215 -1.193 17
6.448 -4.0869999 -0.833 26
6.4400001 -4.079 -0.708 42
20.393 -12.918 -1.852 4
25.136 -15.931 -1.804 2
31.754999 -20.150999 -1.676 35
31.815001 -20.226 -1.076 23
6.4679999 -4.1339998 -0.815 30
6.4629998 -4.1290002 -0.69 35
21.055 -13.45 -1.844 4
26.546 -16.968 -1.817 2
34.176998 -21.871 -1.689 1
31.785999 -20.378 -0.96700001 17
6.474 -4.1719999 -0.79500002 27
17.951 -11.561 -1.859 6
22.277 -14.347 -1.8789999 38
27.796 -17.912001 -1.812 4
31.365999 -20.237 -1.444 24
31.773001 -20.537001 -0.85699999 1
15.837 -10.287 -1.8940001 10
18.445 -11.973 -1.849 5
22.125999 -14.362 -1.79 21
29.103001 -18.900999 -1.796 3
31.785999 -20.667999 -1.352 16
63.752998 -41.529999 -1.4960001 19
16.277 -10.653 -1.893 12
19.086 -12.484 -1.848 5
23.528 -15.388 -1.824 4
29.924 -19.58 -1.744 3
32.078999 -21.014999 -1.253 2
63.660999 -41.779999 -1.2640001 34
16.746 -11.039 -1.891 10
20.461 -13.478 -1.9119999 21
24.858 -16.374001 -1.84 4
30.292 -19.962999 -1.658 1
0 0 0 0
63.535999 -41.995998 -1.0319999 26
17.233 -11.438 -1.887 8
20.58 -13.65 -1.852 45
25.790001 -17.103001 -1.819 3
35.252998 -23.392 -1.803 6
50.719002 -33.691002 -1.615 2
63.558998 -42.299 -0.796 20
17.725 -11.842 -1.878 7
20.743999 -13.849 -1.793 8
27.674 -18.472 -1.853 7
37.842999 -25.271999 -1.799 3
58.438 -39.070999 -1.6440001 2
63.639999 -42.625 -0.55699998 16
18.341 -12.329 -1.878 7
22.322001 -14.993 -1.848 4
27.447001 -18.434 -1.738 7
40.713001 -27.355 -1.7869999 3
63.633999 -42.805 -1.5549999 20
0 0 0 0
19.281 -13.036 -1.905 29
23.271999 -15.721 -1.844 4
28.009001 -18.917999 -1.671 4
0 0 0 0
63.733002 -43.116001 -1.3150001 13
136.38901 -92.431 -0.15800001 27
19.356001 -13.158 -1.842 58
24.278999 -16.490999 -1.832 4
29.364 -19.941 -1.642 1
45.792999 -31.112 -1.666 3
0 0 0 0
136.07899 -92.712997 0.35499999 36
20.02 -13.678 -1.831 4
25.858999 -17.652 -1.855 6
32.037998 -21.865999 -1.669 11
0 0 0 0
76.092003 -52.012001 -0.98699999 17
0 0 0 0
21.341 -14.649 -1.8710001 4
25.981001 -17.818001 -1.767 10
32.070999 -21.992001 -1.55 3
59.161999 -40.585999 -1.701 5
75.693001 -51.981998 -0.69099998 14
0 0 0 0
22.288 -15.366 -1.8710001 4
26.030001 -17.93 -1.67 7
32.330002 -22.264 -1.439 3
60.299 -41.542 -1.498 26
60.396999 -41.653999 -0.31299999 32
60.428001 -41.747002 0.86699998 35
23.414 -16.205999 -1.878 5
26.246 -18.15 -1.584 0
0 0 0 0
60.299 -41.705002 -1.2640001 59
60.356998 -41.789001 -0.075999998 37
60.368 -41.868 1.1109999 37
24.784 -17.215 -1.89 8
27.393999 -19.011 -1.546 25
27.398001 -19.009001 -1.008 12
27.351999 -18.985001 -0.46599999 2
27.323999 -18.985001 0.071999997 1
27.346001 -19.033001 0.61199999 7
24.959 -17.393 -1.8049999 12
27.337999 -19.033001 -1.437 31
27.344 -19.032 -0.89700001 48
27.34 -19.035999 -0.35699999 79
27.325001 -19.046 0.182 75
27.311001 -19.068001 0.72000003 81
25.243 -17.641001 -1.727 17
27.305 -19.063999 -1.3279999 51
27.309999 -19.061001 -0.787 81
27.309999 -19.068001 -0.248 93
27.299 -19.08 0.29100001 109
27.278999 -19.098 0.82999998 97
0 0 0 0
27.281 -19.093 -1.2180001 52
27.312 -19.108999 -0.67799997 66
27.292 -19.101 -0.138 74
27.278999 -19.112 0.40099999 89
27.267 -19.136 0.94 79
26.674999 -18.726 -1.615 43
27.263 -19.120001 -1.109 53
27.319 -19.153 -0.56900001 9
27.299 -19.146 -0.028000001 31
27.275 -19.148001 0.50999999 41
27.27 -19.176001 1.052 29
27.091 -19.049999 -1.529 38
27.247999 -19.142 -1 55
27.205 -19.105 -0.45699999 1
27.295 -19.174999 0.079000004 5
27.284 -19.186001 0.62 9
27.273001 -19.209 1.16 19
27.233 -19.174999 -1.4299999 27
27.235001 -19.157 -0.89099997 33
74.559998 -52.428001 -0.95899999 22
27.211 -19.139 0.18799999 1
27.268 -19.198 0.73000002 2
27.277 -19.236 1.271 19
27.233999 -19.194 -1.321 28
27.233999 -19.174 -0.78200001 9
74.860001 -52.686001 -0.66299999 18
103.574 -72.917 1.1390001 27
27.233999 -19.191 0.83899999 1
27.184999 -19.188 1.378 15
27.223 -19.195999 -1.212 45
32.014999 -22.552999 -0.78899997 34
0 0 0 0
103.362 -72.805 1.551 16
27.174 -19.159 0.94800001 1
26.264999 -18.547001 1.437 7
27.242001 -19.212999 -1.101 45
32.011002 -22.552999 -0.66000003 25
0 0 0 0
88.758003 -62.527 1.693 8
27.254 -19.218 1.0599999 10
26.225 -18.521 1.5420001 5
27.235001 -19.205 -0.991 43
32.018002 -22.552999 -0.52999997 8
0 0 0 0
27.183001 -19.145 0.62699997 1
27.285 -19.233999 1.1720001 20
26.209999 -18.506001 1.648 17
27.239 -19.195999 -0.88200003 25
74.547997 -52.48 -0.935 22
103.638 -72.927002 0.755 16
27.257999 -19.184999 0.73900002 4
27.273001 -19.214001 1.281 24
26.242001 -18.516001 1.755 36
27.247 -19.183001 -0.76899999 6
74.903999 -52.676998 -0.63099998 16
27.268999 -19.169001 0.30899999 5
27.264999 -19.171 0.84799999 25
27.231001 -19.164 1.3890001 39
26.632 -18.771 1.8890001 41
0 0 0 0
27.297001 -19.17 -0.121 5
27.283001 -19.152 0.417 36
27.253 -19.136 0.958 70
27.249001 -19.149 1.499 81
26.833 -18.886 2.0109999 60
27.296 -19.157 -0.551 4
27.292999 -19.134001 -0.011 53
27.282 -19.118 0.52700001 95
27.264 -19.108999 1.066 87
26.893 -18.865 1.586 76
26.764 -18.802999 2.1110001 64
27.309 -19.125999 -0.442 44
27.294001 -19.094 0.097000003 104
27.289 -19.082001 0.63700002 104
27.290001 -19.086 1.176 86
26.747 -18.722 1.682 52
26.660999 -18.690001 2.2090001 42
27.302999 -19.073999 -0.333 82
27.309 -19.056999 0.205 98
27.319 -19.055 0.74299997 55
27.289 -19.037001 1.283 56
26.841 -18.74 1.793 41
26.690001 -18.662001 2.3139999 41
27.334 -19.041 -0.22400001 71
27.361 -19.038 0.31400001 13
60.229 -41.888 1.878 37
27.271999 -18.969999 1.3890001 66
27.052 -18.833 1.913 56
26.825001 -18.701 2.4289999 41
27.368999 -19.004 -0.116 1
60.348999 -41.855999 0.926 32
27.264 -18.9 0.95599997 2
27.295 -18.924 1.4960001 69
27.082001 -18.791 2.0190001 60
26.924999 -18.709 2.543 51
60.339001 -41.745998 -0.017000001 40
60.419998 -41.752998 1.169 32
27.337 -18.882 1.0650001 25
27.320999 -18.872999 1.601 71
26.808001 -18.532 2.1010001 42
27.01 -18.698999 2.652 59
60.467999 -41.669998 0.213 12
60.616001 -41.722 1.402 22
27.346001 -18.812 1.169 58
27.329 -18.802999 1.705 73
26.93 -18.542 2.2119999 53
27.059 -18.657 2.7590001 56
0 0 0 0
85.055 -58.289001 2.2969999 19
27.356001 -18.737 1.273 67
27.361 -18.740999 1.811 72
27.302 -18.715 2.346 69
27.051001 -18.568001 2.859 41
109.553 -74.810997 1.239 13
82.904999 -56.544998 2.556 13
27.385 -18.667 1.38 70
27.389999 -18.672001 1.916 73
27.372 -18.673 2.454 71
26.872999 -18.358 2.9389999 29
90.969002 -61.807999 1.373 9
82.931 -56.277 2.862 23
27.417999 -18.594 1.4809999 72
27.417 -18.594999 2.0179999 70
27.327999 -18.548 2.549 67
26.752001 -18.181 3.023 2
91.238998 -61.652 1.722 12
27.444 -18.521999 1.051 17
27.443001 -18.51 1.584 72
27.450001 -18.516001 2.1210001 68
27.43 -18.514 2.658 66
33.609001 -22.714001 3.9159999 7
91.328003 -61.355 2.0610001 12
27.48 -18.438999 1.151 3
50.609001 -33.937 3.1040001 8
61.928001 -41.527 5.006 19
56 -37.577 5.6230001 27
54.181999 -36.403999 6.506 46
81.903 -54.685001 2.152 17
81.57 -54.393002 3.7149999 33
50.810001 -33.860001 3.299 23
62.203999 -41.452 5.2490001 22
55.626999 -37.094002 5.7779999 31
54.196999 -36.186001 6.6929998 46
82.269997 -54.573002 2.457 25
81.779999 -54.178001 4.0190001 29
50.994999 -33.762001 3.4920001 34
55.654999 -36.846001 4.8909998 11
53.921001 -35.717999 5.7859998 29
54.354 -36.049 6.8969998 41
82.021004 -54.032001 2.7449999 21
82.188004 -54.071999 4.3299999 30
51.214001 -33.671001 3.6849999 18
55.762001 -36.66 5.092 36
53.936001 -35.480999 5.9710002 50
54.613998 -35.969002 7.1100001 40
81.955002 -53.596001 3.0320001 28
82.374001 -53.799999 4.6259999 26
51.455002 -33.584999 3.8770001 12
56.127998 -36.632999 5.3119998 41
54.049999 -35.293999 6.1599998 33
54.698002 -35.758999 7.3000002 28
81.998001 -53.219002 3.3150001 12
82.713997 -53.612999 4.9239998 24
51.672001 -33.469002 4.0669999 3
56.657001 -36.694 5.5500002 33
56.334 -36.502998 6.6040001 19
54.688999 -35.478001 7.4749999 37
83.050003 -53.470001 3.6459999 26
51.893002 -33.366001 3.266 12
56.942001 -36.588001 4.6690001 30
57.068001 -36.664001 5.7750001 28
55.074001 -35.403 6.6329999 12
55.113998 -35.465 7.7059999 40
57.997002 -37.032001 2.7379999 15
52.153 -33.257999 3.4489999 39
54.687 -34.848 4.6589999 3
56.990002 -36.313 5.9429998 39
55.342999 -35.278 6.8379998 28
55.347 -35.319 7.9089999 37
83.244003 -52.699001 4.2049999 18
52.412998 -33.134998 3.6389999 57
57.549999 -36.358002 5.086 27
57.143002 -36.094002 6.1370001 29
55.359001 -34.980999 7.0089998 7
55.297001 -34.98 8.0649996 43
83.551003 -52.417999 4.4899998 31
52.667 -32.999001 3.8210001 37
57.650002 -36.092999 5.2729998 33
57.416 -35.939999 6.3439999 26
60.094002 -37.632 7.789 6
55.374001 -34.713001 8.2360001 20
84.089996 -52.264999 4.7849998 23
52.960999 -32.874001 4.006 23
57.287998 -35.530998 5.414 35
57.042 -35.374001 6.4689999 23
61.153999 -37.938999 8.1009998 27
58.624001 -36.404999 8.8900003 15
53.285999 -32.803001 3.197 6
53.293999 -32.764 4.1929998 4
57.507999 -35.326 5.605 29
57.605 -35.379002 6.697 19
59.638 -36.640999 8.066 28
59.210999 -36.416 9.1379995 5
53.563 -32.646999 3.3729999 24
59.243 -36.057999 4.835 32
57.917999 -35.224998 5.809 26
53.493999 -32.526001 6.3730001 9
58.325001 -35.474998 8.0530005 6
53.637001 -32.652 8.4239998 3
53.870998 -32.499001 3.5480001 30
59.432999 -35.803001 5.0190001 22
58.773998 -35.375999 6.0599999 29
53.683998 -32.306 6.54 33
53.005001 -31.909 7.4549999 23
57.337002 -34.547001 9.1540003 30
54.213001 -32.362 3.727 33
59.646 -35.553001 5.204 22
59.669998 -35.535 6.3119998 25
53.835999 -32.050999 6.7020001 7
52.921001 -31.517 7.5809999 28
57.522999 -34.286999 9.3290005 29
0 0 0 0
59.587002 -35.131001 5.3590002 8
54.752998 -32.251999 5.9380002 4
53.984001 -31.792 6.8579998 4
53.500999 -31.514999 7.7989998 32
53.965 -31.812 8.882 38
0 0 0 0
0 0 0 0
54.945999 -32.001999 6.098 8
52.922001 -30.813 6.855 2
53.900002 -31.391001 7.9860001 20
51.848999 -30.219999 8.6569996 17
0 0 0 0
0 0 0 0
51.799999 -29.823 5.8779998 6
54.153 -31.164 7.1430001 15
52.377998 -30.148001 7.8839998 8
51.803001 -29.841999 8.7650003 26
55.589001 -31.700001 4.4120002 26
55.630001 -31.674999 5.428 52
51.967999 -29.562 6.0219998 7
57.986 -32.973999 7.7849998 29
52.394001 -29.799 8.0059996 10
52.058998 -29.628 8.9230003 25
0 0 0 0
0 0 0 0
47.787998 -26.853001 5.6459999 29
48.659 -27.33 6.6420002 18
52.626999 -29.562 8.1560001 24
52.387001 -29.450001 9.0909996 40
63.351002 -35.244999 5.3330002 23
55.018002 -30.561001 5.625 24
47.916 -26.589001 5.77 34
48.779999 -27.054001 6.7620001 35
52.837002 -29.309999 8.2950001 49
55.474998 -30.792 9.7360001 28
63.316002 -34.776001 5.473 31
0 0 0 0
47.438 -25.987 5.8119998 22
48.830002 -26.738001 6.8699999 19
53.081001 -29.066 8.4370003 30
54.91 -30.084999 9.7410002 35
49.859001 -27.025999 4.4180002 11
49.334999 -26.697001 5.257 5
47.473 -25.664 5.9120002 7
48.147999 -26.018 6.8670001 45
53.576 -28.951 8.6199999 24
55.055 -29.768999 9.868 12
49.889999 -26.681999 4.5279999 37
47.875 -25.565001 5.197 5
47.798 -25.493999 6.0479999 21
48.247002 -25.719999 6.9710002 51
53.737 -28.645 8.7419996 11
56.275002 -30.013 10.185 25
49.764 -26.249001 4.6149998 29
53.567001 -28.209 5.9200001 2
47.562 -25.021 6.1040001 52
48.363998 -25.427999 7.0770001 12
54.591 -28.700001 8.9770002 9
56.882 -29.921 10.389 8
53.951 -28.063 5.1079998 16
53.247002 -27.650999 5.9829998 17
48.202 -25 6.2709999 16
49.551998 -25.687 7.3330002 25
54.634998 -28.319 9.0699997 39
56.493999 -29.295 10.405 13
54.157001 -27.766001 5.2259998 10
49.460999 -25.316 5.6440001 10
48.895 -24.997999 6.4439998 35
49.301998 -25.190001 7.3769999 23
50.02 -25.552999 8.3830004 33
56.410999 -28.832001 10.474 22
0 0 0 0
50.359001 -25.398001 5.8319998 18
51.131001 -25.754 6.8210001 6
48.784 -24.555 7.3740001 38
48.230999 -24.275 8.1520004 8
0 0 0 0
49.205002 -24.483999 4.9180002 18
52.613998 -26.136999 6.1760001 28
51.432999 -25.518 6.941 41
48.813999 -24.201 7.4510002 34
48.112999 -23.85 8.1999998 3
0 0 0 0
49.375 -24.195 5.0100002 29
52.460999 -25.663 6.2379999 23
49.134998 -24.006001 6.698 37
48.688 -23.768999 7.494 41
51.438 -25.105 8.8299999 23
0 0 0 0
49.639 -23.945999 5.1110001 42
52.931 -25.488001 6.3660002 22
49.252998 -23.684999 6.7820001 17
48.709999 -23.407 7.5599999 45
50.594002 -24.305 8.7469997 31
0 0 0 0
49.827 -23.653 5.198 22
51.449001 -24.378 6.2540002 17
50.731998 -24.007999 7.046 22
49.102001 -23.216999 7.677 34
50.710999 -23.969 8.8210001 32
0 0 0 0
51.369999 -23.99 5.427 14
52.115002 -24.292 6.4000001 34
49.424 -23.009001 6.9219999 49
49.612999 -23.076 7.8109999 22
52.617001 -24.461 9.2040005 4
0 0 0 0
53.101002 -24.386999 5.6719999 22
51.631001 -23.667 6.3969998 21
47.426998 -21.711 6.691 6
49.647999 -22.705999 7.8639998 44
47.403 -21.669001 8.3360004 2
0 0 0 0
53.192001 -24.016001 5.7420001 27
51.888 -23.382 6.4840002 4
47.632 -21.431 6.7649999 17
50.014999 -22.483 7.9650002 53
52.009998 -23.365999 9.1879997 5
0 0 0 0
53.561001 -23.761999 5.836 15
52.766998 -23.365999 6.6409998 3
49.157001 -21.733999 7.0250001 54
50.741001 -22.415001 8.1219997 29
47.277 -20.872999 8.3859997 18
48.321999 -21.334999 9.4130001 3
53.442001 -23.294001 5.869 11
53.138 -23.115 6.7309999 6
48.598 -21.107 6.9809999 24
47.917999 -20.789 7.7030001 8
47.789001 -20.719999 8.5059996 20
47.699001 -20.679001 9.3190002 4
53.659 -22.966999 5.9390001 27
47.553001 -20.309999 6.059 14
48.603001 -20.728001 7.013 6
47.872002 -20.393 7.723 17
46.785 -19.92 8.3500004 2
49.428001 -21.041 9.677 7
50.341 -21.15 5.6040001 19
0 0 0 0
48.619999 -20.351 7.0440001 11
49.125 -20.538 7.9499998 21
46.962002 -19.622 8.4020004 20
48.502998 -20.261 9.5129995 3
50.144001 -20.676001 5.6139998 26
48.471001 -19.943001 6.2340002 16
48.880001 -20.08 7.105 10
47.119999 -19.333 7.645 18
48.733002 -19.982 8.7360001 13
48.873001 -20.032 9.5970001 25
50.613998 -20.472 5.6919999 39
49.053001 -19.797001 6.329 12
0 0 0 0
47.226002 -19.007 7.6750002 11
47.938 -19.278 8.6040001 14
48.616001 -19.542999 9.5559998 12
49.351002 -19.573999 5.572 21
0 0 0 0
48.823002 -19.285 7.1279998 26
48.194 -19.011 7.8429999 5
48.811001 -19.240999 8.7670002 9
49.706001 -19.584999 9.7740002 22
80.581001 -31.329 9.1219997 27
0 0 0 0
0 0 0 0
0 0 0 0
0 0 0 0
49.152 -18.978001 9.6630001 19
80.397003 -30.625999 9.118 39
0 0 0 0
0 0 0 0
0 0 0 0
49.435001 -18.709 8.8800001 5
48.957001 -18.517 9.6199999 6
52.960999 -19.757999 6.0149999 42
0 0 0 0
0 0 0 0
0 0 0 0
0 0 0 0
48.549999 -17.98 9.5290003 4
53.081001 -19.386999 6.0289998 34
53.869999 -19.629999 6.9920001 48
0 0 0 0
0 0 0 0
0 0 0 0
0 0 0 0
45.071999 -16.111 5.1170001 51
45.389999 -16.187 5.8870001 20
0 0 0 0
0 0 0 0
0 0 0 0
0 0 0 0
45.205002 -15.805 5.1230001 46
45.419998 -15.84 5.8790002 49
71.434998 -24.864 10.406 12
0 0 0 0
0 0 0 0
0 0 0 0
44.931 -15.36 5.079 28
45.257 -15.433 5.842 62
52.174 -17.753 7.5780001 6
0 0 0 0
0 0 0 0
0 0 0 0
45.145 -15.084 5.0879998 55
45.16 -15.048 5.8109999 82
52.271999 -17.382 7.5679998 20
46.833 -15.545 7.5409999 20
0 0 0 0
0 0 0 0
45.5 -14.848 5.1059999 49
44.952 -14.631 5.7600002 64
52.034 -16.896999 7.5019999 20
46.909 -15.206 7.5209999 60
0 0 0 0
0 0 0 0
44.965 -14.326 5.0190001 29
45.202 -14.364 5.7620001 63
46.443001 -14.722 6.6630001 35
47.249001 -14.948 7.54 54
47.289001 -14.937 8.3140001 29
0 0 0 0
44.688999 -13.896 4.9590001 45
45.624001 -14.146 5.7839999 17
46.574001 -14.407 6.6459999 62
48.290001 -14.905 7.664 66
47.014 -14.49 8.2220001 45
0 0 0 0
44.726002 -13.565 4.928 8
47.250999 -14.288 5.9510002 3
46.970001 -14.167 6.6609998 70
47.536999 -14.305 7.4990001 53
46.655998 -14.016 8.1120005 31
0 0 0 0
47.234001 -13.959 5.1609998 64
48.359001 -14.25 6.0419998 20
47.903 -14.078 6.743 26
47.48 -13.925 7.4400001 61
47.075001 -13.784 8.132 35
0 0 0 0
48.057999 -13.841 5.2049999 2
48.264 -13.859 5.9819999 43
48.729 -13.952 6.8080001 37
47.972 -13.706 7.4640002 47
47.556999 -13.561 8.1599998 56
0 0 0 0
70.807999 -19.858 7.592 38
45.872002 -12.823 5.6329999 5
48.983002 -13.657 6.7849998 27
49.380001 -13.734 7.6209998 46
47.915001 -13.3 8.1590004 62
0 0 0 0
47.377998 -12.929 5.026 3
46.212002 -12.568 5.618 68
48.313 -13.101 6.6300001 3
48.801998 -13.203 7.4660001 33
48.337002 -13.049 8.1630001 39
0 0 0 0
45.855999 -12.17 4.8049998 27
46.306 -12.248 5.5689998 82
49.294998 -12.998 6.6960001 39
48.505001 -12.756 7.3509998 42
50.173 -13.168 8.3979998 4
0 0 0 0
45.907001 -11.837 4.7470002 13
46.544998 -11.962 5.5310001 71
48.907001 -12.53 6.572 42
48.592999 -12.418 7.2909999 53
0 0 0 0
0 0 0 0
47.801998 -11.974 4.8720002 14
45.799 -11.431 5.3720002 59
49.589001 -12.337 6.585 53
48.264999 -11.974 7.1630001 62
47.511002 -11.761 7.7979999 21
0 0 0 0
47.522999 -11.553 4.77 19
46.221001 -11.194 5.3460002 80
49.436001 -11.933 6.4819999 35
48.042 -11.565 7.0469999 63
47.693001 -11.451 7.743 31
0 0 0 0
47.643002 -11.234 4.7010002 5
46.756001 -10.985 5.329 79
49.992001 -11.708 6.4679999 18
48.875 -11.408 7.0819998 75
47.716999 -11.111 7.6599998 4
0 0 0 0
0 0 0 0
46.455002 -10.581 5.2119999 40
49.685001 -11.276 6.3379998 53
48.653999 -11.007 6.9590001 53
48.757999 -10.998 7.7309999 19
0 0 0 0
0 0 0 0
46.558998 -10.265 5.1339998 39
0 0 0 0
0 0 0 0
48.953999 -10.689 7.6630001 36
0 0 0 0
0 0 0 0
49.717999 -10.605 5.382 14
0 0 0 0
0 0 0 0
0 0 0 0
0 0 0 0
121.832 -25.233999 11.092 16
0 0 0 0
0 0 0 0
47.334 -9.6859999 6.4699998 13
0 0 0 0
0 0 0 0
83.900002 -16.780001 7.4549999 12
85.033997 -16.93 8.8389997 19
0 0 0 0
0 0 0 0
0 0 0 0
0 0 0 0
83.444 -16.099001 7.224 40
83.134003 -15.964 8.4490004 57
83.783997 -16.024 9.7849998 36
0 0 0 0
0 0 0 0
0 0 0 0
84.68 -15.743 7.1300001 34
82.231003 -15.214 8.158 42
82.843002 -15.263 9.4720001 45
83.785004 -15.373 10.854 17
0 0 0 0
0 0 0 0
0 0 0 0
82.542999 -14.702 7.9829998 23
82.874001 -14.693 9.2639999 42
84.446999 -14.911 10.723 36
0 0 0 0
0 0 0 0
84.126999 -14.486 6.6630001 17
82.948997 -14.207 7.8060002 26
83.475998 -14.228 9.1120005 38
83.318001 -14.137 10.356 34
0 0 0 0
51.123001 -8.6049995 7.9159999 17
85.420998 -14.124 6.5370002 7
86.360001 -14.201 7.8940001 10
83.867996 -13.721 8.9250002 25
83.519997 -13.604 10.15 9
0 0 0 0
51.112 -8.2580004 7.77 50
86.240997 -13.68 6.3610001 18
81.043999 -12.787 7.1859999 33
80.886002 -12.695 8.3830004 26
85.125 -13.298 10.107 40
0 0 0 0
51.051998 -7.9050002 7.6139998 37
86.271004 -13.109 6.1170001 14
80.921997 -12.225 6.9400001 12
80.834999 -12.148 8.1429996 33
81.176003 -12.136 9.3979998 23
86.110001 -12.811 11.272 12
50.922001 -7.5440001 7.441 57
0 0 0 0
82.613998 -11.937 6.8429999 12
70.492996 -10.127 6.8909998 6
80.934998 -11.565 9.1239996 19
84.938004 -12.075 10.858 36
46.804001 -6.6220002 6.6929998 4
83.522003 -11.595 5.4239998 46
85.833 -11.84 6.8449998 10
69.709999 -9.5579996 6.598 48
70.848999 -9.6590004 7.7670002 27
50.105 -6.796 6.2490001 10
47.362 -6.3899999 6.6220002 19
84.899002 -11.232 5.2449999 45
84.713997 -11.133 6.487 15
69.829002 -9.1190004 6.3860002 37
49.93 -6.4809999 5.3119998 2
50.167999 -6.4770002 6.0929999 29
47.216999 -6.0630002 6.448 35
83.950996 -10.567 4.9169998 41
86.938004 -10.87 6.3769999 17
69.827003 -8.6730003 6.1589999 18
49.979 -6.1690001 5.1529999 57
49.688 -6.099 5.8709998 57
47.264999 -5.7670002 6.296 23
50.136002 -5.994 2.77 47
50.082001 -5.9439998 3.506 59
70.459 -8.3070002 5.9780002 15
50.108002 -5.868 4.9980001 27
49.959999 -5.8150001 5.7329998 61
50.167 -5.8039999 6.5120001 12
100.287 -11.364 5.2010002 13
98.014 -11.021 6.527 33
81.642998 -9.1149998 6.6469998 17
70.560997 -7.8249998 6.796 15
50.335999 -5.5430002 5.599 6
50.701 -5.546 6.402 4
85.023003 -9.1090002 4.112 38
97.984001 -10.413 6.1810002 7
81.339996 -8.5760002 6.3340001 6
73.108002 -7.6500001 6.7789998 6
68.807999 -7.151 7.4089999 20
68.551003 -7.0749998 8.4099998 38
76.581001 -7.7309999 3.4260001 10
97.823997 -9.7950001 5.816 12
85.029999 -8.4429998 6.3119998 7
74.954002 -7.3829999 6.6760001 15
68.653 -6.71 7.138 24
68.313004 -6.6300001 8.1269999 34
75.816002 -7.1950002 3.1140001 39
97.916 -9.2130003 5.4619999 17
0 0 0 0
75.109001 -6.9439998 6.4109998 14
68.440002 -6.2729998 6.8579998 34
68.401001 -6.2220001 7.8779998 25
55.789001 -4.96 2.079 3
75.751999 -6.6700001 3.9349999 7
71.546997 -6.2399998 4.7719998 14
75.121002 -6.4949999 6.1240001 13
68.546997 -5.8740001 6.6069999 4
67.792 -5.7610002 7.5479999 32
75.285004 -6.2490001 2.516 21
76.371002 -6.277 3.674 26
71.737999 -5.8369999 4.5079999 9
84.083 -6.777 6.5300002 15
68.592003 -5.473 6.3429999 11
67.842003 -5.3629999 7.2849998 25
56.778999 -4.3800001 1.6720001 4
71.699997 -5.473 3.164 8
95.401001 -7.2030001 5.6149998 9
110.255 -8.2410002 8.1210003 24
70.115997 -5.1859999 6.204 8
67.800003 -4.9619999 7.007 35
56.061001 -4.0019999 1.424 6
71.801003 -5.0679998 2.878 23
95.458 -6.6599998 5.2309999 12
96.138 -6.6300001 6.6880002 21
72.237 -4.928 6.0970001 28
68.651001 -4.632 6.816 4
56.116001 -3.688 1.194 19
71.872002 -4.665 2.5840001 20
71.528 -4.5840001 3.6240001 33
71.251999 -4.5089998 4.6609998 32
72.466003 -4.533 5.816 5
73.585999 -4.5469999 6.9990001 11
55.967999 -3.365 0.95499998 46
55.875999 -3.312 1.772 4
71.982002 -4.2080002 3.3410001 5
98.116997 -5.658 6.0009999 9
71.057999 -4.0419998 5.3979998 15
115.165 -6.467 10.461 13
113.525 -6.1929998 1.446 13
109.605 -5.888 3.0020001 26
108.026 -5.7160001 4.546 33
72.302002 -3.7679999 4.1079998 15
112.344 -5.7659998 8.0450001 27
71.251999 -3.602 6.1589999 9
61.734001 -3.029 0.51300001 7
115.61 -5.5770001 2.655 26
108.546 -5.1479998 4.0879998 26
109.734 -5.1170001 5.7509999 23
72.678001 -3.3340001 4.8850002 29
75.027 -3.382 6.152 7
59.105 -2.579 0.223 28
0 0 0 0
107.019 -4.4980001 3.549 48
111.174 -4.5840001 5.3249998 44
106.931 -4.3249998 6.7020001 8
75.160004 -2.9849999 5.8249998 8
58.777 -2.253 -0.045000002 56
110.799 -4.1609998 1.541 9
107.172 -3.938 3.066 19
106.211 -3.822 4.6059999 34
107.453 -3.779 6.244 21
107.868 -3.71 7.8639998 37
58.063999 -1.921 -0.317 73
83.665001 -2.7 0.76999998 5
83.777 -2.6370001 2.003 40
106.451 -3.263 4.1100001 26
106.724 -3.187 5.697 27
107.667 -3.132 7.3400002 26
0 0 0 0
58.405998 -1.582 0.257 26
82.523003 -2.1689999 1.5779999 7
107.985 -2.753 3.6570001 39
106.853 -2.6370001 5.1919999 33
107.895 -2.5780001 6.8390002 34
51.762001 -1.179 -0.78399998 9
57.881001 -1.272 -0.026000001 57
109.763 -2.325 1.5650001 9
0 0 0 0
52.513 -1.031 2.3 29
52.285999 -0.98400003 3.0610001 56
49.734001 -0.88200003 -1.001 4
24.146999 -0.40900001 -0.13 2
24.208 -0.39199999 0.226 88
52.528 -0.80900002 1.265 32
52.941002 -0.77499998 2.059 21
53.174 -0.73699999 2.8540001 2
24.868999 -0.31900001 -0.62400001 31
24.452 -0.29300001 -0.255 119
23.245001 -0.26100001 0.1 47
52.568001 -0.55199999 1.0039999 44
94.653 -0.91900003 3.2060001 43
110.688 -0.98900002 5.3870001 31
22.558001 -0.18000001 -0.68199998 24
22.688999 -0.163 -0.352 79
28.514999 -0.184 -0.02 43
28.573999 -0.161 0.40000001 0
65.387001 -0.31799999 1.882 24
94.977997 -0.38999999 4.1420002 39
23.438999 -0.075999998 -0.82999998 3
24.448 -0.061000001 -0.505 150
28.947001 -0.048999999 -0.17 19
29.156 -0.027000001 0.259 22
94.403 -0.015 2.2360001 32
94.589996 0.057999998 3.6400001 41
22.316999 0.029999999 -0.90799999 46
24.006001 0.052000001 -0.62199998 150
29.066 0.085000001 -0.324 6
59.040001 0.21799999 0.21699999 30
64.753998 0.28999999 1.196 20
94.587997 0.498 3.1470001 41
21.528999 0.12800001 -0.99199998 66
23.752001 0.15899999 -0.74199998 99
29.714001 0.222 -0.48800001 87
30.042999 0.249 -0.048999999 48
64.499001 0.583 0.85100001 46
95.047997 0.93300003 2.661 29
21.472 0.22400001 -1.1059999 56
0 0 0 0
29.780001 0.35800001 -0.65100002 36
30.563 0.38999999 -0.214 33
30.688 0.41499999 0.23899999 15
64.417 0.92199999 1.457 7
21.450001 0.31900001 -1.223 70
21.872999 0.34099999 -0.92199999 73
26.16 0.428 -0.71399999 1
52.424999 0.90100002 -0.65499997 4
59.389 1.066 0.139 5
109.697 2.0550001 1.8839999 9
21.59 0.41499999 -1.353 56
21.473 0.42899999 -1.026 72
26.024 0.53899997 -0.85600001 42
31.664 0.68000001 -0.56999999 9
58.785999 1.308 -0.185 4
0 0 0 0
21.636999 0.50800002 -1.479 39
21.521 0.51999998 -1.149 66
22.67 0.565 -0.87300003 36
29.129999 0.74800003 -0.68699998 31
56.417 1.492 -0.49200001 20
31.959 0.87 0.19599999 49
21.437 0.59200001 -1.59 12
21.593 0.61199999 -1.278 71
21.705999 0.63099998 -0.95999998 73
28.094 0.838 -0.82300001 55
32.060001 0.98100001 -0.461 25
32.171001 1.008 0.016000001 30
20.534 0.64999998 -1.642 15
21.865999 0.708 -1.42 51
21.563999 0.71399999 -1.0779999 68
23.033001 0.77999997 -0.80699998 13
0 0 0 0
32.358002 1.145 -0.168 37
19.362 0.69 -1.663 13
21.620001 0.78500003 -1.531 20
21.621 0.801 -1.206 60
22.017 0.83200002 -0.89899999 75
29.417 1.135 -0.76200002 39
32.492001 1.278 -0.35699999 17
18.294001 0.722 -1.681 12
21.177999 0.85100001 -1.626 17
21.819 0.89200002 -1.346 59
21.622 0.89999998 -1.008 68
23.346001 0.98900002 -0.73900002 1
32.139999 1.385 -0.53600001 28
17.375 0.75099999 -1.7 11
19.790001 0.86900002 -1.637 14
21.802 0.97299999 -1.474 36
21.753 0.986 -1.143 61
22.711 1.0470001 -0.852 28
0 0 0 0
16.472 0.77200001 -1.712 10
18.739 0.89099997 -1.663 13
21.527 1.039 -1.584 16
21.756001 1.0650001 -1.272 65
21.775999 1.0829999 -0.94599998 64
26.905001 1.358 -0.76599997 40
15.674 0.79100001 -1.727 10
17.707001 0.90499997 -1.6799999 11
20.385 1.056 -1.625 14
17.298 0.90899998 -1.117 4
21.767 1.16 -1.0779999 64
23.291 1.2589999 -0.80400002 15
14.887 0.80299997 -1.734 11
16.818001 0.91900003 -1.701 13
19.179001 1.061 -1.647 13
21.729 1.217 -1.536 17
17.271999 0.98000002 -0.95999998 49
21.969999 1.263 -0.89099997 63
14.152 0.81199998 -1.738 11
15.935 0.92500001 -1.7130001 11
17.488001 1.027 -1.613 11
17.292999 1.028 -1.331 47
17.193001 1.034 -1.062 58
21.813999 1.3279999 -1.018 63
13.495 0.81800002 -1.743 11
15.157 0.92900002 -1.725 11
17.124001 1.062 -1.686 10
19.603001 1.229 -1.63 14
17.129 1.086 -1.164 58
17.099001 1.097 -0.903 37
12.879 0.82300001 -1.747 11
14.374 0.92699999 -1.728 11
16.333 1.0650001 -1.712 13
0 0 0 0
17.084999 1.137 -1.268 37
16.993999 1.1440001 -1.003 60
12.318 0.82499999 -1.752 11
13.662 0.92400002 -1.73 11
15.487 1.057 -1.722 12
17.021999 1.174 -1.631 10
17.011 1.1849999 -1.37 41
16.943001 1.193 -1.1059999 48
11.799 0.82599998 -1.756 13
13.074 0.92299998 -1.742 11
14.682 1.046 -1.727 12
16.618 1.196 -1.699 10
17.038 1.238 -1.4809999 9
16.912001 1.242 -1.2130001 44
11.307 0.82499999 -1.7589999 13
12.486 0.91900003 -1.747 12
13.922 1.033 -1.73 12
15.75 1.179 -1.7130001 12
16.962999 1.2819999 -1.584 14
16.819 1.284 -1.314 55
10.875 0.824 -1.765 13
11.935 0.912 -1.749 13
13.288 1.024 -1.739 12
14.919 1.159 -1.721 12
16.743 1.312 -1.673 8
16.837 1.331 -1.423 42
10.452 0.82099998 -1.768 12
11.432 0.90399998 -1.752 14
12.687 1.011 -1.745 11
14.165 1.1390001 -1.727 12
16.049999 1.301 -1.7079999 11
16.940001 1.386 -1.543 29
10.056 0.81599998 -1.77 12
10.982 0.898 -1.758 13
12.11 0.99800003 -1.748 11
13.482 1.119 -1.734 11
15.205 1.272 -1.719 12
16.664 1.406 -1.626 14
9.6940002 0.81199998 -1.774 12
10.55 0.889 -1.762 12
11.593 0.98400003 -1.752 12
12.851 1.099 -1.74 12
14.388 1.24 -1.723 12
16.302999 1.4170001 -1.701 13
9.3520002 0.80599999 -1.778 11
10.136 0.87900001 -1.763 12
11.116 0.97100002 -1.757 14
12.275 1.08 -1.7460001 11
13.685 1.2130001 -1.7309999 12
15.395 1.375 -1.7079999 12
9.0270004 0.79900002 -1.78 12
9.7639999 0.87 -1.767 11
10.677 0.958 -1.761 13
11.735 1.0599999 -1.749 11
13.022 1.184 -1.7359999 11
14.595 1.337 -1.7180001 12
8.7229996 0.792 -1.7819999 11
9.4219999 0.861 -1.772 13
10.264 0.94400001 -1.765 12
11.247 1.041 -1.7539999 14
12.421 1.1569999 -1.74 11
13.842 1.298 -1.722 12
8.4440002 0.78500003 -1.786 11
9.0979996 0.85100001 -1.775 12
9.8760004 0.92900002 -1.767 11
10.804 1.023 -1.7589999 13
11.877 1.131 -1.745 12
13.214 1.268 -1.734 12
8.1800003 0.77700001 -1.789 11
8.79 0.83899999 -1.778 12
9.5179996 0.91399997 -1.77 12
10.366 1.002 -1.76 12
11.379 1.107 -1.751 14
12.601 1.234 -1.739 12
7.9299998 0.76899999 -1.7920001 10
8.4969997 0.82800001 -1.78 11
9.1809998 0.89999998 -1.773 12
9.9770002 0.98299998 -1.7640001 11
10.902 1.081 -1.753 13
12.037 1.201 -1.743 11
7.697 0.75999999 -1.796 10
8.2370005 0.81800002 -1.784 11
8.8870001 0.88700002 -1.779 12
9.6129999 0.96499997 -1.767 12
10.487 1.059 -1.7589999 12
11.515 1.17 -1.747 12
7.4749999 0.75199997 -1.8 11
7.9910002 0.80699998 -1.79 11
8.5830002 0.87199998 -1.78 11
9.2749996 0.94700003 -1.771 12
10.085 1.036 -1.762 12
11.05 1.142 -1.753 13
7.283 0.745 -1.808 10
7.7639999 0.79699999 -1.7970001 11
8.3079996 0.85699999 -1.783 11
8.9630003 0.93000001 -1.776 12
9.7299995 1.015 -1.7690001 12
10.594 1.112 -1.756 12
7.0370002 0.73000002 -1.8 12
7.5339999 0.78500003 -1.799 10
8.0640001 0.84399998 -1.79 11
8.665 0.912 -1.779 12
9.3769999 0.99299997 -1.772 12
10.2 1.086 -1.762 12
6.8520002 0.72100002 -1.804 10
7.3169999 0.773 -1.801 10
7.8099999 0.829 -1.79 10
8.3879995 0.89499998 -1.783 11
9.0489998 0.97100002 -1.774 11
9.8210001 1.059 -1.765 12
6.6680002 0.71100003 -1.806 11
7.0910001 0.759 -1.798 11
7.598 0.81699997 -1.7970001 10
8.1230001 0.87800002 -1.785 10
8.7489996 0.94999999 -1.778 11
9.4659996 1.033 -1.768 12
6.4959998 0.70099998 -1.8099999 11
6.8800001 0.745 -1.7970001 11
7.3720002 0.80199999 -1.799 12
7.888 0.86199999 -1.791 11
8.4610004 0.92900002 -1.78 11
9.1359997 1.008 -1.772 12
6.3319998 0.69 -1.813 11
6.6999998 0.73299998 -1.801 12
7.1599998 0.787 -1.801 11
7.6469998 0.84399998 -1.793 12
8.1969995 0.90899998 -1.784 11
8.8249998 0.98400003 -1.775 12
6.1659999 0.67900002 -1.814 11
6.5380001 0.722 -1.807 11
6.9520001 0.77100003 -1.801 12
7.4390001 0.829 -1.799 10
7.961 0.89099997 -1.791 10
8.5360003 0.95999998 -1.779 11
6.0100002 0.667 -1.8150001 10
6.3579998 0.708 -1.806 11
6.7659998 0.75700003 -1.804 11
7.2179999 0.81099999 -1.8 11
7.723 0.87199998 -1.795 10
8.2770004 0.93900001 -1.784 11
5.8600001 0.65600002 -1.816 10
6.2020001 0.69599998 -1.8099999 12
6.5960002 0.74299997 -1.809 12
7.0089998 0.79299998 -1.8 11
7.487 0.85100001 -1.795 12
8.0240002 0.91600001 -1.788 11
5.7150002 0.64399999 -1.816 10
6.0380001 0.68300003 -1.8099999 11
6.427 0.72899997 -1.812 12
6.8179998 0.77600002 -1.802 11
7.2649999 0.83099997 -1.795 11
7.7849998 0.89399999 -1.791 10
5.572 0.63099998 -1.8150001 10
5.888 0.66900003 -1.811 11
6.2540002 0.71399999 -1.811 12
6.6459999 0.76099998 -1.807 11
7.0700002 0.81300002 -1.799 11
7.5430002 0.87099999 -1.791 11
5.4439998 0.62 -1.817 10
5.7540002 0.65700001 -1.814 10
6.099 0.699 -1.813 12
6.4640002 0.74400002 -1.806 11
6.8709998 0.79299998 -1.799 12
7.336 0.85100001 -1.795 12
5.316 0.60799998 -1.817 11
5.6129999 0.64399999 -1.814 11
5.9520001 0.685 -1.8150001 11
6.3099999 0.72899997 -1.811 11
6.698 0.77600002 -1.8049999 11
7.1170001 0.82800001 -1.794 11
5.1950002 0.59600002 -1.818 10
5.467 0.62900001 -1.8099999 11
5.8049998 0.67000002 -1.8150001 11
6.1459999 0.71200001 -1.811 11
6.5209999 0.75800002 -1.8049999 12
6.9289999 0.80900002 -1.7970001 10
5.0760002 0.58399999 -1.817 10
5.3530002 0.61699998 -1.814 11
5.6620002 0.65499997 -1.814 10
5.9959998 0.69599998 -1.812 11
6.3569999 0.74000001 -1.807 12
6.7480001 0.78899997 -1.8 11
4.9549999 0.56999999 -1.814 9
5.2399998 0.60500002 -1.818 11
5.5250001 0.63999999 -1.813 10
5.8499999 0.67900002 -1.813 11
6.2010002 0.72299999 -1.809 12
6.579 0.76999998 -1.803 11
4.8600001 0.56 -1.819 10
5.1199999 0.59100002 -1.817 11
5.4060001 0.62599999 -1.816 11
5.704 0.662 -1.811 10
6.0469999 0.70499998 -1.8099999 11
6.4029999 0.74900001 -1.802 12
4.7649999 0.54900002 -1.822 10
5.0110002 0.57800001 -1.819 10
5.2870002 0.61199999 -1.818 12
5.5819998 0.648 -1.8150001 10
5.9039998 0.68800002 -1.811 11
6.243 0.73000002 -1.803 12
4.6719999 0.537 -1.825 10
4.902 0.565 -1.818 11
5.178 0.59799999 -1.821 11
5.4559999 0.63300002 -1.816 11
5.7729998 0.671 -1.814 10
6.0879998 0.71100003 -1.803 12
4.5819998 0.52600002 -1.8279999 10
4.8039999 0.55299997 -1.8200001 11
5.066 0.58399999 -1.821 11
5.3319998 0.61699998 -1.8150001 12
5.6300001 0.653 -1.812 10
5.9549999 0.69300002 -1.807 11
4.4860001 0.51300001 -1.826 10
4.7030001 0.53899997 -1.8200001 11
4.954 0.56999999 -1.8200001 10
5.2129998 0.60100001 -1.814 11
5.4720001 0.63300002 -1.802 11
5.796 0.67199999 -1.802 11
4.4029999 0.50199997 -1.829 10
4.6199999 0.528 -1.825 10
4.8509998 0.55500001 -1.8200001 11
5.1069999 0.58600003 -1.817 10
5.3800001 0.62 -1.813 11
5.664 0.65399998 -1.803 10
4.3200002 0.49000001 -1.83 10
4.5279999 0.51499999 -1.825 11
4.7490001 0.54100001 -1.819 10
5.0040002 0.57200003 -1.819 10
5.2649999 0.60299999 -1.813 11
5.5229998 0.63499999 -1.799 11
4.2360001 0.47799999 -1.83 9
4.441 0.50199997 -1.827 11
4.658 0.528 -1.821 12
4.8909998 0.55500001 -1.816 11
5.1599998 0.588 -1.816 11
5.4320002 0.62 -1.8099999 11
4.1529999 0.46599999 -1.829 9
4.362 0.49000001 -1.829 10
4.573 0.51499999 -1.824 10
4.7919998 0.54100001 -1.816 10
5.0560002 0.57200003 -1.818 11
5.3299999 0.60500002 -1.8150001 11
4.0780001 0.454 -1.83 9
4.283 0.477 -1.831 11
4.493 0.50199997 -1.8279999 11
4.704 0.52700001 -1.819 11
4.9499998 0.55599999 -1.817 11
5.2179999 0.58700001 -1.8150001 10
4.007 0.442 -1.832 9
4.1989999 0.46399999 -1.829 10
4.4039998 0.48800001 -1.826 10
4.6170001 0.51300001 -1.821 11
4.8470001 0.53899997 -1.8150001 11
5.112 0.56999999 -1.8150001 11
3.9389999 0.43099999 -1.8329999 8
4.125 0.45199999 -1.83 10
4.3249998 0.47499999 -1.8279999 11
4.5320001 0.498 -1.822 11
4.756 0.52399999 -1.817 11
5.0050001 0.55299997 -1.814 11
3.8759999 0.41999999 -1.836 9
4.046 0.43799999 -1.8279999 10
4.2470002 0.461 -1.8279999 10
4.4590001 0.48500001 -1.827 10
4.664 0.509 -1.817 10
4.9060001 0.53600001 -1.814 11
3.8139999 0.40799999 -1.839 8
3.9849999 0.42699999 -1.8329999 10
4.178 0.44800001 -1.832 10
4.3740001 0.47 -1.826 11
4.585 0.49399999 -1.8200001 10
4.8130002 0.51999998 -1.8150001 10
3.7509999 0.39700001 -1.84 9
3.9200001 0.41499999 -1.835 9
4.1040001 0.435 -1.831 10
4.3049998 0.45699999 -1.83 11
4.5019999 0.479 -1.8200001 10
4.7210002 0.50300002 -1.8150001 10
3.688 0.38499999 -1.84 8
3.859 0.403 -1.8380001 10
4.0300002 0.421 -1.83 9
4.2290001 0.44299999 -1.83 10
4.4260001 0.465 -1.823 10
4.6420002 0.48899999 -1.818 11
3.6289999 0.373 -1.841 9
3.793 0.38999999 -1.837 10
3.967 0.40900001 -1.8329999 10
4.1589999 0.42899999 -1.831 10
4.3520002 0.44999999 -1.824 11
4.5640001 0.47299999 -1.8200001 11
3.5710001 0.361 -1.841 8
3.7309999 0.37799999 -1.837 9
3.8989999 0.396 -1.831 9
4.0819998 0.41499999 -1.8279999 10
4.2800002 0.43599999 -1.825 10
4.4850001 0.458 -1.821 10
3.5209999 0.35100001 -1.845 8
3.677 0.366 -1.839 9
3.8469999 0.384 -1.837 9
4.0180001 0.40200001 -1.829 10
4.211 0.42199999 -1.827 10
4.4159999 0.44299999 -1.824 10
3.4649999 0.33899999 -1.844 8
3.625 0.35499999 -1.8430001 9
3.786 0.37099999 -1.837 9
3.9519999 0.38800001 -1.829 10
4.1370001 0.40700001 -1.825 10
4.3410001 0.428 -1.824 10
3.4189999 0.32800001 -1.848 8
3.5699999 0.34299999 -1.8430001 8
3.7360001 0.359 -1.841 9
3.8959999 0.375 -1.8329999 9
4.073 0.39300001 -1.827 10
4.2750001 0.41299999 -1.826 10
3.362 0.31600001 -1.845 7
3.5209999 0.331 -1.846 9
3.6849999 0.347 -1.845 9
3.8369999 0.36199999 -1.8329999 9
4.0149999 0.37900001 -1.829 9
4.21 0.398 -1.8279999 9
3.312 0.30399999 -1.845 7
3.47 0.31900001 -1.847 8
3.622 0.333 -1.841 9
3.7880001 0.34900001 -1.837 9
3.951 0.36500001 -1.829 9
4.1430001 0.38299999 -1.8279999 9
3.2690001 0.29300001 -1.848 7
3.4159999 0.30700001 -1.845 8
3.5829999 0.322 -1.848 9
3.7320001 0.336 -1.8380001 9
3.895 0.35100001 -1.83 9
4.0770001 0.368 -1.826 9
3.2219999 0.28200001 -1.848 7
3.369 0.29499999 -1.845 9
3.5250001 0.30899999 -1.844 9
3.6830001 0.32300001 -1.84 9
3.8369999 0.338 -1.829 9
4.0209999 0.354 -1.8279999 9
3.1760001 0.271 -1.847 7
3.323 0.28299999 -1.846 8
3.477 0.29699999 -1.845 9
3.6270001 0.31 -1.839 9
3.793 0.32499999 -1.835 8
3.96 0.33899999 -1.8279999 9
3.1370001 0.25999999 -1.85 7
3.2820001 0.27200001 -1.849 7
3.427 0.28400001 -1.844 8
3.5829999 0.29699999 -1.842 9
3.743 0.31099999 -1.837 9
3.9119999 0.32600001 -1.832 9
3.098 0.249 -1.851 7
3.24 0.25999999 -1.85 7
3.385 0.27200001 -1.847 8
3.5409999 0.285 -1.845 9
3.6900001 0.29800001 -1.836 9
3.8559999 0.31200001 -1.831 9
3.0610001 0.23800001 -1.853 7
3.194 0.248 -1.848 7
3.3369999 0.25999999 -1.845 8
3.493 0.27200001 -1.845 8
3.645 0.285 -1.8380001 8
3.8169999 0.29800001 -1.837 9
3.0239999 0.227 -1.854 6
3.1619999 0.23800001 -1.853 8
3.2939999 0.248 -1.845 8
3.4449999 0.25999999 -1.8430001 8
3.5999999 0.27200001 -1.84 8
3.766 0.285 -1.837 8
1.973 0.142 -1.225 5
3.1210001 0.226 -1.852 7
3.2579999 0.236 -1.848 7
3.402 0.24699999 -1.8430001 8
3.556 0.259 -1.84 8
3.7179999 0.271 -1.837 8
1.591 0.11 -1 2
3.0799999 0.214 -1.85 7
3.22 0.22400001 -1.849 7
3.3610001 0.235 -1.844 7
3.517 0.24600001 -1.8430001 8
3.677 0.257 -1.84 8
1.5319999 0.102 -0.97500002 2
3.0480001 0.20299999 -1.854 7
3.1789999 0.212 -1.848 7
3.3199999 0.222 -1.844 7
3.4749999 0.233 -1.8430001 8
3.6300001 0.244 -1.839 8
1.4910001 0.094999999 -0.95999998 3
3.0120001 0.192 -1.853 6
3.1400001 0.2 -1.846 7
3.2850001 0.20999999 -1.846 7
3.4360001 0.22 -1.844 8
3.5840001 0.23 -1.837 8
1.456 0.088 -0.949 3
0 0 0 0
3.1129999 0.189 -1.852 6
3.253 0.198 -1.848 7
3.3989999 0.207 -1.845 8
3.549 0.21699999 -1.84 8
1.421 0.081 -0.93599999 4
1.584 0.090999998 -0.99599999 2
3.079 0.178 -1.851 7
3.2160001 0.186 -1.848 7
3.359 0.19400001 -1.844 8
3.523 0.204 -1.847 8
0 0 0 0
1.541 0.083999999 -0.98000002 2
3.0439999 0.16599999 -1.85 6
3.1830001 0.17399999 -1.849 7
3.323 0.182 -1.844 8
3.473 0.19 -1.841 8
0 0 0 0
1.51 0.077 -0.97100002 3
3.0209999 0.155 -1.855 6
3.1489999 0.162 -1.848 7
3.29 0.17 -1.845 8
3.4430001 0.178 -1.845 8
0 0 0 0
1.472 0.07 -0.95599997 3
0 0 0 0
3.1170001 0.15000001 -1.848 6
3.2609999 0.15700001 -1.847 7
3.4070001 0.16500001 -1.844 8
0 0 0 0
1.443 0.064000003 -0.94700003 4
1.6210001 0.071999997 -1.016 1
3.0869999 0.138 -1.848 7
3.2190001 0.14399999 -1.842 7
3.3710001 0.15099999 -1.842 7
0 0 0 0
1.4119999 0.057999998 -0.935 5
1.558 0.064000003 -0.986 2
3.0610001 0.126 -1.85 7
3.197 0.132 -1.846 7
3.345 0.139 -1.846 8
0 0 0 0
0 0 0 0
1.5319999 0.057 -0.97799999 2
3.0380001 0.115 -1.853 6
3.1659999 0.12 -1.845 7
3.3199999 0.126 -1.849 7
0 0 0 0
0 0 0 0
1.497 0.050999999 -0.96399999 2
3.003 0.103 -1.848 6
3.1440001 0.108 -1.848 7
3.29 0.114 -1.848 7
0 0 0 0
0 0 0 0
1.471 0.045000002 -0.95599997 2
0 0 0 0
3.1210001 0.096000001 -1.85 7
3.257 0.101 -1.846 7
0 0 0 0
0 0 0 0
1.4450001 0.037999999 -0.94700003 3
0 0 0 0
3.0940001 0.083999999 -1.85 7
3.233 0.088 -1.847 7
0 0 0 0
0 0 0 0
1.425 0.032000002 -0.94099998 3
1.567 0.035999998 -0.98799998 1
3.066 0.071999997 -1.847 6
3.2060001 0.075999998 -1.846 7
0 0 0 0
0 0 0 0
0 0 0 0
1.545 0.029999999 -0.98100001 2
3.052 0.059999999 -1.853 6
3.184 0.063000001 -1.847 7
0 0 0 0
0 0 0 0
0 0 0 0
1.516 0.024 -0.97000003 2
3.029 0.048 -1.852 6
3.161 0.050999999 -1.846 7
1.09 0.011 -0.80800003 1
0 0 0 0
0 0 0 0
1.501 0.017000001 -0.96700001 2
3.0050001 0.035999998 -1.849 6
3.1429999 0.037999999 -1.848 6
0 0 0 0
0 0 0 0
0 0 0 0
1.48 0.011 -0.95999998 2
2.9790001 0.024 -1.845 7
3.1229999 0.026000001 -1.848 7
0 0 0 0
0 0 0 0
0 0 0 0
1.461 0.0049999999 -0.95300001 2
0 0 0 0
3.1129999 0.014 -1.853 6
0 0 0 0
0 0 0 0
0 0 0 0
1.447 0 -0.949 2
1.698 0 -1.064 2
3.092 0.001 -1.851 6
0 0 0 0
0 0 0 0
0 0 0 0
1.428 -0.0049999999 -0.94199997 2
1.576 -0.0049999999 -0.99299997 1
3.079 -0.0099999998 -1.853 6
0 0 0 0
0 0 0 0
0 0 0 0
1.42 -0.011 -0.94199997 2
1.55 -0.011 -0.98100001 2
3.0580001 -0.022 -1.849 6
0 0 0 0
0 0 0 0
0 0 0 0
1.4119999 -0.016000001 -0.94099998 2
1.538 -0.017000001 -0.97799999 2
3.05 -0.034000002 -1.853 6
0 0 0 0
0 0 0 0
0 0 0 0
0 0 0 0
1.525 -0.023 -0.97399998 2
3.0369999 -0.046 -1.853 6
0 0 0 0
0 0 0 0
0 0 0 0
0 0 0 0
1.513 -0.028999999 -0.97000003 2
3.0209999 -0.057999998 -1.85 6
0 0 0 0
0 0 0 0
0 0 0 0
0 0 0 0
1.505 -0.035 -0.96899998 2
3.016 -0.07 -1.853 6
0 0 0 0
0 0 0 0
0 0 0 0
0 0 0 0
1.494 -0.041000001 -0.96399999 2
3.0020001 -0.082000002 -1.85 6
0 0 0 0
0 0 0 0
0 0 0 0
0 0 0 0
1.489 -0.046999998 -0.96399999 2
2.997 -0.093999997 -1.852 6
0 0 0 0
0 0 0 0
0 0 0 0
0 0 0 0
1.479 -0.052999999 -0.95999998 2
1.6109999 -0.057 -0.99699998 0
0 0 0 0
0 0 0 0
0 0 0 0
0 0 0 0
1.48 -0.059 -0.96200001 2
2.984 -0.118 -1.852 8
0 0 0 0
0 0 0 0
0 0 0 0
0 0 0 0
1.47 -0.064000003 -0.95700002 3
2.967 -0.12899999 -1.844 8
0 0 0 0
0 0 0 0
0 0 0 0
0 0 0 0
1.4680001 -0.07 -0.95700002 3
0 0 0 0
0 0 0 0
0 0 0 0
0 0 0 0
0 0 0 0
1.465 -0.075999998 -0.95599997 3
0 0 0 0
0 0 0 0
0 0 0 0
0 0 0 0
0 0 0 0
1.464 -0.082000002 -0.95599997 3
0 0 0 0
0 0 0 0
0 0 0 0
0 0 0 0
0 0 0 0
1.469 -0.088 -0.95899999 2
0 0 0 0
0 0 0 0
0 0 0 0
0 0 0 0
0 0 0 0
1.469 -0.093999997 -0.95899999 2
2.964 -0.189 -1.846 8
0 0 0 0
0 0 0 0
0 0 0 0
0 0 0 0
1.474 -0.1 -0.96200001 2
2.973 -0.20100001 -1.85 8
0 0 0 0
0 0 0 0
0 0 0 0
0 0 0 0
1.482 -0.107 -0.96600002 2
1.604 -0.115 -0.99699998 0
0 0 0 0
0 0 0 0
0 0 0 0
0 0 0 0
1.484 -0.113 -0.96600002 2
2.9890001 -0.226 -1.855 6
0 0 0 0
0 0 0 0
0 0 0 0
0 0 0 0
1.494 -0.119 -0.97000003 2
2.99 -0.23800001 -1.852 6
0 0 0 0
0 0 0 0
0 0 0 0
0 0 0 0
1.499 -0.126 -0.97100002 2
3.006 -0.25 -1.858 6
0 0 0 0
0 0 0 0
0 0 0 0
0 0 0 0
1.502 -0.132 -0.97100002 2
3.0139999 -0.26300001 -1.858 6
0 0 0 0
0 0 0 0
0 0 0 0
0 0 0 0
1.515 -0.139 -0.977 2
3.0250001 -0.27500001 -1.859 6
0 0 0 0
0 0 0 0
0 0 0 0
0 0 0 0
1.53 -0.146 -0.98299998 2
3.0409999 -0.28799999 -1.863 6
0 0 0 0
0 0 0 0
0 0 0 0
0 0 0 0
1.551 -0.153 -0.99299997 1
3.05 -0.30000001 -1.8609999 6
0 0 0 0
0 0 0 0
0 0 0 0
1.413 -0.146 -0.94499999 3
1.573 -0.161 -1.003 1
3.0580001 -0.31200001 -1.859 6
0 0 0 0
0 0 0 0
0 0 0 0
1.423 -0.152 -0.94800001 3
1.632 -0.17299999 -1.036 1
3.0799999 -0.32499999 -1.863 6
0 0 0 0
0 0 0 0
0 0 0 0
1.444 -0.15899999 -0.958 3
0 0 0 0
3.0940001 -0.338 -1.863 6
0 0 0 0
0 0 0 0
0 0 0 0
1.457 -0.16599999 -0.96100003 2
2.9360001 -0.33199999 -1.846 8
3.1029999 -0.34900001 -1.858 7
0 0 0 0
0 0 0 0
0 0 0 0
1.475 -0.17299999 -0.96799999 2
2.9779999 -0.347 -1.862 6
3.1229999 -0.36199999 -1.86 7
0 0 0 0
0 0 0 0
0 0 0 0
1.499 -0.18099999 -0.97799999 2
3.0079999 -0.361 -1.869 6
3.1429999 -0.375 -1.86 7
0 0 0 0
0 0 0 0
0 0 0 0
1.5190001 -0.18799999 -0.98500001 2
3.0139999 -0.37099999 -1.862 6
3.161 -0.38699999 -1.86 7
0 0 0 0
0 0 0 0
0 0 0 0
1.545 -0.19599999 -0.995 1
3.0339999 -0.384 -1.8609999 6
3.187 -0.40099999 -1.862 7
0 0 0 0
0 0 0 0
0 0 0 0
1.574 -0.205 -1.007 1
3.056 -0.396 -1.862 7
3.2090001 -0.414 -1.8609999 7
0 0 0 0
0 0 0 0
1.433 -0.193 -0.95599997 3
0 0 0 0
3.086 -0.41 -1.8660001 6
3.2379999 -0.428 -1.864 7
0 0 0 0
0 0 0 0
1.4579999 -0.2 -0.96499997 3
2.9530001 -0.403 -1.8609999 6
3.105 -0.421 -1.863 7
3.2590001 -0.44 -1.862 7
0 0 0 0
0 0 0 0
1.4859999 -0.20900001 -0.97600001 3
2.9890001 -0.417 -1.868 6
3.132 -0.43399999 -1.864 7
3.2869999 -0.454 -1.862 7
0 0 0 0
0 0 0 0
1.5190001 -0.21699999 -0.99000001 2
3.0150001 -0.42899999 -1.869 6
3.1559999 -0.447 -1.863 7
3.3169999 -0.46700001 -1.863 7
0 0 0 0
0 0 0 0
1.552 -0.226 -1.002 2
3.0350001 -0.44 -1.8660001 6
3.1849999 -0.46000001 -1.863 7
3.346 -0.48100001 -1.863 7
0 0 0 0
0 0 0 0
1.592 -0.237 -1.0190001 1
3.0650001 -0.45300001 -1.867 7
3.211 -0.472 -1.8609999 8
3.378 -0.49399999 -1.863 7
0 0 0 0
0 0 0 0
0 0 0 0
3.096 -0.46599999 -1.869 6
3.247 -0.486 -1.864 7
3.411 -0.50800002 -1.864 7
0 0 0 0
1.474 -0.228 -0.97399998 3
2.977 -0.458 -1.8710001 6
3.122 -0.477 -1.8660001 7
3.28 -0.49900001 -1.865 7
3.4449999 -0.52200001 -1.864 8
0 0 0 0
1.5039999 -0.237 -0.98299998 2
3.0039999 -0.47 -1.869 7
3.152 -0.49000001 -1.865 7
3.3069999 -0.51099998 -1.862 7
3.4849999 -0.53600001 -1.8660001 8
0 0 0 0
1.551 -0.248 -1.0039999 2
3.04 -0.48199999 -1.872 7
3.191 -0.50300002 -1.869 7
3.346 -0.52499998 -1.864 8
3.5190001 -0.55000001 -1.864 7
0 0 0 0
1.638 -0.26499999 -1.049 2
3.0710001 -0.495 -1.8710001 7
3.2279999 -0.51700002 -1.87 7
3.388 -0.53899997 -1.8660001 9
3.556 -0.56400001 -1.862 8
0 0 0 0
0 0 0 0
3.098 -0.50599998 -1.867 6
3.2620001 -0.52899998 -1.87 7
3.4300001 -0.55400002 -1.869 8
3.6010001 -0.579 -1.865 8
1.483 -0.248 -0.977 2
2.994 -0.498 -1.876 6
3.138 -0.51899999 -1.87 7
3.3 -0.542 -1.869 8
3.4679999 -0.56699997 -1.867 8
3.6400001 -0.59299999 -1.863 8
1.53 -0.259 -0.99699998 2
3.026 -0.50999999 -1.875 7
3.174 -0.53100002 -1.869 7
3.335 -0.55500001 -1.867 7
3.4979999 -0.579 -1.8609999 8
3.6860001 -0.60799998 -1.864 8
1.59 -0.273 -1.024 2
3.0610001 -0.52100003 -1.874 7
3.2149999 -0.54400003 -1.8710001 7
3.382 -0.56900001 -1.87 8
3.546 -0.59399998 -1.864 8
3.7349999 -0.62300003 -1.864 8
0 0 0 0
3.0969999 -0.53299999 -1.873 7
3.256 -0.55699998 -1.872 7
3.4230001 -0.58200002 -1.87 8
3.595 -0.60900003 -1.8660001 8
3.773 -0.63700002 -1.859 9
2.983 -0.52200001 -1.875 6
3.1340001 -0.54500002 -1.872 7
3.296 -0.56900001 -1.8710001 8
3.4719999 -0.597 -1.873 8
3.642 -0.62300003 -1.8660001 8
3.822 -0.65200001 -1.859 8
3.0220001 -0.53399998 -1.875 6
3.175 -0.55699998 -1.873 7
3.3429999 -0.583 -1.874 8
3.5090001 -0.60900003 -1.869 8
3.6860001 -0.63700002 -1.864 9
3.8740001 -0.667 -1.859 8
3.0580001 -0.54500002 -1.874 6
3.2160001 -0.56900001 -1.873 8
3.385 -0.59500003 -1.873 8
3.5539999 -0.62199998 -1.868 8
3.7360001 -0.65100002 -1.863 8
3.9260001 -0.68199998 -1.858 9
3.0969999 -0.55599999 -1.873 7
