# .PCD v0.7 - Point Cloud Data file format
VERSION 0.7
FIELDS x y z intensity
SIZE 4 4 4 4
TYPE F F F F
COUNT 1 1 1 1
WIDTH 1831
HEIGHT 1
VIEWPOINT 0 0 0 1 0 0 0
POINTS 1831
DATA ascii
5.6290002 -2.401 -1.908 10
5.9720001 -2.533 -1.91 11
4.5229998 -2.0220001 -1.908 10
4.7610002 -2.1099999 -1.908 10
5.0240002 -2.2090001 -1.909 10
5.3109999 -2.319 -1.911 11
5.6220002 -2.438 -1.9119999 9
5.9549999 -2.5680001 -1.91 11
4.5079999 -2.0480001 -1.908 9
4.7509999 -2.141 -1.91 10
5.0149999 -2.2409999 -1.9119999 10
5.296 -2.3499999 -1.9119999 10
5.6020002 -2.4690001 -1.911 10
5.9429998 -2.6040001 -1.9119999 10
4.4980001 -2.0780001 -1.911 9
4.7379999 -2.1700001 -1.911 10
4.9959998 -2.2690001 -1.91 10
5.2839999 -2.3829999 -1.913 11
5.5819998 -2.5 -1.909 10
5.934 -2.642 -1.914 10
4.48 -2.1029999 -1.909 9
4.7249999 -2.198 -1.911 10
4.9889998 -2.302 -1.913 10
5.2709999 -2.414 -1.913 10
5.5689998 -2.5339999 -1.909 10
5.927 -2.6800001 -1.916 11
4.473 -2.132 -1.911 9
4.7179999 -2.2290001 -1.914 10
4.9770002 -2.332 -1.913 11
5.2610002 -2.447 -1.913 9
5.573 -2.5739999 -1.914 10
5.9109998 -2.714 -1.914 10
4.4619999 -2.1600001 -1.911 9
4.7010002 -2.2550001 -1.911 10
4.9699998 -2.3640001 -1.914 9
5.2519999 -2.4790001 -1.913 9
5.5580001 -2.605 -1.9119999 9
5.9070001 -2.7520001 -1.915 10
4.4590001 -2.1900001 -1.914 9
4.697 -2.286 -1.913 10
4.9559999 -2.391 -1.9119999 11
5.2470002 -2.5120001 -1.914 9
5.559 -2.6429999 -1.915 11
5.901 -2.7880001 -1.915 11
4.4530001 -2.2179999 -1.915 10
4.6939998 -2.3169999 -1.915 10
4.9590001 -2.4260001 -1.915 9
5.2470002 -2.5469999 -1.916 10
5.559 -2.6800001 -1.916 9
5.8940001 -2.8239999 -1.914 11
4.447 -2.247 -1.915 9
4.6900001 -2.3469999 -1.915 10
4.9520001 -2.457 -1.915 10
5.2410002 -2.5799999 -1.916 10
5.5570002 -2.7160001 -1.9170001 10
5.9089999 -2.869 -1.919 10
4.4499998 -2.279 -1.919 9
4.6869998 -2.3770001 -1.916 10
4.9520001 -2.49 -1.916 10
5.2410002 -2.6140001 -1.916 11
5.5599999 -2.7539999 -1.918 10
5.908 -2.9070001 -1.918 10
4.4489999 -2.309 -1.92 9
4.684 -2.4070001 -1.916 10
4.948 -2.5209999 -1.915 11
5.2519999 -2.654 -1.921 10
5.5619998 -2.79 -1.918 10
5.9130001 -2.947 -1.919 10
4.4320002 -2.3299999 -1.913 9
4.6900001 -2.441 -1.918 9
4.9419999 -2.55 -1.913 11
5.2490001 -2.6860001 -1.919 10
5.572 -2.8310001 -1.92 10
5.9159999 -2.9860001 -1.918 11
4.4419999 -2.365 -1.918 9
4.6880002 -2.471 -1.918 10
4.954 -2.5880001 -1.9170001 11
5.2449999 -2.717 -1.916 11
5.573 -2.8659999 -1.918 10
5.9260001 -3.027 -1.918 10
4.448 -2.3970001 -1.921 8
4.6929998 -2.503 -1.919 10
4.9580002 -2.6210001 -1.9170001 11
5.2589998 -2.757 -1.919 9
5.5929999 -2.9100001 -1.923 10
5.9359999 -3.0680001 -1.918 10
4.4390001 -2.4200001 -1.916 10
4.6939998 -2.5339999 -1.918 10
4.974 -2.6600001 -1.921 10
5.2750001 -2.7980001 -1.9220001 9
5.605 -2.95 -1.923 10
5.9460001 -3.109 -1.9170001 10
4.4559999 -2.457 -1.9220001 9
4.7030001 -2.5669999 -1.919 10
4.9889998 -2.698 -1.924 10
5.2909999 -2.8369999 -1.924 9
5.6199999 -2.9909999 -1.924 10
5.9720001 -3.1570001 -1.921 10
4.4640002 -2.4890001 -1.923 9
4.7090001 -2.598 -1.919 10
4.9959998 -2.7320001 -1.923 9
5.302 -2.8740001 -1.924 10
5.6350002 -3.0309999 -1.924 10
5.9889998 -3.1989999 -1.92 10
4.4679999 -2.517 -1.9220001 9
4.7210002 -2.6329999 -1.92 8
5.007 -2.766 -1.923 9
5.3249998 -2.9170001 -1.927 10
5.6560001 -3.0739999 -1.925 10
6.0110002 -3.244 -1.92 9
4.4780002 -2.549 -1.9220001 9
4.7290001 -2.664 -1.919 10
5.02 -2.8010001 -1.923 10
5.3340001 -2.951 -1.925 10
5.6799998 -3.118 -1.927 10
6.04 -3.2920001 -1.9220001 10
4.4920001 -2.5829999 -1.924 9
4.743 -2.698 -1.92 9
5.0440001 -2.8429999 -1.926 9
5.3530002 -2.9909999 -1.925 9
5.6950002 -3.1559999 -1.925 9
6.0609999 -3.336 -1.92 9
4.5089998 -2.6170001 -1.927 9
4.7550001 -2.7309999 -1.919 9
5.0510001 -2.8729999 -1.923 9
5.382 -3.0339999 -1.928 8
5.7360001 -3.2079999 -1.9299999 10
6.1020002 -3.3889999 -1.924 9
4.5219998 -2.648 -1.926 8
4.7789998 -2.7690001 -1.9220001 9
5.0760002 -2.9130001 -1.925 10
5.4120002 -3.0780001 -1.931 9
5.7519999 -3.2460001 -1.927 9
6.1719999 -3.4579999 -1.936 8
4.5339999 -2.678 -1.925 9
4.8000002 -2.806 -1.923 9
5.0970001 -2.95 -1.924 10
5.4250002 -3.112 -1.926 10
5.8169999 -3.3099999 -1.938 8
6.177 -3.49 -1.926 10
4.5599999 -2.7160001 -1.929 9
4.8150001 -2.8380001 -1.921 9
5.1209998 -2.9879999 -1.925 9
5.4650002 -3.161 -1.931 8
5.8270001 -3.3429999 -1.931 10
6.211 -3.5369999 -1.925 10
4.5799999 -2.7490001 -1.929 8
4.8369999 -2.8729999 -1.9220001 8
5.1570001 -3.033 -1.929 9
5.4990001 -3.2049999 -1.932 9
5.8909998 -3.4059999 -1.9400001 8
6.2820001 -3.6059999 -1.934 8
4.6020002 -2.7839999 -1.929 8
4.8629999 -2.9100001 -1.9220001 9
5.1799998 -3.069 -1.927 9
5.5409999 -3.253 -1.9349999 10
5.928 -3.4519999 -1.9400001 8
6.3280001 -3.658 -1.934 9
4.619 -2.813 -1.927 9
4.8889999 -2.9460001 -1.9220001 8
5.2140002 -3.1110001 -1.928 10
5.5679998 -3.2920001 -1.932 9
5.96 -3.4949999 -1.936 8
6.3839998 -3.7160001 -1.936 8
4.6490002 -2.8510001 -1.929 9
4.9190001 -2.984 -1.9220001 9
5.2420001 -3.148 -1.926 9
5.6020002 -3.3340001 -1.9299999 9
6.0019999 -3.543 -1.9349999 8
6.4229999 -3.763 -1.932 8
4.6700001 -2.882 -1.927 9
4.9580002 -3.026 -1.926 9
5.2919998 -3.198 -1.931 9
5.664 -3.392 -1.937 8
6.052 -3.5940001 -1.9349999 8
6.4889998 -3.825 -1.9349999 9
4.7020001 -2.9189999 -1.928 9
4.9899998 -3.063 -1.925 9
5.3270001 -3.237 -1.9299999 9
5.724 -3.448 -1.943 8
6.1059999 -3.6470001 -1.937 8
6.546 -3.8800001 -1.934 9
4.7329998 -2.954 -1.928 9
5.0310001 -3.1059999 -1.927 9
5.3779998 -3.2869999 -1.934 9
5.7589998 -3.487 -1.939 7
6.1589999 -3.698 -1.936 8
6.6139998 -3.9419999 -1.9349999 8
4.7690001 -2.9920001 -1.929 8
5.0669999 -3.1440001 -1.926 9
5.428 -3.3329999 -1.9349999 8
5.8049998 -3.533 -1.937 8
6.2189999 -3.753 -1.936 8
6.6880002 -4.0050001 -1.937 8
4.8000002 -3.0250001 -1.927 8
5.1030002 -3.1800001 -1.925 10
5.5040002 -3.3959999 -1.946 8
5.8660002 -3.586 -1.939 8
6.276 -3.8050001 -1.9349999 8
6.7719998 -4.0749998 -1.9400001 8
4.849 -3.069 -1.931 9
5.1459999 -3.221 -1.924 9
5.5469999 -3.437 -1.943 7
5.9250002 -3.6370001 -1.9400001 8
6.3410001 -3.8599999 -1.934 8
6.855 -4.1420002 -1.942 8
4.8889999 -3.1059999 -1.931 9
5.198 -3.266 -1.927 9
5.5799999 -3.47 -1.936 8
5.98 -3.6849999 -1.938 8
6.4180002 -3.9219999 -1.936 8
6.941 -4.21 -1.943 8
4.9349999 -3.1459999 -1.932 9
5.2509999 -3.3099999 -1.928 8
5.6570001 -3.5309999 -1.944 8
6.04 -3.734 -1.937 8
6.4990001 -3.9849999 -1.938 7
7.0279999 -4.277 -1.942 9
4.9780002 -3.1830001 -1.931 9
5.3439999 -3.3789999 -1.943 7
5.7150002 -3.5780001 -1.943 8
6.1020002 -3.7839999 -1.9349999 7
6.5780001 -4.046 -1.938 8
7.1199999 -4.3460002 -1.942 9
5.0229998 -3.22 -1.9299999 9
5.4050002 -3.427 -1.946 8
5.77 -3.6210001 -1.941 8
6.1810002 -3.8429999 -1.936 7
6.6700001 -4.1129999 -1.941 8
7.2290001 -4.4239998 -1.9450001 8
5.066 -3.2550001 -1.927 8
5.4629998 -3.471 -1.9450001 8
5.8379998 -3.6719999 -1.941 8
6.2589998 -3.901 -1.937 7
6.7800002 -4.1900001 -1.947 8
7.3400002 -4.5019999 -1.947 8
5.138 -3.3069999 -1.934 8
5.4920001 -3.4960001 -1.934 9
5.9109998 -3.7249999 -1.942 8
6.3429999 -3.96 -1.939 8
6.868 -4.2529998 -1.9450001 8
7.4499998 -4.5780001 -1.948 8
5.2329998 -3.3729999 -1.948 7
5.5770001 -3.5550001 -1.941 8
5.9699998 -3.767 -1.937 8
6.434 -4.0229998 -1.9400001 8
6.9640002 -4.3189998 -1.944 8
7.579 -4.665 -1.951 8
5.2930002 -3.415 -1.948 7
5.6609998 -3.612 -1.946 8
6.0539999 -3.825 -1.939 7
6.5359998 -4.0910001 -1.944 8
7.0749998 -4.3920002 -1.946 8
7.7069998 -4.7490001 -1.952 8
5.3569999 -3.4579999 -1.947 7
5.7179999 -3.651 -1.9400001 8
6.1420002 -3.8829999 -1.941 7
6.6269999 -4.151 -1.943 8
7.1869998 -4.4650002 -1.946 8
7.8280001 -4.8270001 -1.949 9
5.414 -3.4960001 -1.944 7
5.7930002 -3.7 -1.941 8
6.2249999 -3.9360001 -1.939 7
6.7319999 -4.2179999 -1.944 8
7.309 -4.5419998 -1.948 8
7.9650002 -4.9130001 -1.95 8
5.4920001 -3.5450001 -1.946 8
5.862 -3.744 -1.937 7
6.316 -3.994 -1.939 7
6.8460002 -4.29 -1.947 8
7.4450002 -4.6269999 -1.951 8
8.1169996 -5.007 -1.951 8
5.5679998 -3.5929999 -1.947 7
5.941 -3.7920001 -1.936 7
6.4180002 -4.0560002 -1.942 8
6.9629998 -4.3610001 -1.948 8
7.579 -4.7080002 -1.952 8
8.2740002 -5.1020002 -1.952 7
5.6339998 -3.632 -1.943 7
6.0339999 -3.848 -1.937 7
6.5250001 -4.1209998 -1.943 8
7.0809999 -4.4310002 -1.948 8
7.717 -4.79 -1.9529999 8
8.4329996 -5.1960001 -1.951 8
5.7129998 -3.678 -1.943 7
6.1339998 -3.9070001 -1.9400001 7
6.6389999 -4.1869998 -1.946 8
7.2030001 -4.5029998 -1.948 8
7.868 -4.8779998 -1.954 8
8.6099997 -5.3000002 -1.952 8
5.7979999 -3.7260001 -1.942 7
6.2319999 -3.9630001 -1.9400001 8
6.7529998 -4.2519999 -1.946 8
7.3470001 -4.586 -1.951 8
8.0129995 -4.961 -1.952 8
8.7950001 -5.4060001 -1.9529999 8
5.8850002 -3.7750001 -1.941 7
6.3340001 -4.02 -1.939 8
6.881 -4.3249998 -1.949 8
7.4809999 -4.6599998 -1.951 8
8.1859999 -5.059 -1.954 7
9 -5.5219998 -1.956 8
5.98 -3.826 -1.941 7
6.4450002 -4.0799999 -1.941 8
7.0079999 -4.3940001 -1.949 8
7.631 -4.743 -1.952 8
8.3520002 -5.1500001 -1.9529999 8
9.2060003 -5.6360002 -1.956 8
6.0819998 -3.8800001 -1.943 7
6.572 -4.1490002 -1.9450001 8
7.1339998 -4.461 -1.948 8
7.79 -4.829 -1.954 9
8.5249996 -5.243 -1.952 8
9.4119997 -5.7480001 -1.954 8
6.1849999 -3.934 -1.943 7
6.6859999 -4.2090001 -1.944 8
7.2750001 -4.5359998 -1.95 9
7.9460001 -4.9120002 -1.9529999 8
8.7279997 -5.3520002 -1.955 7
9.6440001 -5.8720002 -1.954 8
6.296 -3.99 -1.944 8
6.8109999 -4.2729998 -1.944 8
7.4330001 -4.619 -1.9529999 8
8.1070004 -4.9949999 -1.951 8
8.9239998 -5.4549999 -1.954 8
9.9049997 -6.0120001 -1.9579999 8
6.4089999 -4.0469999 -1.944 7
6.9460001 -4.3410001 -1.946 8
7.5809999 -4.6929998 -1.9529999 8
8.2910004 -5.0890002 -1.9529999 8
9.1440001 -5.5700002 -1.956 7
10.158 -6.1440001 -1.957 8
6.5370002 -4.1100001 -1.946 8
7.0830002 -4.408 -1.946 8
7.737 -4.77 -1.952 8
8.4820004 -5.1859999 -1.9529999 8
9.3699999 -5.6849999 -1.956 8
10.444 -6.2930002 -1.96 7
6.651 -4.1620002 -1.943 8
7.2220001 -4.4749999 -1.946 8
7.9070001 -4.8540001 -1.9529999 9
8.6829996 -5.2849998 -1.955 8
9.6129999 -5.8070002 -1.9579999 7
10.748 -6.4489999 -1.9630001 8
6.796 -4.2329998 -1.948 8
7.3870001 -4.5549998 -1.949 8
8.0749998 -4.9330001 -1.951 9
8.8900003 -5.3860002 -1.954 7
9.8570004 -5.927 -1.956 7
11.042 -6.5939999 -1.96 9
6.9380002 -4.2979999 -1.95 8
7.5510001 -4.631 -1.951 8
8.2650003 -5.0240002 -1.952 8
9.1129999 -5.494 -1.955 7
10.117 -6.0539999 -1.955 8
11.366 -6.7550001 -1.959 8
7.0760002 -4.3590002 -1.949 8
7.7080002 -4.7020001 -1.949 9
8.4610004 -5.1160002 -1.9529999 7
9.3430004 -5.6030002 -1.955 8
10.427 -6.2069998 -1.961 8
11.716 -6.927 -1.959 6
7.2199998 -4.4219999 -1.948 8
7.888 -4.7849998 -1.951 9
8.665 -5.2090001 -1.9529999 8
9.5860004 -5.717 -1.955 8
10.73 -6.3509998 -1.962 7
12.061 -7.092 -1.955 7
7.3839998 -4.494 -1.95 8
8.0609999 -4.8600001 -1.949 9
8.882 -5.3070002 -1.954 8
9.8470001 -5.8369999 -1.955 7
11.036 -6.494 -1.959 7
12.45 -7.2779999 -1.9529999 7
7.559 -4.5700002 -1.9529999 8
8.2510004 -4.9419999 -1.949 9
9.1120005 -5.4099998 -1.954 8
10.136 -5.9699998 -1.9579999 8
11.364 -6.645 -1.957 7
12.849 -7.4650002 -1.948 7
7.73 -4.6420002 -1.952 8
8.4549999 -5.0289998 -1.949 8
9.3529997 -5.5149999 -1.954 8
10.437 -6.1069999 -1.959 7
11.721 -6.8080001 -1.957 6
13.281 -7.665 -1.9450001 8
7.902 -4.711 -1.951 9
8.6540003 -5.112 -1.947 8
9.6009998 -5.6220002 -1.9529999 8
10.749 -6.2459998 -1.961 7
12.097 -6.9790001 -1.955 7
13.748 -7.8800001 -1.942 8
8.0959997 -4.7909999 -1.952 8
8.8830004 -5.2080002 -1.949 8
9.8610001 -5.7319999 -1.9529999 8
11.057 -6.3779998 -1.957 7
12.468 -7.1409998 -1.95 7
14.278 -8.1260004 -1.943 7
8.2919998 -4.869 -1.952 8
9.1079998 -5.2989998 -1.947 8
10.135 -5.8470001 -1.952 8
11.387 -6.5190001 -1.956 6
12.884 -7.3239999 -1.948 8
14.842 -8.3839998 -1.943 10
8.4899998 -4.9439998 -1.95 8
9.3579998 -5.401 -1.948 8
10.45 -5.9809999 -1.955 8
11.726 -6.6599998 -1.95 6
13.292 -7.4980001 -1.939 8
15.502 -8.6899996 -1.95 10
8.7060003 -5.0279999 -1.951 8
9.6070004 -5.4980001 -1.947 8
10.766 -6.1110001 -1.956 7
12.095 -6.8140001 -1.948 7
13.8 -7.7210002 -1.942 9
16.128 -8.9680004 -1.946 9
8.9350004 -5.1149998 -1.952 8
9.875 -5.6030002 -1.947 7
11.085 -6.2389998 -1.954 8
12.495 -6.98 -1.946 7
14.312 -7.9400001 -1.939 8
16.938 -9.3389997 -1.957 10
9.1730003 -5.204 -1.952 9
10.177 -5.723 -1.95 7
11.43 -6.375 -1.9529999 8
12.903 -7.1440001 -1.941 7
14.897 -8.1920004 -1.9400001 10
17.639 -9.6420002 -1.947 10
9.4130001 -5.29 -1.949 8
10.481 -5.8390002 -1.951 8
11.781 -6.5100002 -1.95 7
13.349 -7.323 -1.937 8
15.479 -8.4350004 -1.937 10
18.51 -10.026 -1.949 7
9.6870003 -5.3920002 -1.952 8
10.781 -5.9489999 -1.948 8
12.147 -6.6490002 -1.946 7
13.843 -7.5219998 -1.937 9
16.201 -8.7460003 -1.944 9
19.326 -10.371 -1.938 5
9.9569998 -5.4860001 -1.95 8
11.119 -6.0749998 -1.948 8
12.534 -6.7930002 -1.9400001 7
14.416 -7.757 -1.941 8
16.927999 -9.0489998 -1.943 9
20.285 -10.78 -1.932 4
10.235 -5.5809999 -1.948 8
11.451 -6.1919999 -1.944 7
12.962 -6.9549999 -1.938 7
14.912 -7.9450002 -1.932 10
17.731001 -9.3859997 -1.948 9
21.414 -11.268 -1.933 4
10.551 -5.6939998 -1.951 8
11.806 -6.3179998 -1.942 7
13.368 -7.099 -1.9299999 8
15.54 -8.1949997 -1.934 10
18.452999 -9.6680002 -1.933 7
23.375 -12.176 -1.9960001 25
10.857 -5.796 -1.949 8
12.159 -6.4369998 -1.936 6
13.851 -7.2779999 -1.928 8
16.216 -8.46 -1.936 10
19.281 -9.9960003 -1.926 6
24.108999 -12.426 -1.942 27
11.184 -5.9050002 -1.948 8
12.559 -6.5760002 -1.933 7
14.511 -7.54 -1.9450001 8
16.941 -8.7410002 -1.937 10
20.315001 -10.416 -1.928 4
24.799999 -12.643 -1.877 25
11.523 -6.013 -1.9450001 8
12.954 -6.7049999 -1.927 7
14.923 -7.6669998 -1.924 10
17.719999 -9.0419998 -1.938 9
21.271 -10.785 -1.915 4
0 0 0 0
11.867 -6.1199999 -1.941 7
13.363 -6.8369999 -1.919 8
15.53 -7.8870001 -1.925 10
18.424999 -9.2930002 -1.925 6
22.497999 -11.276 -1.9170001 4
0 0 0 0
12.242 -6.2389998 -1.939 6
13.849 -7.0019999 -1.919 8
16.212999 -8.1359997 -1.929 10
19.280001 -9.6099997 -1.921 6
23.805 -11.793 -1.9170001 4
29.476999 -14.521 -1.814 66
12.604 -6.3439999 -1.932 7
14.46 -7.2210002 -1.932 9
16.912001 -8.3839998 -1.9299999 10
20.160999 -9.927 -1.913 4
25.176001 -12.32 -1.908 4
30.105 -14.65 -1.7130001 22
13.011 -6.4660001 -1.928 7
14.904 -7.348 -1.916 10
17.690001 -8.6590004 -1.932 9
21.138 -10.278 -1.905 4
27.400999 -13.242 -1.949 19
35.674999 -17.143999 -1.867 9
13.425 -6.586 -1.9220001 8
15.451 -7.52 -1.9119999 10
18.364 -8.8739996 -1.918 8
22.223 -10.667 -1.899 4
27.947001 -13.333 -1.859 15
38.375999 -18.207001 -1.835 5
13.859 -6.7080002 -1.915 8
16.073 -7.7199998 -1.91 11
19.191 -9.1499996 -1.914 7
23.377001 -11.073 -1.8890001 4
30.263 -14.248 -1.876 7
40.962002 -19.179001 -1.777 4
14.358 -6.855 -1.914 9
16.806 -7.9619999 -1.9170001 12
19.993 -9.4049997 -1.901 5
24.891001 -11.633 -1.898 4
32.030998 -14.88 -1.844 5
0 0 0 0
14.896 -7.013 -1.915 9
17.466999 -8.1619997 -1.9119999 11
20.971001 -9.7299995 -1.899 5
26.114 -12.038 -1.877 4
33.411999 -15.31 -1.78 5
51.585999 -23.509001 -1.796 1
15.454 -7.1739998 -1.914 10
18.164 -8.368 -1.905 9
21.959 -10.046 -1.89 4
27.92 -12.691 -1.8839999 8
37.076 -16.752001 -1.816 3
54.213001 -24.365999 -1.661 2
16.01 -7.3239999 -1.909 11
18.891001 -8.5769997 -1.897 8
23.038 -10.388 -1.883 5
0 0 0 0
40.049 -17.836 -1.793 3
59.924 -26.544001 -1.587 4
16.688999 -7.5219998 -1.914 12
19.698 -8.8120003 -1.8890001 8
24.273001 -10.783 -1.8789999 4
31.051001 -13.705 -1.83 6
0 0 0 0
61.674 -26.915001 -1.382 28
17.384001 -7.7160001 -1.916 11
20.482 -9.0240002 -1.876 6
25.482 -11.149 -1.863 5
32.717999 -14.222 -1.7920001 6
50.441002 -21.801001 -1.8430001 4
62.154999 -26.723 -1.148 28
17.997 -7.8660002 -1.905 12
21.431999 -9.2969999 -1.873 5
26.636 -11.476 -1.839 5
34.109001 -14.604 -1.7309999 2
52.907001 -22.52 -1.725 6
60.326 -25.540001 -0.87800002 36
18.701 -8.0459995 -1.9 11
22.427 -9.5760002 -1.8660001 5
28.882999 -12.248 -1.875 15
0 0 0 0
58.188999 -24.375999 -1.669 10
53.365002 -22.237 -0.574 44
19.447001 -8.2299995 -1.8940001 9
23.489 -9.868 -1.857 5
29.625 -12.359 -1.804 9
38.882 -16.120001 -1.666 1
53.567001 -22.077999 -1.3329999 12
58.216 -23.865999 -0.40700001 2
20.15 -8.3870001 -1.88 8
24.594999 -10.162 -1.847 5
0 0 0 0
49.227001 -20.073999 -1.9220001 2
52.247002 -21.181 -1.104 30
52.651001 -21.233 -0.178 39
20.929001 -8.5640001 -1.869 6
25.731001 -10.452 -1.832 5
0 0 0 0
51.660999 -20.709 -1.823 6
52.720001 -21.011 -0.921 46
133.85201 -53.058998 0.032000002 21
21.868999 -8.7930002 -1.8660001 5
26.792999 -10.692 -1.804 5
0 0 0 0
36.417999 -14.345 -1.152 15
52.970001 -20.746 -0.73799998 4
55.459999 -21.604 0.205 2
22.774 -8.9949999 -1.8559999 5
0 0 0 0
36.306999 -14.135 -1.661 9
36.200001 -14.004 -1.0140001 69
62.145 -23.903999 -0.64700001 16
148.328 -56.749001 1.059 18
23.796 -9.2270002 -1.85 5
30.865 -11.881 -1.85 24
36.360001 -13.902 -1.534 14
36.056999 -13.697 -0.88599998 85
36.241001 -13.686 -0.25400001 11
86.917999 -32.648998 0.90899998 8
24.921 -9.4840002 -1.847 6
31.061001 -11.734 -1.751 37
36.344002 -13.637 -1.408 49
36.229 -13.51 -0.76899999 65
59.421001 -22.025 -0.223 13
61.861 -22.806 0.84399998 39
25.683001 -9.5880003 -1.812 5
32.466 -12.034 -1.72 11
36.257 -13.347 -1.284 8
59.188999 -21.653999 -1.064 65
59.487 -21.635 -0.033 7
61.879002 -22.384001 1.038 20
27.023001 -9.8940001 -1.814 5
0 0 0 0
36.303001 -13.106 -1.168 2
59.160999 -21.222 -0.87400001 67
131.79401 -47.006001 0.33000001 14
61.977001 -21.985001 1.226 23
28.018999 -10.056 -1.788 5
35.015999 -12.476 -1.623 8
54.692001 -19.354 -1.585 17
59.450001 -20.906 -0.69499999 58
69.042999 -24.139999 0.38100001 10
57.514999 -20 1.307 8
29.125999 -10.242 -1.765 5
36.443001 -12.724 -1.577 1
54.806999 -19.004999 -1.424 11
61.111 -21.058001 -0.53600001 39
68.133003 -23.337999 0.57200003 9
56.411999 -19.216999 1.441 38
31.354 -10.801 -1.803 39
41.417999 -14.163 -1.666 5
56.201 -19.089001 -1.295 3
61.561001 -20.775999 -0.36199999 58
68.224998 -22.889999 0.76300001 15
48.801998 -16.283001 1.3789999 45
31.687 -10.687 -1.727 40
46.007 -15.403 -1.717 6
56.841 -18.899 -1.15 4
49.162998 -16.239 -0.153 5
49.067001 -16.112 0.68099999 49
49.258999 -16.087 1.52 10
0 0 0 0
48.435001 -15.865 -1.671 18
49.153999 -15.989 -0.85699999 95
63.918999 -20.66 -0.028999999 38
56.91 -18.285999 0.93800002 37
56.452999 -18.037001 1.886 45
33.834999 -10.92 -1.652 16
48.766998 -15.623 -1.551 25
64.028999 -20.367001 -0.94999999 22
57.497002 -18.174999 0.12 57
56.991001 -17.903 1.081 44
56.390999 -17.617001 2.02 27
35.228001 -11.113 -1.625 8
49.227001 -15.416 -1.437 6
64.055 -19.919001 -0.78600001 41
64.275002 -19.858999 0.29300001 8
57.063 -17.523001 1.221 35
56.548 -17.266001 2.1600001 8
37.911999 -11.681 -1.651 9
52.742001 -16.132 -1.408 20
64.379997 -19.552999 -0.634 33
62.029999 -18.714001 0.43099999 4
57.116001 -17.128 1.353 9
61.799 -18.424999 2.4990001 54
37.894001 -11.397 -1.556 2
54.181 -16.176001 -1.313 7
82.358002 -24.41 -0.61699998 9
68.938004 -20.296 0.63700002 5
61.599998 -18.025 1.596 47
61.646999 -17.933001 2.6259999 35
44.330002 -13.007 -1.7130001 5
57.298 -16.684 -1.256 4
44.390999 -12.831 -0.233 3
62.861 -18.048 0.71799999 22
61.896 -17.658001 1.737 30
61.764999 -17.518999 2.7579999 31
44.412998 -12.702 -1.615 38
44.381001 -12.596 -0.875 102
44.577999 -12.56 -0.13699999 13
75.313004 -21.075001 1.0140001 4
64.124001 -17.829 1.927 3
61.644001 -17.040001 2.872 7
45.353001 -12.636 -1.552 22
45.542999 -12.591 -0.80299997 7
138.033 -37.890999 -0.15099999 27
74.925003 -20.426001 1.1569999 12
69.973999 -18.952 2.237 45
56.054001 -15.09 2.717 2
45.310001 -12.292 -1.457 6
65.444 -17.614 -1.025 6
181.10001 -48.382 0.15000001 46
70.595001 -18.728001 1.222 7
56.372002 -14.859 1.902 6
56.353001 -14.763 2.829 22
44.905998 -11.849 -1.357 8
44.824001 -11.735 -0.61699998 3
72.913002 -18.943001 0.193 13
70.007004 -18.062 1.3329999 29
56.584999 -14.504 2.0039999 15
56.445 -14.375 2.9260001 10
50.994999 -13.08 -1.448 21
64.636002 -16.450001 -0.778 19
119.683 -30.23 0.51899999 15
57.791 -14.495 1.1950001 9
56.603001 -14.101 2.096 20
46.131001 -11.419 2.4619999 9
45.737999 -11.394 -1.221 11
77.056999 -19.042 -0.79900002 29
83.625999 -20.507 0.49599999 14
45.893002 -11.172 1.02 25
45.708 -11.052 1.76 45
45.591999 -10.953 2.4979999 43
45.740002 -11.058 -1.146 65
45.775002 -10.973 -0.40400001 89
45.832001 -10.902 0.34 70
45.917 -10.843 1.086 14
46.383999 -10.877 1.85 18
46.768002 -10.894 2.625 9
45.874001 -10.75 -1.081 53
0 0 0 0
83.195 -19.184999 0.73299998 22
57.293999 -13.11 1.431 17
57.062 -12.966 2.348 38
56.799 -12.819 3.256 33
0 0 0 0
100.583 -22.646999 -0.61299998 7
83.491997 -18.646999 0.838 12
57.966 -12.847 1.517 56
57.185001 -12.581 2.4200001 3
56.922001 -12.439 3.326 28
55.106998 -12.11 -1.156 28
0 0 0 0
0 0 0 0
58.57 -12.557 1.598 56
72.718002 -15.477 3.154 17
0 0 0 0
54.486 -11.57 -1.08 14
49.293999 -10.379 -0.18700001 4
49.223 -10.277 0.602 10
97.013 -20.093 2.743 16
59.438 -12.22 2.6329999 6
0 0 0 0
49.097 -10.07 -0.92199999 4
49.056 -9.9720001 -0.13699999 35
44.201 -8.9099998 0.58200002 59
125.491 -25.091999 3.6600001 16
128.97099 -25.580999 5.8210001 17
0 0 0 0
56.547001 -11.183 -1.011 27
89.551003 -17.549 -0.17299999 6
43.911999 -8.5340004 0.61500001 53
100.696 -19.403 3.0139999 47
79.531998 -15.206 3.648 8
0 0 0 0
57.303001 -10.915 -0.977 13
0 0 0 0
43.698002 -8.1730003 0.64300001 24
79.728996 -14.784 2.441 37
80.098 -14.734 3.7249999 36
0 0 0 0
57.984001 -10.618 -0.949 16
79.942001 -14.504 -0.041999999 99
79.808998 -14.347 1.222 37
79.652 -14.197 2.4809999 38
79.550003 -14.059 3.74 29
79.517998 -13.939 5 30
55.028999 -9.6780005 -0.86799997 5
95.661003 -16.664 0 12
100.583 -17.353001 1.5880001 43
87.758003 -15.003 2.773 45
79.792 -13.522 3.7839999 20
68.719002 -11.552 4.3460002 26
55.784 -9.4040003 -0.85500002 8
95.533997 -15.944 0.039999999 12
93.610001 -15.472 1.515 6
87.053001 -14.258 2.7809999 30
68.924004 -11.184 3.2880001 10
79.351997 -12.761 5.039 8
61.161999 -9.8629999 -0.91600001 19
69.348 -11.071 0.050000001 89
69.324997 -10.957 1.14 56
69.234001 -10.841 2.227 38
69.033997 -10.706 3.3080001 39
69.769997 -10.726 4.4419999 19
0 0 0 0
96.376999 -14.685 0.086999997 9
0 0 0 0
88.101997 -13.158 2.8440001 38
88.212997 -13.047 4.2329998 39
68.633003 -10.057 4.3720002 8
57.356998 -8.4200001 -0.83899999 6
96.279999 -13.984 0.094999999 21
89.789001 -12.903 1.494 20
88.453003 -12.584 2.8559999 18
70.125 -9.8760004 3.3629999 30
70.720001 -9.8640003 4.5009999 17
53.714001 -7.4980001 -0.78600001 2
95.459 -13.173 0.090999998 12
78.044998 -10.651 1.2920001 13
91.642998 -12.377 2.9489999 23
92.396004 -12.349 4.4180002 37
42.578999 -5.6329999 2.7019999 32
53.619999 -7.098 -0.79000002 6
78.013 -10.202 0.061999999 16
78.066002 -10.095 1.278 20
53.759998 -6.8740001 1.7180001 18
42.832001 -5.4190001 2.0369999 4
42.925999 -5.3740001 2.7119999 45
53.804001 -6.7360001 -0.80599999 16
0 0 0 0
78.072998 -9.5389996 1.256 8
42.758999 -5.1609998 1.352 48
53.806999 -6.4229999 2.539 12
91.487999 -10.8 5.744 24
42.719002 -5.04 -0.65499997 106
42.743999 -4.9780002 0.0060000001 78
42.893002 -4.9349999 0.67199999 38
54.082001 -6.1440001 1.686 46
53.778999 -6.0359998 2.5120001 52
53.790001 -5.9689999 3.3499999 10
42.82 -4.7459998 -0.67699999 3
54.518002 -5.9619999 -0.017999999 82
54.602001 -5.895 0.82599998 3
54.286999 -5.7849998 1.663 52
54.016998 -5.684 2.493 46
53.626999 -5.573 3.3080001 50
0 0 0 0
0 0 0 0
119.247 -12.036 1.7309999 19
53.873001 -5.3610001 1.614 7
54.382 -5.3390002 2.4719999 62
54.665001 -5.2969999 3.332 17
49.415001 -4.777 -0.84399998 5
0 0 0 0
0 0 0 0
53.814999 -4.9790001 1.572 3
91.655998 -8.3599997 4.0949998 14
54.543999 -4.9029999 3.28 38
48.868999 -4.3759999 -0.875 3
0 0 0 0
0 0 0 0
113.831 -9.7349997 3.224 46
92.223999 -7.7670002 4.0359998 6
91.853996 -7.6199999 5.4390001 15
45.105999 -3.724 -0.84899998 150
45 -3.654 -0.155 3
0 0 0 0
99.148003 -7.7870002 2.711 10
92.570999 -7.1560001 3.9579999 39
92.290001 -7.0180001 5.3699999 32
45.151001 -3.415 -0.89600003 85
45.292 -3.3629999 -0.20299999 150
97.560997 -7.1110001 1.058 20
66.054001 -4.7309999 1.733 24
66.579002 -4.684 2.7709999 29
92.695999 -6.4109998 5.2870002 33
45.200001 -3.102 -0.949 39
45.990002 -3.095 -0.26100001 78
49.763 -3.283 0.48100001 4
65.541 -4.243 1.64 43
66.148003 -4.1999998 2.6730001 52
93.636002 -5.8260002 5.223 30
46.721001 -2.8789999 -1.041 52
46.382999 -2.799 -0.32300001 76
49.530998 -2.925 0.41299999 13
65.504997 -3.786 1.552 51
66.148003 -3.744 2.5840001 51
43.500999 -2.411 2.368 2
46.504002 -2.5480001 -1.1 58
46.5 -2.487 -0.389 75
42.976002 -2.244 0.29800001 6
42.728001 -2.1760001 0.95099998 123
42.750999 -2.1270001 1.608 77
42.691002 -2.072 2.2609999 30
42.709 -2.043 -1.075 49
42.830002 -1.9960001 -0.42300001 5
52.02 -2.3599999 0.28099999 23
52.032001 -2.296 1.0779999 32
66.112 -2.8410001 2.3840001 41
66.289001 -2.77 3.4070001 20
42.272999 -1.7359999 -1.132 4
49.707001 -1.975 -0.57300001 3
52.181999 -2.0090001 0.19599999 75
52.188 -1.948 0.995 79
66.402 -2.402 2.2839999 31
66.346001 -2.322 3.2980001 9
42.335999 -1.449 -1.207 10
48.066002 -1.586 -0.63599998 15
52.292999 -1.66 0.105 15
52.334999 -1.601 0.90600002 98
113.49 -3.3440001 3.704 26
115.91 -3.276 5.5549998 26
40.771999 -1.1160001 -1.238 3
47.266998 -1.237 -0.71399999 18
82.709 -2.0669999 0.012 9
61.525002 -1.4680001 0.94999999 19
98.300003 -2.2309999 3.0220001 9
115.294 -2.4890001 5.309 10
40.620998 -0.83899999 -1.313 4
47.955002 -0.93199998 -0.81900001 72
52.612999 -0.96100003 -0.094999999 90
54.006001 -0.92400002 0.72600001 19
97.904999 -1.563 2.813 24
117.631 -1.734 5.1750002 14
38.605999 -0.53399998 -1.329 1
47.078999 -0.597 -0.903 80
54.129002 -0.62400001 -0.212 5
54.122002 -0.565 0.61500001 15
97.860001 -0.91100001 2.6070001 24
0 0 0 0
35.827 -0.257 -1.312 1
46.786999 -0.28099999 -1 75
54.215 -0.26699999 -0.33000001 22
54.237999 -0.20900001 0.49700001 31
97.503998 -0.26699999 2.3840001 28
0 0 0 0
34.632999 -0.016000001 -1.349 4
43.745998 0.025 -1.035 4
50.411999 0.083999999 -0.42399999 7
52.730999 0.146 0.361 2
97.913002 0.375 2.1670001 24
99.172997 0.48800001 3.7090001 10
33.743999 0.205 -1.395 3
42.919998 0.30599999 -1.119 11
49.883999 0.414 -0.54000002 23
55.546001 0.51800001 0.24600001 6
52.803001 0.54699999 1.041 5
98.031998 1.122 3.4300001 12
32.564999 0.412 -1.429 6
0 0 0 0
0 0 0 0
0 0 0 0
52.869999 0.89200002 0.90899998 46
80.259003 1.442 2.6040001 4
31.195999 0.60000002 -1.452 7
41.039001 0.83200002 -1.283 4
47.943001 1.022 -0.76700002 60
53.02 1.183 -0.037 66
53.013 1.2410001 0.76999998 43
0 0 0 0
29.945999 0.77100003 -1.476 7
0 0 0 0
46.890999 1.302 -0.87900001 64
53.151001 1.528 -0.183 45
53.143002 1.5829999 0.62800002 49
53.118 1.637 1.438 54
28.830999 0.92699999 -1.5039999 7
0 0 0 0
43.784 1.495 -0.94499999 4
53.257999 1.872 -0.33500001 49
53.237999 1.9220001 0.479 11
79.246002 2.9419999 1.923 21
27.795 1.071 -1.5319999 7
33.473 1.322 -1.3329999 5
43.342999 1.752 -1.062 55
48.778 2.0220001 -0.449 5
43.863998 1.8609999 0.26499999 26
43.77 1.901 0.93300003 45
26.789 1.204 -1.5599999 8
32.160999 1.474 -1.3789999 6
41.314999 1.933 -1.1390001 3
43.713001 2.0869999 -0.53600001 88
43.805 2.1359999 0.131 49
59.247002 2.947 1.082 12
25.688 1.317 -1.5779999 11
30.636 1.598 -1.4119999 6
41.353001 2.1949999 -1.272 6
43.916 2.372 -0.67799997 25
58.457001 3.2130001 -0.0080000004 4
50.868999 2.845 0.76999998 2
24.687 1.4220001 -1.599 8
29.466999 1.722 -1.456 6
0 0 0 0
43.803001 2.6400001 -0.81999999 1
56.083 3.4319999 -0.191 18
49.134998 3.0510001 0.58499998 42
23.643 1.508 -1.612 11
28.042 1.813 -1.4809999 7
0 0 0 0
43.313 2.8789999 -0.95700002 1
0 0 0 0
49.074001 3.3499999 0.419 34
22.721001 1.591 -1.63 18
26.999001 1.913 -1.521 7
32.851002 2.3559999 -1.345 5
41.778 3.0309999 -1.068 1
50.521999 3.7119999 -0.51700002 12
50.348999 3.7449999 0.25600001 37
21.767 1.659 -1.642 17
25.802 1.9859999 -1.5470001 9
31.117001 2.421 -1.386 6
39.604 3.115 -1.155 1
0 0 0 0
49.289001 3.961 0.075999998 28
20.924 1.722 -1.6569999 16
24.693001 2.052 -1.573 11
29.757 2.4960001 -1.436 6
37.486 3.175 -1.232 1
47.207001 4.0370002 -0.82300001 27
49.376999 4.263 -0.102 15
20.122 1.777 -1.671 14
23.509001 2.0940001 -1.587 10
28.325001 2.543 -1.474 6
34.227001 3.0999999 -1.252 4
43.648998 3.9879999 -0.92299998 3
52.986 4.8889999 -0.30700001 61
19.333 1.823 -1.682 13
22.481001 2.135 -1.6059999 14
26.985001 2.5829999 -1.5089999 6
32.791 3.1630001 -1.326 6
41.824001 4.0679998 -1.046 5
0 0 0 0
18.583 1.862 -1.692 12
21.594999 2.1789999 -1.63 16
25.684999 2.6099999 -1.539 9
31.150999 3.1889999 -1.3839999 6
0 0 0 0
47.230999 4.9099998 -0.64099997 13
17.849001 1.8940001 -1.7 11
20.639 2.204 -1.643 15
24.546 2.6370001 -1.572 10
29.334999 3.1730001 -1.423 6
36.23 3.9460001 -1.196 1
47.396 5.1999998 -0.833 31
17.184999 1.924 -1.71 11
19.764999 2.224 -1.6569999 14
23.33 2.641 -1.592 10
28.046 3.194 -1.477 6
34.064999 3.9030001 -1.2640001 5
43.748001 5.046 -0.94700003 6
16.587 1.952 -1.723 10
18.924 2.2379999 -1.669 13
22.247999 2.645 -1.613 17
26.458 3.164 -1.506 6
32.105 3.862 -1.329 6
42.034 5.086 -1.087 5
16.003 1.975 -1.735 9
18.155001 2.2509999 -1.681 12
21.298 2.652 -1.637 16
25.142 3.1470001 -1.54 8
30.405001 3.826 -1.3890001 5
37.543999 4.7509999 -1.132 1
15.417 1.99 -1.742 11
17.497999 2.2679999 -1.701 11
20.306999 2.642 -1.653 15
23.927999 3.128 -1.573 9
28.656 3.7639999 -1.4349999 5
35.82 4.73 -1.237 5
14.795 1.993 -1.7410001 10
16.833 2.276 -1.714 13
19.398001 2.632 -1.668 14
22.688999 3.092 -1.595 18
27.104 3.71 -1.4809999 5
33.148998 4.5599999 -1.294 5
14.171 1.988 -1.7359999 10
16.252001 2.286 -1.732 13
18.528 2.6159999 -1.681 13
21.645 3.069 -1.623 17
17.624001 2.5090001 -1.045 40
30.858 4.4120002 -1.346 5
13.635 1.988 -1.737 12
15.716 2.2969999 -1.751 9
17.527 2.5699999 -1.674 11
16.726 2.46 -1.3329999 51
16.408001 2.4230001 -1.049 50
19.287001 2.859 -0.93000001 41
13.135 1.987 -1.739 12
14.925 2.2620001 -1.737 8
16.23 2.467 -1.6289999 9
16.028 2.444 -1.355 44
15.561 2.381 -1.069 49
18.221001 2.7980001 -0.96600002 46
12.688 1.987 -1.745 13
14.268 2.2390001 -1.733 14
15.551 2.4460001 -1.6390001 8
15.282 2.411 -1.367 49
15.095 2.3889999 -1.112 41
17.188999 2.73 -0.99400002 47
12.256 1.985 -1.749 12
13.664 2.217 -1.73 14
14.994 2.4389999 -1.658 5
15.253 2.4860001 -1.442 37
14.648 2.395 -1.152 52
15.985 2.622 -1.0039999 47
11.859 1.983 -1.756 13
13.12 2.198 -1.73 14
14.561 2.444 -1.6849999 5
14.841 2.4960001 -1.479 41
14.457 2.437 -1.21 53
15.067 2.5480001 -1.022 43
11.469 1.979 -1.761 13
12.642 2.184 -1.735 13
14.165 2.45 -1.714 13
14.733 2.553 -1.545 38
14.364 2.4949999 -1.277 45
14.486 2.523 -1.057 48
11.107 1.973 -1.767 13
12.2 2.1700001 -1.7410001 13
13.693 2.438 -1.7309999 17
14.518 2.5899999 -1.6 38
14.336 2.562 -1.35 50
14.338 2.569 -1.1210001 43
10.772 1.969 -1.774 13
11.799 2.1570001 -1.748 13
13.163 2.4089999 -1.735 17
14.092 2.5840001 -1.6289999 23
14.64 2.6889999 -1.457 38
14.307 2.6340001 -1.194 17
10.437 1.96 -1.778 12
11.385 2.1389999 -1.751 13
12.662 2.3800001 -1.739 17
14.035 2.642 -1.699 11
14.282 2.6919999 -1.498 6
14.17 2.6760001 -1.2589999 32
10.119 1.95 -1.7819999 12
11.022 2.125 -1.758 14
12.176 2.349 -1.7410001 14
13.599 2.625 -1.722 12
14.225 2.75 -1.5700001 6
14.229 2.7550001 -1.341 43
9.8290005 1.943 -1.789 11
10.68 2.1099999 -1.765 13
11.727 2.3180001 -1.744 13
13.058 2.5840001 -1.727 12
14.12 2.7969999 -1.637 13
14.379 2.8510001 -1.434 47
9.5559998 1.9349999 -1.7970001 11
10.356 2.096 -1.773 12
11.326 2.293 -1.751 13
12.578 2.5469999 -1.7359999 16
14.005 2.839 -1.7029999 10
14.45 2.9330001 -1.523 43
9.2790003 1.924 -1.802 10
10.03 2.0780001 -1.777 13
10.947 2.267 -1.756 13
12.107 2.5079999 -1.742 16
13.461 2.7909999 -1.715 10
14.266 2.9619999 -1.585 29
9.0170002 1.9119999 -1.806 12
9.7299995 2.0610001 -1.784 12
10.595 2.244 -1.7640001 13
11.634 2.4630001 -1.743 13
13.004 2.7539999 -1.732 11
14.12 2.994 -1.65 11
8.7670002 1.899 -1.811 11
9.448 2.0450001 -1.79 11
10.27 2.221 -1.772 13
11.22 2.4260001 -1.747 13
12.448 2.6919999 -1.7309999 11
13.932 3.0150001 -1.7079999 12
8.5209999 1.8839999 -1.814 10
9.1719999 2.027 -1.795 11
9.9589996 2.1989999 -1.78 13
10.843 2.3929999 -1.7539999 13
11.987 2.645 -1.739 16
13.335 2.944 -1.714 10
8.2880001 1.8710001 -1.819 10
8.9169998 2.0090001 -1.801 11
9.6639996 2.1760001 -1.7869999 12
10.5 2.362 -1.763 13
11.552 2.599 -1.7460001 14
12.8 2.8800001 -1.722 12
8.0719995 1.858 -1.824 10
8.6689997 1.992 -1.807 11
9.3649998 2.1489999 -1.791 12
10.16 2.3299999 -1.77 12
11.085 2.5409999 -1.743 14
12.33 2.8269999 -1.733 9
7.8590002 1.8430001 -1.8279999 10
8.4280005 1.973 -1.812 10
9.0839996 2.1240001 -1.795 11
9.8409996 2.299 -1.776 13
10.724 2.5039999 -1.7539999 13
11.842 2.7639999 -1.738 11
7.6459999 1.826 -1.83 10
8.1870003 1.951 -1.814 11
8.8319998 2.102 -1.803 11
9.5640001 2.273 -1.7869999 11
10.36 2.461 -1.7589999 12
11.422 2.7119999 -1.747 14
7.4429998 1.809 -1.831 10
7.9749999 1.934 -1.8200001 10
8.585 2.0780001 -1.809 11
9.2620001 2.2390001 -1.79 12
10.052 2.428 -1.771 12
10.948 2.642 -1.742 14
7.2509999 1.793 -1.834 9
7.757 1.913 -1.823 10
8.342 2.053 -1.812 10
8.9849997 2.207 -1.795 11
9.743 2.391 -1.778 13
10.588 2.5969999 -1.751 12
7.0609999 1.774 -1.835 9
7.5539999 1.893 -1.827 10
8.1140003 2.029 -1.817 10
8.7349997 2.1800001 -1.802 11
9.4449997 2.3540001 -1.784 11
10.267 2.556 -1.763 12
6.8439999 1.747 -1.826 10
7.3429999 1.869 -1.826 9
7.8940001 2.0039999 -1.821 10
8.493 2.152 -1.808 10
9.1630001 2.3180001 -1.79 11
9.9289999 2.5090001 -1.7690001 12
6.6989999 1.7359999 -1.835 8
7.164 1.851 -1.831 10
7.6799998 1.979 -1.823 10
8.2530003 2.122 -1.812 10
8.8940001 2.283 -1.796 12
9.6289997 2.4679999 -1.778 12
6.513 1.7130001 -1.831 10
6.9809999 1.83 -1.8329999 9
7.4819999 1.956 -1.8279999 10
8.0249996 2.0929999 -1.817 10
8.6479998 2.2509999 -1.804 11
9.3339996 2.4260001 -1.785 11
6.3540001 1.696 -1.8329999 10
6.8049998 1.809 -1.835 9
7.2800002 1.9299999 -1.83 9
7.809 2.0650001 -1.821 10
8.3900003 2.214 -1.807 10
9.059 2.3859999 -1.7920001 12
6.1989999 1.677 -1.8329999 10
6.592 1.777 -1.825 10
7.0939999 1.906 -1.832 10
7.5890002 2.033 -1.822 10
8.1610003 2.181 -1.813 10
8.7950001 2.346 -1.798 11
6.0479999 1.658 -1.8329999 10
6.421 1.753 -1.824 11
6.8870001 1.874 -1.8279999 10
7.3930001 2.006 -1.827 10
7.934 2.148 -1.817 10
8.54 2.3069999 -1.804 10
5.9130001 1.642 -1.836 10
6.2639999 1.732 -1.825 11
6.691 1.844 -1.824 10
7.191 1.975 -1.826 9
7.7249999 2.1159999 -1.821 10
8.2930002 2.266 -1.807 10
5.7750001 1.624 -1.836 10
6.118 1.712 -1.827 11
6.5250001 1.819 -1.825 12
6.9860001 1.941 -1.823 10
7.5120001 2.0810001 -1.822 10
8.0609999 2.2279999 -1.811 10
5.6469998 1.607 -1.8380001 11
5.9759998 1.693 -1.829 11
6.382 1.8 -1.831 11
6.836 1.921 -1.8329999 9
7.3080001 2.0469999 -1.824 9
7.8449998 2.1919999 -1.816 10
5.5190001 1.589 -1.839 9
5.8319998 1.671 -1.8279999 10
6.2189999 1.774 -1.83 10
6.6269999 1.883 -1.824 11
7.099 2.01 -1.822 11
7.6399999 2.158 -1.821 10
5.395 1.5700001 -1.84 10
5.7010002 1.651 -1.831 12
6.0640001 1.748 -1.829 11
6.4650002 1.857 -1.826 11
6.9130001 1.978 -1.823 11
7.4200001 2.1170001 -1.821 10
5.2690001 1.551 -1.8380001 10
5.5809999 1.6339999 -1.834 11
5.9260001 1.726 -1.831 10
6.2989998 1.827 -1.825 11
6.7259998 1.944 -1.821 10
7.2360001 2.0840001 -1.825 10
5.1550002 1.533 -1.8380001 10
5.4569998 1.614 -1.835 11
5.7950001 1.705 -1.834 11
6.158 1.804 -1.829 10
6.5570002 1.913 -1.822 10
7.0500002 2.05 -1.8279999 9
5.046 1.516 -1.839 10
5.3340001 1.5930001 -1.834 10
5.6620002 1.682 -1.834 11
6.0029998 1.775 -1.826 11
6.4130001 1.888 -1.8279999 11
6.8299999 2.003 -1.818 11
4.948 1.5 -1.842 10
5.2179999 1.572 -1.835 11
5.54 1.66 -1.836 11
5.8730001 1.752 -1.83 11
6.2480001 1.855 -1.826 10
6.6500001 1.967 -1.817 10
4.842 1.482 -1.841 10
5.1170001 1.556 -1.8380001 11
5.4180002 1.638 -1.836 11
5.75 1.729 -1.834 10
6.0970001 1.825 -1.825 10
6.5029998 1.939 -1.822 10
4.737 1.462 -1.839 10
5.007 1.536 -1.8380001 11
5.302 1.6160001 -1.837 13
5.6139998 1.702 -1.832 10
5.9530001 1.796 -1.825 10
6.3449998 1.9069999 -1.823 10
4.6479998 1.447 -1.842 10
4.914 1.5190001 -1.842 12
5.184 1.5930001 -1.835 11
5.493 1.679 -1.8329999 11
5.8270001 1.772 -1.829 10
6.1890001 1.874 -1.822 10
4.559 1.431 -1.8430001 9
4.8119998 1.5 -1.842 12
5.085 1.575 -1.84 12
5.3660002 1.652 -1.831 11
5.7069998 1.748 -1.8329999 11
6.0380001 1.84 -1.821 10
4.4790001 1.4170001 -1.848 10
4.7069998 1.478 -1.839 11
4.9790001 1.553 -1.839 12
5.2550001 1.6289999 -1.832 10
5.572 1.7180001 -1.83 11
5.908 1.813 -1.824 11
4.388 1.398 -1.845 10
4.6199999 1.461 -1.841 11
4.8850002 1.534 -1.842 11
5.1459999 1.6059999 -1.832 12
5.4569998 1.694 -1.832 12
5.7740002 1.783 -1.823 11
4.3010001 1.381 -1.844 9
4.526 1.442 -1.84 10
4.7820001 1.512 -1.84 12
5.059 1.589 -1.839 12
5.342 1.668 -1.832 11
5.6529999 1.756 -1.826 11
4.2270002 1.3660001 -1.847 9
4.4460001 1.425 -1.842 11
4.6929998 1.493 -1.841 12
4.9520001 1.5650001 -1.8380001 11
5.2329998 1.643 -1.8329999 11
5.5359998 1.728 -1.827 11
4.151 1.35 -1.848 10
4.3720002 1.41 -1.846 10
4.599 1.472 -1.84 11
4.8520002 1.5420001 -1.837 11
5.1240001 1.618 -1.832 11
5.421 1.701 -1.8279999 10
4.072 1.332 -1.846 9
4.2909999 1.392 -1.846 10
4.5180001 1.454 -1.8430001 11
4.7670002 1.523 -1.841 11
5.0339999 1.597 -1.837 12
5.309 1.674 -1.8279999 11
4.0009999 1.317 -1.847 9
4.2069998 1.372 -1.844 10
4.4390001 1.436 -1.845 10
4.6680002 1.498 -1.837 12
4.9380002 1.574 -1.8380001 11
5.2090001 1.65 -1.83 12
3.9300001 1.3 -1.846 9
4.1420002 1.358 -1.848 11
4.3540001 1.415 -1.8430001 11
4.5799999 1.477 -1.837 12
4.8429999 1.551 -1.837 11
5.1129999 1.626 -1.8329999 11
3.8659999 1.286 -1.848 9
4.0700002 1.34 -1.848 11
4.2810001 1.397 -1.844 11
4.5100002 1.46 -1.842 10
4.7509999 1.527 -1.837 12
5.0209999 1.603 -1.835 12
3.8 1.27 -1.848 9
3.9920001 1.321 -1.844 11
4.21 1.38 -1.846 11
4.4330001 1.441 -1.8430001 9
4.6659999 1.505 -1.8380001 12
4.9260001 1.5779999 -1.835 11
3.743 1.256 -1.85 8
3.927 1.304 -1.845 11
4.1469998 1.365 -1.85 11
4.3540001 1.42 -1.8430001 10
4.5830002 1.483 -1.8380001 11
4.8369999 1.554 -1.836 11
3.6849999 1.242 -1.852 8
3.8670001 1.289 -1.848 10
4.0669999 1.3430001 -1.846 10
4.2849998 1.403 -1.846 11
4.5009999 1.461 -1.8380001 10
4.7449999 1.529 -1.834 11
3.6300001 1.228 -1.854 9
3.8 1.271 -1.846 10
4.0029998 1.326 -1.848 11
4.2059999 1.381 -1.8430001 11
4.428 1.441 -1.84 9
4.665 1.506 -1.836 11
3.5699999 1.212 -1.853 9
3.7449999 1.257 -1.848 9
3.938 1.308 -1.847 11
4.1469998 1.364 -1.847 11
4.3530002 1.42 -1.839 10
4.5840001 1.483 -1.836 11
3.5150001 1.197 -1.852 8
3.688 1.2410001 -1.849 9
3.872 1.289 -1.845 10
4.0799999 1.345 -1.847 10
4.2870002 1.401 -1.842 10
4.5139999 1.4630001 -1.839 10
3.4690001 1.184 -1.857 8
3.6359999 1.227 -1.851 9
3.8110001 1.272 -1.845 10
4.0139999 1.326 -1.846 11
4.223 1.382 -1.844 11
4.441 1.441 -1.839 9
3.4219999 1.171 -1.859 8
3.586 1.212 -1.853 10
3.757 1.256 -1.846 9
3.9560001 1.309 -1.848 10
4.1550002 1.3609999 -1.8430001 10
4.3709998 1.42 -1.839 10
3.3699999 1.155 -1.857 8
3.536 1.197 -1.854 9
3.7049999 1.24 -1.848 10
3.8959999 1.29 -1.848 9
4.099 1.344 -1.846 10
4.3070002 1.399 -1.841 10
3.316 1.1390001 -1.854 8
3.4860001 1.182 -1.854 9
3.658 1.226 -1.851 10
3.8329999 1.27 -1.845 9
4.0359998 1.324 -1.846 10
4.2389998 1.378 -1.84 10
3.273 1.126 -1.8559999 8
3.4349999 1.166 -1.854 9
3.6059999 1.209 -1.851 9
3.78 1.253 -1.846 9
3.97 1.302 -1.842 10
4.1810002 1.358 -1.842 10
3.23 1.112 -1.8559999 7
3.395 1.153 -1.857 9
3.5599999 1.194 -1.853 9
3.7290001 1.2359999 -1.846 9
3.921 1.286 -1.845 10
4.1269999 1.34 -1.845 10
3.188 1.098 -1.8559999 7
3.348 1.137 -1.8559999 9
3.5179999 1.1799999 -1.855 9
3.684 1.221 -1.849 9
3.8670001 1.268 -1.845 9
4.0630002 1.318 -1.842 10
3.1470001 1.084 -1.8559999 7
3.302 1.122 -1.854 9
3.4679999 1.1619999 -1.853 9
3.6329999 1.2029999 -1.847 8
3.802 1.245 -1.839 9
4.0110002 1.299 -1.8430001 10
3.102 1.069 -1.853 8
3.2620001 1.108 -1.854 9
3.425 1.147 -1.854 9
3.5969999 1.1900001 -1.852 8
3.763 1.23 -1.8430001 10
3.9579999 1.28 -1.8430001 9
3.069 1.057 -1.8559999 8
3.2219999 1.0930001 -1.854 9
3.3929999 1.135 -1.859 9
3.546 1.171 -1.849 9
3.7190001 1.214 -1.845 9
3.9070001 1.261 -1.8430001 9
3.0380001 1.046 -1.859 7
3.1849999 1.079 -1.855 8
3.3429999 1.117 -1.854 8
3.5120001 1.158 -1.854 9
3.678 1.198 -1.847 9
3.858 1.242 -1.8430001 8
3 1.031 -1.8559999 7
3.151 1.066 -1.857 8
3.306 1.102 -1.854 9
3.4690001 1.141 -1.853 9
3.6389999 1.182 -1.85 9
3.8110001 1.224 -1.842 9
2.9649999 1.018 -1.8559999 7
3.112 1.051 -1.855 8
3.2709999 1.0880001 -1.8559999 8
3.427 1.124 -1.852 8
3.5940001 1.164 -1.848 8
3.763 1.205 -1.841 9
2.9300001 1.0039999 -1.855 19
3.0780001 1.0369999 -1.855 8
3.233 1.072 -1.855 8
3.3889999 1.108 -1.851 7
3.559 1.149 -1.851 9
3.7320001 1.1900001 -1.847 9
1.607 0.54900002 -1.028 12
3.043 1.022 -1.853 8
3.201 1.059 -1.8559999 8
3.359 1.095 -1.855 8
3.52 1.132 -1.85 9
3.6900001 1.1720001 -1.846 8
1.494 0.509 -0.96499997 2
3.0220001 1.012 -1.859 7
3.1689999 1.044 -1.8559999 8
3.329 1.081 -1.857 8
3.483 1.115 -1.85 8
3.6559999 1.156 -1.849 8
0 0 0 0
2.9909999 0.99800003 -1.858 7
3.135 1.029 -1.855 8
3.2909999 1.064 -1.854 8
3.451 1.1 -1.852 8
3.622 1.14 -1.85 8
0 0 0 0
2.964 0.98500001 -1.859 7
3.1040001 1.015 -1.854 8
3.26 1.049 -1.854 8
3.414 1.0829999 -1.849 9
3.5869999 1.123 -1.85 8
0 0 0 0
0 0 0 0
3.0829999 1.003 -1.858 8
3.2279999 1.034 -1.853 8
3.382 1.067 -1.849 8
3.5550001 1.107 -1.851 8
0 0 0 0
1.653 0.54400003 -1.0549999 5
3.0550001 0.98900002 -1.858 7
3.2049999 1.021 -1.8559999 8
3.3640001 1.0549999 -1.8559999 8
3.5220001 1.09 -1.85 8
0 0 0 0
1.518 0.49700001 -0.977 3
3.027 0.97399998 -1.8559999 7
3.177 1.006 -1.855 8
3.3310001 1.038 -1.853 8
3.4990001 1.075 -1.854 8
0 0 0 0
0 0 0 0
3.0079999 0.96200001 -1.859 7
3.154 0.99199998 -1.857 7
3.303 1.023 -1.852 8
3.464 1.057 -1.85 9
0 0 0 0
0 0 0 0
2.984 0.94800001 -1.858 7
3.1270001 0.977 -1.855 7
3.2809999 1.0089999 -1.854 8
3.4349999 1.04 -1.849 8
0 0 0 0
0 0 0 0
2.9649999 0.93599999 -1.86 6
3.1010001 0.96200001 -1.853 8
3.256 0.99299997 -1.854 8
3.4130001 1.025 -1.851 8
0 0 0 0
0 0 0 0
0 0 0 0
3.086 0.94999999 -1.857 7
3.227 0.977 -1.85 8
3.392 1.011 -1.853 8
0 0 0 0
0 0 0 0
1.723 0.53500003 -1.095 3
3.0650001 0.935 -1.8559999 7
3.2130001 0.96399999 -1.854 8
3.3729999 0.99599999 -1.854 8
0 0 0 0
0 0 0 0
1.551 0.47799999 -0.99199998 2
3.0480001 0.92199999 -1.857 8
3.1960001 0.94999999 -1.8559999 7
3.349 0.98000002 -1.852 8
0 0 0 0
0 0 0 0
1.5319999 0.46799999 -0.98500001 4
3.0280001 0.90799999 -1.855 7
3.1760001 0.935 -1.855 8
3.3299999 0.96499997 -1.853 8
0 0 0 0
0 0 0 0
1.516 0.45899999 -0.98100001 4
3.016 0.89499998 -1.858 7
3.1570001 0.921 -1.853 7
3.313 0.94999999 -1.853 8
0 0 0 0
0 0 0 0
1.5039999 0.44999999 -0.977 4
2.997 0.88099998 -1.855 6
3.1459999 0.90700001 -1.8559999 8
3.3 0.93599999 -1.8559999 8
0 0 0 0
0 0 0 0
1.499 0.44400001 -0.97799999 4
2.984 0.86699998 -1.8559999 6
3.1340001 0.89399999 -1.857 8
3.2850001 0.921 -1.8559999 7
0 0 0 0
0 0 0 0
1.488 0.43599999 -0.97500002 3
2.971 0.85399997 -1.855 7
3.1140001 0.87800002 -1.854 8
3.267 0.90499997 -1.853 7
0 0 0 0
0 0 0 0
1.475 0.42699999 -0.97000003 2
2.948 0.83700001 -1.848 8
3.112 0.86699998 -1.859 7
3.2579999 0.89200002 -1.855 8
0 0 0 0
0 0 0 0
1.456 0.417 -0.96100003 2
0 0 0 0
3.096 0.852 -1.8559999 7
3.244 0.87599999 -1.853 7
0 0 0 0
0 0 0 0
1.448 0.40900001 -0.95899999 2
0 0 0 0
3.0869999 0.83899999 -1.8559999 7
3.2420001 0.86400002 -1.858 7
0 0 0 0
0 0 0 0
0 0 0 0
1.737 0.47499999 -1.098 6
3.082 0.82599998 -1.858 7
3.23 0.84899998 -1.8559999 7
0 0 0 0
0 0 0 0
0 0 0 0
1.7029999 0.45899999 -1.079 4
3.0780001 0.81300002 -1.859 7
3.2260001 0.83600003 -1.858 8
1.165 0.33199999 -0.85600001 6
0 0 0 0
0 0 0 0
1.649 0.43799999 -1.0470001 2
3.073 0.80000001 -1.86 7
3.2179999 0.82099998 -1.857 8
0 0 0 0
0 0 0 0
0 0 0 0
1.596 0.417 -1.0140001 2
3.0650001 0.78500003 -1.858 7
3.2179999 0.80900002 -1.859 8
0 0 0 0
0 0 0 0
0 0 0 0
1.582 0.40700001 -1.007 1
3.0610001 0.77200001 -1.858 7
3.207 0.79299998 -1.855 8
0 0 0 0
0 0 0 0
0 0 0 0
1.579 0.40000001 -1.006 1
3.063 0.75999999 -1.86 7
3.2130001 0.78100002 -1.86 7
1.161 0.31099999 -0.85600001 6
0 0 0 0
0 0 0 0
1.573 0.39199999 -1.002 1
3.056 0.745 -1.8559999 7
3.2090001 0.76599997 -1.858 7
0 0 0 0
0 0 0 0
0 0 0 0
1.569 0.384 -0.99900001 1
3.0610001 0.73299998 -1.859 7
3.2130001 0.75300002 -1.86 7
0 0 0 0
0 0 0 0
0 0 0 0
1.5650001 0.37599999 -0.99599999 1
3.0680001 0.72100002 -1.862 7
3.21 0.73900002 -1.858 8
0 0 0 0
0 0 0 0
0 0 0 0
1.569 0.37 -0.99800003 1
3.0650001 0.70700002 -1.859 7
3.2149999 0.72600001 -1.859 7
0 0 0 0
0 0 0 0
0 0 0 0
1.574 0.36399999 -1 1
3.0710001 0.69400001 -1.86 6
3.223 0.713 -1.862 7
0 0 0 0
0 0 0 0
1.418 0.329 -0.94300002 3
1.5779999 0.35800001 -1.001 1
3.0769999 0.68199998 -1.8609999 7
3.2290001 0.69999999 -1.862 7
0 0 0 0
0 0 0 0
1.425 0.324 -0.94599998 3
1.5930001 0.354 -1.008 1
3.085 0.66900003 -1.862 7
3.2320001 0.685 -1.8609999 8
0 0 0 0
0 0 0 0
1.432 0.31900001 -0.949 3
0 0 0 0
3.095 0.65700001 -1.864 7
3.24 0.67199999 -1.8609999 7
0 0 0 0
0 0 0 0
1.4349999 0.31299999 -0.94800001 3
0 0 0 0
3.105 0.64399999 -1.865 7
3.2490001 0.65899998 -1.8609999 8
0 0 0 0
0 0 0 0
1.446 0.308 -0.95200002 3
0 0 0 0
3.112 0.63 -1.863 7
3.2609999 0.64499998 -1.862 7
0 0 0 0
0 0 0 0
1.451 0.30199999 -0.95300001 3
2.948 0.59799999 -1.845 6
3.1240001 0.61799997 -1.865 7
3.273 0.63200003 -1.863 7
0 0 0 0
0 0 0 0
1.465 0.29800001 -0.958 2
1.571 0.31099999 -0.97899997 0
3.1329999 0.60399997 -1.863 7
3.2850001 0.61900002 -1.863 7
0 0 0 0
0 0 0 0
1.478 0.29300001 -0.963 3
3.0009999 0.579 -1.864 6
3.1459999 0.59200001 -1.863 7
3.3050001 0.60699999 -1.867 7
0 0 0 0
0 0 0 0
1.488 0.287 -0.96499997 2
3.0190001 0.56699997 -1.8660001 6
3.1600001 0.579 -1.863 8
3.3150001 0.59200001 -1.864 7
0 0 0 0
0 0 0 0
1.5140001 0.285 -0.977 2
3.03 0.55400002 -1.864 7
3.174 0.56599998 -1.862 8
3.3310001 0.579 -1.864 7
0 0 0 0
0 0 0 0
1.526 0.27900001 -0.97899997 2
3.049 0.54299998 -1.8660001 7
3.198 0.55400002 -1.867 7
3.3510001 0.565 -1.865 8
0 0 0 0
0 0 0 0
1.54 0.27399999 -0.98299998 2
3.0669999 0.52999997 -1.867 7
3.21 0.54000002 -1.864 7
3.3670001 0.55199999 -1.864 8
0 0 0 0
1.415 0.252 -0.94199997 6
1.572 0.271 -0.99699998 1
3.0840001 0.51800001 -1.8660001 7
3.2260001 0.52700001 -1.862 8
3.3900001 0.53899997 -1.8660001 8
0 0 0 0
1.431 0.24699999 -0.94700003 6
0 0 0 0
3.108 0.50599998 -1.869 7
3.256 0.51499999 -1.868 8
3.411 0.52499998 -1.8660001 7
0 0 0 0
1.448 0.243 -0.95200002 5
0 0 0 0
3.132 0.49399999 -1.872 7
3.277 0.50199997 -1.867 7
3.4330001 0.51200002 -1.865 8
0 0 0 0
1.467 0.23800001 -0.958 4
3.0079999 0.47299999 -1.872 8
3.1500001 0.48100001 -1.869 8
3.3010001 0.49000001 -1.868 9
3.4560001 0.498 -1.865 8
0 0 0 0
1.487 0.234 -0.96399999 4
3.0309999 0.46200001 -1.873 6
3.174 0.46900001 -1.8710001 7
3.322 0.47600001 -1.867 8
3.4920001 0.486 -1.8710001 8
0 0 0 0
1.512 0.23 -0.97299999 3
3.0610001 0.44999999 -1.878 6
3.194 0.456 -1.868 7
3.352 0.46399999 -1.87 8
3.5120001 0.472 -1.867 8
1.393 0.212 -0.93300003 5
1.549 0.227 -0.98900002 2
3.0829999 0.43799999 -1.877 7
3.223 0.44400001 -1.8710001 7
3.375 0.44999999 -1.868 8
3.5369999 0.458 -1.8660001 8
1.408 0.206 -0.935 5
1.581 0.22400001 -1.001 2
3.1070001 0.426 -1.876 7
3.2490001 0.43099999 -1.87 8
3.4100001 0.43799999 -1.872 8
3.573 0.44600001 -1.87 8
1.434 0.20299999 -0.94499999 5
1.806 0.24600001 -1.1339999 2
3.1300001 0.41299999 -1.874 7
3.2780001 0.41800001 -1.8710001 8
3.4430001 0.426 -1.874 8
3.598 0.43099999 -1.8660001 8
1.462 0.199 -0.954 4
2.9790001 0.39199999 -1.854 8
3.158 0.40099999 -1.874 7
3.3080001 0.40599999 -1.872 7
3.474 0.41299999 -1.874 8
3.6370001 0.41800001 -1.87 9
1.488 0.19499999 -0.963 3
3.039 0.384 -1.875 7
3.1889999 0.389 -1.876 7
3.336 0.39300001 -1.8710001 8
3.5 0.39899999 -1.8710001 8
3.6689999 0.40400001 -1.869 8
1.517 0.191 -0.97299999 2
3.072 0.373 -1.878 7
3.2179999 0.377 -1.875 8
3.3699999 0.38100001 -1.873 8
3.5280001 0.38499999 -1.869 8
3.6989999 0.38999999 -1.8660001 8
1.556 0.18799999 -0.98799998 2
3.098 0.361 -1.876 7
3.2420001 0.36399999 -1.872 8
3.4070001 0.368 -1.875 8
3.566 0.37200001 -1.87 8
3.744 0.377 -1.87 8
1.706 0.197 -1.073 2
3.1300001 0.34900001 -1.877 7
3.2750001 0.35100001 -1.872 8
3.438 0.35499999 -1.873 9
3.6070001 0.359 -1.873 8
