# .PCD v0.7 - Point Cloud Data file format
VERSION 0.7
FIELDS x y z intensity
SIZE 4 4 4 4
TYPE F F F F
COUNT 1 1 1 1
WIDTH 1877
HEIGHT 1
VIEWPOINT 0 0 0 1 0 0 0
POINTS 1877
DATA ascii
0 0 0 0
0 0 0 0
42.632999 8.1169996 8.9759998 1
0 0 0 0
0 0 0 0
0 0 0 0
0 0 0 0
0 0 0 0
0 0 0 0
0 0 0 0
40.195 7.5539999 9.5740004 15
0 0 0 0
0 0 0 0
0 0 0 0
0 0 0 0
0 0 0 0
41.237999 7.645 9.526 10
0 0 0 0
0 0 0 0
0 0 0 0
0 0 0 0
36.909 6.75 7.632 4
36.657001 6.6989999 8.2110004 1
0 0 0 0
0 0 0 0
0 0 0 0
0 0 0 0
37.078999 6.6810002 7.4109998 9
36.713001 6.6110001 7.9640002 4
0 0 0 0
0 0 0 0
0 0 0 0
60.737999 10.79 10.706 2
37.195999 6.599 7.1789999 1
36.807999 6.5240002 7.73 14
37.028 6.5599999 8.4130001 4
0 0 0 0
0 0 0 0
57.931999 10.126 9.8190002 33
0 0 0 0
36.875 6.4289999 7.487 52
36.737 6.4000001 8.0869999 6
0 0 0 0
0 0 0 0
57.868 9.9469995 9.4209995 35
0 0 0 0
37.119999 6.362 7.2820001 23
36.768002 6.296 7.8390002 52
36.951 6.3239999 8.5120001 2
0 0 0 0
56.754002 9.5880003 8.8690004 45
57.889999 9.7620001 10.003 14
37.060001 6.2399998 7.0209999 2
36.876999 6.2010002 7.6090002 52
36.956001 6.2090001 8.2559996 2
37.567001 6.309 9.0410004 2
56.963001 9.4449997 8.5249996 44
57.918999 9.5839996 9.6210003 37
37.039001 6.119 6.7680001 4
37.092999 6.119 7.4000001 52
36.999001 6.098 8.0100002 13
36.828999 6.0669999 8.6049995 16
57.216999 9.309 8.198 37
57.105999 9.2670002 9.1129999 56
57.914001 9.3800001 10.197 7
37.240002 6.0209999 7.1750002 52
0 0 0 0
37.682999 6.0809999 8.5389996 6
57.334999 9.1359997 7.8400002 30
57.186001 9.0889997 8.7480001 36
57.632999 9.1409998 9.7639999 49
37.487999 5.9349999 6.9720001 4
37.705002 5.961 7.6459999 55
37.674 5.9499998 8.2770004 33
57.157001 8.9180002 7.4520001 37
57.317001 8.9189997 8.4020004 26
57.662998 8.9510002 9.3940001 35
0 0 0 0
36.939999 5.711 7.2410002 52
37.703999 5.8210001 8.0240002 28
57.407001 8.7589998 7.1220002 20
57.140999 8.6920004 8.0089998 46
57.076 8.6590004 8.927 57
60.058998 9.0909996 10.378 12
37.115002 5.6069999 7.027 52
36.998001 5.579 7.6240001 17
60.145 8.9630003 7.0830002 9
57.479 8.5380001 7.6900001 27
57.609001 8.5319996 8.6389999 41
59.695999 8.8190002 9.9250002 32
37.087002 5.467 6.777 51
36.595001 5.3850002 7.296 50
62.094002 9.0310001 6.9299998 2
61.848999 8.9639997 7.8889999 7
57.689999 8.3330002 8.2889996 43
57.682999 8.309 9.224 39
37.303001 5.3600001 6.5760002 6
36.723999 5.2659998 7.0799999 50
60.172001 8.5270004 6.3439999 6
59.417 8.3889999 7.2090001 7
58.009998 8.1599998 7.967 29
58.257 8.1689997 8.941 32
0 0 0 0
37.296001 5.204 6.9460001 52
70.373001 9.7060003 6.994 9
59.891998 8.2270002 6.9000001 3
59.132999 8.0930004 7.756 29
39.629002 5.4060001 5.8369999 8
40.004002 5.441 6.5409999 9
37.002998 5.0190001 6.6539998 6
86.765999 11.635 8.1049995 15
60.104 8.0249996 6.5630002 12
60.620998 8.0629997 7.585 25
39.467999 5.2309999 5.572 20
39.522999 5.2210002 6.217 44
39.290001 5.1739998 6.8200002 13
75.741997 9.8590002 6.631 17
59.792999 7.7470002 6.1739998 8
60.129002 7.7579999 7.164 12
39.624001 5.092 5.3520002 37
39.217999 5.0219998 5.927 56
39.331001 5.0170002 6.5770001 39
39.451 4.9749999 3.221 37
39.403 4.9439998 3.8340001 49
39.382999 4.9200001 4.4549999 45
39.231998 4.8800001 5.0609999 56
38.98 4.8299999 5.652 54
38.785 4.7880001 6.2470002 41
73.517998 8.9700003 5.5770001 26
72.721001 8.8269997 6.6550002 30
59.278 7.1599998 6.3559999 26
39.488998 4.7490001 4.8610001 6
39.307999 4.7069998 5.4650002 52
39.279999 4.684 6.0900002 57
73.692001 8.6829996 5.1729999 34
0 0 0 0
0 0 0 0
59.049 6.8509998 6.9239998 26
59.689999 6.8930001 7.9460001 48
39.209999 4.5089998 5.8460002 2
90.844002 10.321 5.8709998 6
74.449997 8.408 5.9679999 27
75.714996 8.5030003 7.2509999 36
59.473 6.6430001 6.6290002 35
58.882 6.5450001 7.4949999 53
60.181999 6.6570001 8.6160002 42
74.496002 8.1429996 4.4029999 24
74.579002 8.1009998 5.5650001 12
0 0 0 0
59.623001 6.402 6.3119998 9
59.397999 6.3400002 7.2210002 45
60.424999 6.4169998 8.3030005 57
74.515999 7.816 3.9979999 9
74.059998 7.7150002 5.1170001 36
73.030998 7.5580001 6.1799998 44
75.461998 7.763 7.5650001 24
59.327999 6.0679998 6.8790002 49
60.743999 6.178 8 6
74.501999 7.4840002 3.5999999 41
74.317001 7.408 4.7329998 5
73.945 7.322 5.8559999 16
72.651001 7.145 6.882 40
70.911003 6.928 7.8260002 5
70.785004 6.8730001 8.9219999 43
75.754997 7.2600002 3.2539999 15
74.538002 7.0869999 4.3470001 17
0 0 0 0
0 0 0 0
75.529999 7.0289998 7.9219999 11
70.793999 6.5419998 8.5279999 34
48.791 4.4499998 1.841 3
75.212997 6.7989998 3.9890001 37
76.040001 6.8200002 5.2059999 27
0 0 0 0
0 0 0 0
70.987999 6.224 8.1660004 18
48.702 4.211 1.586 15
0 0 0 0
74.865997 6.3600001 4.7350001 29
76.257004 6.4229999 5.9980001 13
0 0 0 0
70.829002 5.8649998 7.7639999 35
94.836998 7.7410002 2.6029999 12
93.814003 7.585 4.0100002 20
0 0 0 0
74.445999 5.9060001 5.467 23
75.694 5.9520001 6.7280002 17
71.110001 5.5419998 7.4200001 37
0 0 0 0
93.403999 7.0970001 3.5250001 37
0 0 0 0
0 0 0 0
74.375999 5.48 6.2280002 20
75.651001 5.5190001 7.5009999 5
0 0 0 0
93.317001 6.6230001 3.0569999 19
93.240997 6.546 4.4790001 9
0 0 0 0
0 0 0 0
74.575996 5.0640001 7.0139999 10
50.237 3.3540001 0.63800001 3
94.621002 6.2379999 2.6389999 16
93.264 6.072 4.0209999 19
113.6 7.3049998 6.632 9
0 0 0 0
0 0 0 0
78.717003 4.8509998 0.62300003 8
50.159 3.0480001 1.158 18
93.879997 5.6259999 3.5940001 28
0 0 0 0
112.688 6.5710001 7.75 27
113.88 6.5549998 9.5769997 17
48.186001 2.7219999 0.15700001 2
50.094002 2.7839999 0.921 37
50.07 2.74 1.6799999 38
111.965 6.033 5.46 12
111.954 5.941 7.165 12
0 0 0 0
48.589001 2.4879999 -0.064000003 63
48.706001 2.4519999 0.67299998 72
50.005001 2.474 1.448 63
110.873 5.3920002 4.8940001 27
111.534 5.3340001 6.6220002 28
111.536 5.2459998 8.323 27
0 0 0 0
79.435997 3.576 0.73900002 8
49.890999 2.2030001 1.22 6
109.767 4.7529998 4.348 34
111.88 4.7480001 6.1290002 27
111.789 4.6539998 7.8260002 26
0 0 0 0
62.181 2.4679999 0.30599999 5
48.458 1.8789999 0.97100002 68
48.498001 1.84 1.707 4
62.819 2.3280001 3.1619999 9
112.596 4.0799999 7.3790002 16
43.799 1.54 -0.63300002 65
48.412998 1.656 0.028999999 34
48.389 1.6109999 0.759 77
48.375999 1.569 1.4910001 24
62.444 1.97 2.869 38
62.459 1.915 3.8150001 36
42.785 1.268 -0.79900002 52
48.297001 1.387 -0.17399999 20
48.318001 1.3430001 0.55299997 63
48.251999 1.2970001 1.281 31
62.263 1.614 2.5910001 49
62.507 1.564 3.546 50
38.529999 0.92400002 -0.88099998 7
45.988998 1.059 -0.36000001 12
43.261002 0.95599997 0.31299999 5
48.185001 1.022 1.076 46
61.768002 1.25 2.309 36
38.882999 0.75099999 2.04 34
36.769001 0.67199999 -0.991 1
38.931999 0.676 -0.46200001 51
39.145 0.64300001 0.123 57
39.168999 0.60699999 0.71399999 41
39.206001 0.57099998 1.306 26
39.363998 0.53799999 1.905 23
36.603001 0.46200001 -1.13 3
43.117001 0.50300002 -0.68199998 52
42.576 0.458 -0.032000002 62
43.112 0.42199999 0.61500001 9
61.813999 0.54799998 1.814 54
61.991001 0.48800001 2.75 57
0 0 0 0
42.472 0.25099999 -0.83600003 65
42.615002 0.20999999 -0.197 64
42.862999 0.17 0.44499999 48
62.032001 0.186 1.577 9
61.986 0.125 2.507 53
32.112999 0.033 -1.2359999 3
38.405998 0 -0.90200001 5
41.480999 -0.039000001 -0.34999999 55
42.812 -0.081 0.28200001 54
93.677002 -0.271 2.0239999 20
62.236 -0.242 2.279 41
29.92 -0.145 -1.262 5
38.244999 -0.22400001 -1.038 17
41.431 -0.28400001 -0.50199997 86
41.810001 -0.33000001 0.12 82
121.244 -1.074 2.1700001 15
93.992996 -0.93099999 3.0899999 16
28.549999 -0.31 -1.307 7
36.438 -0.433 -1.1210001 4
41.416 -0.53299999 -0.65100002 127
41.416 -0.574 -0.028999999 26
0 0 0 0
95.281998 -1.512 2.7920001 9
27.358999 -0.46399999 -1.349 9
33.462002 -0.59899998 -1.146 4
41.421001 -0.78399998 -0.796 150
41.421001 -0.82700002 -0.175 58
90.091003 -1.892 0.97000003 26
90.292999 -1.9910001 2.325 63
26.277 -0.60399997 -1.3839999 14
32.192001 -0.773 -1.212 4
42.226002 -1.059 -0.95599997 59
48.785999 -1.273 -0.37200001 7
83.411003 -2.2639999 0.61400002 13
0 0 0 0
25.459 -0.74199998 -1.426 17
30.636999 -0.92500001 -1.255 5
38.292 -1.196 -0.99299997 10
45.895 -1.479 -0.5 4
82.253998 -2.74 0.336 6
121.422 -4.171 2.316 8
24.556999 -0.86900002 -1.454 20
29.073999 -1.058 -1.284 5
38.272999 -1.434 -1.115 21
45.473999 -1.75 -0.64099997 17
68.728996 -2.7160001 0.061999999 4
0 0 0 0
23.650999 -0.98400003 -1.474 17
27.914 -1.1900001 -1.319 7
0 0 0 0
44.27 -1.9809999 -0.75999999 32
50.969002 -2.3340001 -0.11 57
50.966999 -2.391 0.65200001 29
22.847 -1.095 -1.492 18
27.142 -1.3279999 -1.363 9
33.710999 -1.686 -1.186 3
39.006001 -1.993 -0.787 77
39.119999 -2.0420001 -0.20200001 100
39.166 -2.089 0.38299999 68
22.163 -1.2029999 -1.512 17
26.322001 -1.4579999 -1.4 11
32.646999 -1.8430001 -1.244 3
38.915001 -2.2390001 -0.898 41
39.179001 -2.2969999 -0.31600001 4
39.206001 -2.3429999 0.27000001 4
21.490999 -1.3049999 -1.527 17
25.490999 -1.574 -1.426 11
31.412001 -1.974 -1.284 6
38.741001 -2.4779999 -1.002 27
49.887001 -3.25 -0.542 25
83.489998 -5.5359998 0.34200001 7
20.975 -1.41 -1.548 16
24.705999 -1.687 -1.45 15
30.09 -2.0869999 -1.312 5
38.535 -2.7160001 -1.1 19
47.213001 -3.382 -0.639 13
0 0 0 0
20.363001 -1.501 -1.556 15
23.997 -1.795 -1.47 13
29.076 -2.2060001 -1.342 6
38.300999 -2.948 -1.191 13
45.344002 -3.543 -0.72899997 14
65.820999 -5.224 -0.072999999 14
19.893999 -1.597 -1.5700001 24
23.364 -1.901 -1.49 19
28.15 -2.322 -1.37 7
0 0 0 0
44.674999 -3.7869999 -0.829 24
59.617001 -5.125 -0.211 7
19.42 -1.689 -1.58 13
22.737 -2.0020001 -1.505 18
27.326 -2.437 -1.396 8
0 0 0 0
43.733002 -4.0029998 -0.91600001 29
58.591 -5.4349999 -0.347 13
19.009001 -1.7819999 -1.592 13
22.240999 -2.108 -1.524 17
26.77 -2.5669999 -1.429 9
32.882999 -3.191 -1.2589999 4
43.401001 -4.2639999 -1.007 60
52.651001 -5.2360001 -0.43000001 2
18.620001 -1.869 -1.6 12
21.684999 -2.201 -1.534 16
26.153 -2.684 -1.4529999 12
31.885 -3.3110001 -1.29 4
40.903999 -4.2979999 -1.038 2
52.228001 -5.5539999 -0.53899997 12
18.325001 -1.965 -1.614 12
21.243999 -2.3010001 -1.548 16
25.587999 -2.803 -1.476 11
30.881001 -3.4189999 -1.314 5
39.362999 -4.408 -1.08 5
51.389999 -5.8189998 -0.63599998 66
18.014999 -2.056 -1.623 12
20.885 -2.4059999 -1.564 16
24.905001 -2.898 -1.4859999 11
30.242001 -3.556 -1.345 6
39.368999 -4.6760001 -1.156 11
48.667 -5.8449998 -0.69599998 8
17.740999 -2.1470001 -1.633 11
20.448999 -2.4979999 -1.5700001 15
24.475 -3.0179999 -1.506 12
29.414 -3.661 -1.363 6
37.665001 -4.7340002 -1.175 2
48.234001 -6.1259999 -0.77600002 15
17.489 -2.2360001 -1.641 11
20.183001 -2.6029999 -1.585 15
23.965 -3.118 -1.517 16
28.943001 -3.8010001 -1.391 7
37.731998 -5.0029998 -1.2410001 5
46.514999 -6.2280002 -0.82599998 18
17.252001 -2.3239999 -1.648 11
19.841999 -2.6960001 -1.592 14
23.559 -3.2290001 -1.53 16
28.497 -3.9419999 -1.4170001 7
36.757999 -5.1300001 -1.2690001 13
0 0 0 0
17.052 -2.4170001 -1.6569999 10
19.525999 -2.79 -1.598 14
23.171 -3.3369999 -1.541 15
27.839001 -4.0440001 -1.426 7
0 0 0 0
45.123001 -6.6750002 -0.94 23
16.858999 -2.5079999 -1.664 10
19.281 -2.8900001 -1.607 14
22.830999 -3.45 -1.552 15
27.393 -4.1739998 -1.443 8
34.056999 -5.2319999 -1.275 19
45.154999 -7 -1.003 30
16.686001 -2.6010001 -1.671 10
19.039 -2.9890001 -1.613 13
22.539 -3.5650001 -1.562 18
27.042 -4.3119998 -1.461 7
0 0 0 0
45.437 -7.368 -1.068 30
16.542999 -2.6960001 -1.678 10
18.849001 -3.0929999 -1.6210001 13
22.271999 -3.6819999 -1.572 15
26.787001 -4.461 -1.479 8
0 0 0 0
42.654999 -7.2210002 -1.051 11
16.405001 -2.79 -1.684 10
18.657 -3.194 -1.626 13
22.004 -3.793 -1.5779999 18
26.298 -4.5679998 -1.482 7
32.07 -5.6139998 -1.3150001 16
42.464001 -7.493 -1.091 36
16.240999 -2.8789999 -1.6849999 9
18.506001 -3.302 -1.633 12
21.774 -3.911 -1.584 16
26.181999 -4.7360001 -1.501 8
32.435001 -5.9120002 -1.3609999 25
42.249001 -7.7610002 -1.124 41
16.153999 -2.98 -1.692 9
18.353001 -3.4070001 -1.638 12
21.6 -4.0349998 -1.592 17
25.889 -4.8709998 -1.508 9
31.906 -6.0469999 -1.367 27
42.213001 -8.0620003 -1.159 44
16.032 -3.0739999 -1.694 9
18.253 -3.5209999 -1.6440001 12
21.466999 -4.1669998 -1.6 17
25.603001 -5.0050001 -1.512 8
31.475 -6.1950002 -1.372 36
42.360001 -8.3999996 -1.194 20
15.957 -3.175 -1.699 9
18.191 -3.641 -1.653 12
21.304001 -4.2909999 -1.604 17
25.636 -5.198 -1.531 9
31.558001 -6.4429998 -1.396 37
42.119999 -8.6630001 -1.212 14
15.875 -3.277 -1.702 9
18.051001 -3.7460001 -1.652 12
21.176001 -4.421 -1.607 16
25.377001 -5.3330002 -1.531 8
31.6 -6.6859999 -1.415 37
41.787998 -8.9029999 -1.224 12
15.823 -3.382 -1.706 9
18.044001 -3.8770001 -1.661 12
21.107 -4.5640001 -1.613 16
25.391001 -5.5229998 -1.544 8
0 0 0 0
42.75 -9.4239998 -1.27 9
15.78 -3.49 -1.709 9
17.986 -3.9979999 -1.665 12
21.042999 -4.704 -1.617 15
25.32 -5.6950002 -1.548 9
30.981001 -7.0139999 -1.4119999 35
42.245998 -9.6300001 -1.267 11
15.763 -3.602 -1.714 9
17.957001 -4.125 -1.668 12
21.017 -4.8530002 -1.622 16
25.316 -5.881 -1.5549999 8
0 0 0 0
41.348999 -9.7320004 -1.247 48
15.754 -3.7160001 -1.717 9
17.947001 -4.2550001 -1.6720001 12
21.087999 -5.027 -1.631 16
25.253 -6.0560002 -1.556 7
0 0 0 0
43.914001 -10.665 -1.3279999 11
15.748 -3.8329999 -1.72 9
17.959 -4.3930001 -1.675 12
21.083 -5.184 -1.633 16
25.457001 -6.2940001 -1.569 7
0 0 0 0
44.226002 -11.073 -1.336 12
15.75 -3.951 -1.721 9
17.993999 -4.5359998 -1.6799999 12
21.159 -5.362 -1.6390001 17
25.639999 -6.5320001 -1.579 11
31.704 -8.1260004 -1.452 20
44.618999 -11.508 -1.339 12
15.774 -4.0749998 -1.723 9
18.035 -4.6810002 -1.683 12
21.191 -5.5289998 -1.6390001 13
25.608 -6.717 -1.574 7
31.658001 -8.3520002 -1.443 18
45.028 -11.955 -1.341 12
15.809 -4.2020001 -1.726 9
18.080999 -4.829 -1.684 12
21.363001 -5.7340002 -1.647 15
25.829 -6.9699998 -1.58 7
32.042 -8.698 -1.451 15
45.550999 -12.441 -1.34 20
15.86 -4.3369999 -1.728 9
18.162001 -4.9879999 -1.686 12
21.403 -5.9070001 -1.6440001 10
25.996 -7.2129998 -1.58 7
32.099998 -8.9549999 -1.439 10
45.837002 -12.868 -1.327 29
15.898 -4.467 -1.727 9
18.231001 -5.145 -1.686 12
21.542999 -6.1079998 -1.646 9
26.164 -7.4559999 -1.579 6
0 0 0 0
46.112999 -13.295 -1.307 13
15.975 -4.6079998 -1.729 10
18.396 -5.3299999 -1.693 13
21.737 -6.3270001 -1.649 10
26.412001 -7.7290001 -1.579 6
32.655998 -9.6090002 -1.427 7
46.446999 -13.748 -1.284 6
16.091999 -4.7649999 -1.733 10
18.514999 -5.5050001 -1.693 13
22.093 -6.599 -1.6619999 12
0 0 0 0
33.049 -9.974 -1.419 5
46.868999 -14.227 -1.258 4
16.205999 -4.9200001 -1.735 10
18.656 -5.6869998 -1.693 13
22.257999 -6.816 -1.658 8
27.844999 -8.5679998 -1.623 30
33.368 -10.323 -1.404 3
47.261002 -14.709 -1.227 1
16.330999 -5.0830002 -1.737 10
18.847 -5.8889999 -1.696 13
22.559 -7.0799999 -1.6619999 9
28.198 -8.8920002 -1.619 32
0 0 0 0
52.290001 -16.673 -1.304 11
16.492001 -5.2579999 -1.74 11
19.076 -6.1059999 -1.7 14
22.882 -7.3559999 -1.665 8
28.271999 -9.1330004 -1.595 17
39.700001 -12.892 -1.592 4
54.227001 -17.709999 -1.291 11
16.658001 -5.4369998 -1.742 11
19.315001 -6.329 -1.702 14
23.271 -7.6589999 -1.668 7
28.363001 -9.3780003 -1.568 38
39.957001 -13.28 -1.5549999 3
50.313999 -16.819 -1.137 4
16.844 -5.6259999 -1.745 11
19.582001 -6.566 -1.705 15
23.650999 -7.9640002 -1.669 7
29.377001 -9.9379997 -1.589 18
40.348 -13.72 -1.52 4
50.259998 -17.183001 -1.069 10
17.027 -5.816 -1.745 11
19.882999 -6.8169999 -1.707 11
24.084 -8.2919998 -1.669 6
29.801001 -10.309 -1.574 34
40.748001 -14.168 -1.48 5
49.970001 -17.471001 -0.991 45
17.253 -6.0250001 -1.747 12
20.218 -7.086 -1.71 10
24.440001 -8.6020002 -1.661 5
30.028999 -10.618 -1.543 22
41.051998 -14.588 -1.4299999 1
49.646 -17.738001 -0.90799999 2
17.507 -6.2449999 -1.749 12
20.535 -7.3540001 -1.709 9
24.846001 -8.9320002 -1.653 5
0 0 0 0
46.890999 -17.02 -1.562 3
50.937 -18.589001 -0.85000002 37
17.797001 -6.4829998 -1.7539999 12
20.945999 -7.6589999 -1.7130001 8
26.32 -9.6630001 -1.711 28
31.952 -11.782 -1.544 18
47.243 -17.511 -1.492 1
58.139999 -21.664 -0.86799997 3
18.07 -6.7210002 -1.753 13
21.357 -7.9720001 -1.7130001 7
26.712999 -10.012 -1.693 28
32.298 -12.16 -1.5039999 6
47.808998 -18.087 -1.426 1
59.451 -22.610001 -0.77899998 26
18.386999 -6.9770002 -1.7539999 13
21.827999 -8.3129997 -1.714 7
27.101 -10.364 -1.671 9
34.058998 -13.083 -1.526 1
51.222 -19.773001 -1.432 5
52.530998 -20.386999 -0.58399999 77
18.74 -7.2550001 -1.755 11
22.283001 -8.6560001 -1.71 6
27.524 -10.735 -1.645 10
36.678001 -14.371 -1.573 6
57.830002 -22.768999 -1.502 10
59.667999 -23.618999 -0.54100001 28
19.136999 -7.5549998 -1.758 11
22.868999 -9.059 -1.711 5
29.101 -11.575 -1.683 14
33.901001 -13.542 -1.386 4
54.382 -21.827 -1.301 6
60.448002 -24.392 -0.419 42
19.587 -7.8800001 -1.763 9
23.375 -9.4359999 -1.704 5
29.687 -12.03 -1.6569999 9
33.874001 -13.788 -1.313 47
33.745998 -13.8 -0.73299998 66
33.891998 -13.934 -0.15800001 12
20.087999 -8.2320004 -1.767 8
24.021999 -9.8769999 -1.7029999 4
30.264 -12.493 -1.626 14
33.818001 -14.021 -1.237 30
33.764999 -14.065 -0.65799999 44
54.335999 -22.754 -0.127 35
20.563999 -8.5810003 -1.767 7
24.603001 -10.301 -1.6900001 4
30.605 -12.865 -1.576 1
34.040001 -14.37 -1.168 26
33.716 -14.304 -0.57499999 8
68.816002 -29.346001 0.0070000002 35
21.076 -8.9530001 -1.765 6
0 0 0 0
32.334 -13.835 -1.589 4
34.112999 -14.658 -1.0880001 7
61.243 -26.443001 -0.89399999 38
0 0 0 0
21.732 -9.3929996 -1.77 5
26.999001 -11.708 -1.73 31
35.570999 -15.483 -1.663 6
51.133999 -22.356001 -1.505 2
61.216999 -26.889999 -0.74000001 29
140.099 -61.866001 0.73900002 31
22.372 -9.835 -1.77 6
27.427999 -12.098 -1.692 7
35.908001 -15.899 -1.589 4
54.956001 -24.436001 -1.475 2
61.345001 -27.408001 -0.57599998 29
0 0 0 0
23.047001 -10.302 -1.768 5
29.153999 -13.075 -1.726 8
39.150002 -17.624001 -1.633 4
61.803001 -27.941 -1.4960001 7
74.563004 -33.867001 -0.50099999 12
0 0 0 0
23.606001 -10.724 -1.75 4
29.924999 -13.64 -1.693 10
0 0 0 0
64.040001 -29.424 -1.373 13
0 0 0 0
0 0 0 0
24.756001 -11.427 -1.772 23
30.558001 -14.15 -1.648 1
46.733002 -21.723 -1.696 3
58.126999 -27.136 -1.082 63
58.053001 -27.231001 -0.054000001 40
58.021 -27.361 0.97299999 49
0 0 0 0
27.548 -12.96 -1.408 20
27.43 -12.952 -0.917 49
27.545 -13.062 -0.43200001 6
0 0 0 0
88.722 -42.5 1.7640001 20
26.709 -12.715 -1.7640001 17
27.368 -13.073 -1.321 100
27.422001 -13.148 -0.83600003 100
27.382999 -13.185 -0.347 12
131.16499 -63.452999 0.67000002 15
0 0 0 0
0 0 0 0
27.372 -13.269 -1.242 99
27.264999 -13.267 -0.74900001 90
49.032001 -23.961 -0.47 78
93.517998 -45.922001 0.78100002 29
130.795 -64.563004 3.438 15
27.061001 -13.268 -1.6289999 46
27.105 -13.334 -1.147 100
27.188 -13.425 -0.662 55
71.226997 -35.324001 -0.45500001 22
93.055 -46.367001 1.0779999 27
73.989998 -37.064999 2.194 27
27.355 -13.606 -1.564 23
27.160999 -13.555 -1.0650001 100
27.1 -13.574 -0.57499999 47
70.974998 -35.705002 -0.223 25
73.630997 -37.220001 1.101 14
73.303001 -37.25 2.4230001 29
27.011999 -13.626 -1.459 1
26.907 -13.615 -0.96799999 93
27.09 -13.76 -0.484 34
70.925003 -36.183998 0.014 16
73.099998 -37.474998 1.344 15
61.527 -31.709 2.2509999 4
27.118 -13.867 -1.3789999 1
26.9 -13.799 -0.88099998 78
27.041 -13.923 -0.39399999 1
61.598 -31.854 0.22400001 24
61.598 -32.008999 1.35 17
73.974998 -38.646 2.9749999 9
27.181999 -14.084 -1.293 27
27 -14.034 -0.79400003 7
70.535004 -36.806 -0.78899997 38
70.053001 -36.713001 0.498 30
71.755997 -37.789001 1.8279999 17
61.237999 -32.424999 2.6889999 8
27.086 -14.218 -1.199 20
26.93 -14.182 -0.699 17
81.403 -43.028999 -0.625 11
69.833 -37.077 0.74400002 24
71.218002 -37.997002 2.073 15
72.617996 -38.956001 3.4590001 36
26.979 -14.343 -1.101 18
26.825001 -14.307 -0.60299999 13
27.028 -14.47 -0.11 5
70.277 -37.785999 1.006 23
72.495003 -39.171001 2.382 5
0 0 0 0
26.903999 -14.479 -1.005 25
26.85 -14.498 -0.509 90
70.885002 -38.423 -0.034000002 18
69.672997 -37.931999 1.258 18
0 0 0 0
66.453003 -36.554001 3.677 9
27.105 -14.765 -0.91600001 9
80.825996 -44.169998 -1.239 16
69.050003 -37.880001 0.223 10
69.695 -38.402 1.524 20
154.90601 -85.782997 6.2779999 32
0 0 0 0
62.898998 -34.671001 -1.897 3
72.234001 -39.946999 -0.83600003 12
69.153 -38.387001 0.48500001 25
154.358 -86.064003 3.9719999 32
0 0 0 0
69.452003 -39.137001 4.401 26
65.455002 -36.493999 -1.735 11
65.571999 -36.679001 -0.514 69
65.487 -36.773998 0.71200001 31
65.558998 -36.977001 1.9450001 15
69.542999 -39.421001 3.3770001 11
69.459999 -39.591 4.6880002 13
65.301003 -36.812 -1.484 24
121.42 -68.674004 -0.486 40
67.124001 -38.112 0.99199998 45
67.07 -38.254002 2.2550001 58
65.233002 -37.390999 3.427 7
43.136002 -24.864 3.089 14
76.758003 -43.743 -1.451 8
66.987 -38.300999 -0.0070000002 26
66.904999 -38.401001 1.252 66
66.847 -38.539001 2.5179999 11
65.041 -37.685001 3.687 20
42.952 -25.028 3.2579999 33
66.775002 -38.449001 -1.005 34
66.776001 -38.581001 0.25 12
66.568001 -38.611 1.511 59
66.414001 -38.692001 2.7690001 11
69.206001 -40.523998 4.21 16
42.743 -25.172001 3.4230001 21
79.838997 -46.442001 -0.89099997 23
69.651001 -40.650002 0.54100001 11
66.294998 -38.844002 1.776 62
69.058998 -40.644001 3.1670001 18
69.153 -40.910999 4.4970002 12
25.702999 -15.293 2.1689999 3
78.125999 -45.895 -0.56400001 14
121.631 -71.692001 1.433 26
69.292 -41.000999 2.1359999 6
0 0 0 0
42.476002 -25.375999 2.9430001 3
25.597 -15.381 2.2709999 44
77.977997 -46.243999 -0.24699999 8
69.323997 -41.25 1.102 11
25.747 -15.382 0.90100002 4
0 0 0 0
25.573999 -15.427 1.883 32
25.542999 -15.498 2.3800001 26
69.279999 -41.466999 0.059999999 32
0 0 0 0
25.632 -15.455 1.006 26
25.57 -15.488 1.498 30
25.559 -15.562 1.9960001 9
25.833 -15.822 2.5220001 14
25.782 -15.57 0.12899999 25
25.681999 -15.563 0.62199998 25
25.471001 -15.497 1.108 26
25.52 -15.597 1.605 8
41.993 -25.799999 3.4630001 39
20.454 -12.642 2.0899999 29
25.665001 -15.634 0.236 42
25.554001 -15.62 0.727 31
20.525999 -12.596 0.98100001 2
20.478001 -12.625 1.378 37
20.452999 -12.676 1.778 64
20.454 -12.752 2.184 67
25.612 -15.73 0.34299999 46
25.514999 -15.725 0.83399999 31
20.481001 -12.674 1.068 41
20.461 -12.721 1.4680001 65
20.455 -12.785 1.8710001 64
20.433001 -12.846 2.2739999 64
25.594 -15.846 0.45300001 3
25.584999 -15.894 0.94800001 17
20.462999 -12.764 1.158 62
20.451 -12.818 1.558 65
20.431 -12.873 1.96 63
20.414 -12.94 2.3670001 65
89.684998 -55.949001 1.966 18
73.522003 -46.021999 3.0380001 7
20.448999 -12.853 1.245 63
20.437 -12.905 1.647 65
20.42 -12.964 2.052 63
20.399 -13.029 2.4590001 65
73.367996 -46.099998 1.921 12
20.443001 -12.89 0.93400002 1
20.441 -12.941 1.336 65
20.424 -12.993 1.738 65
20.239 -12.944 2.125 61
20.076 -12.918 2.5120001 56
73.415001 -46.448002 2.2420001 21
20.455 -12.987 1.024 23
20.43 -13.025 1.425 65
20.413 -13.077 1.83 65
20.195 -13.007 2.214 62
19.860001 -12.87 2.579 45
72.757004 -46.338001 2.536 30
20.431 -13.058 1.113 60
20.417 -13.103 1.516 65
20.398001 -13.155 1.92 64
20.315001 -13.172 2.3210001 63
20.056999 -13.085 2.6989999 62
0 0 0 0
20.421 -13.134 1.202 62
20.405001 -13.179 1.6059999 64
20.415001 -13.249 2.0139999 65
20.021 -13.064 2.3800001 70
19.839001 -13.026 2.7620001 59
20.514 -13.226 0.89399999 15
20.423 -13.214 1.294 65
20.427 -13.271 1.699 92
19.816999 -12.938 2.0450001 73
19.849001 -13.031 2.451 53
19.486 -12.872 2.8050001 15
20.448999 -13.259 0.98199999 86
20.434 -13.295 1.385 97
20.056 -13.104 1.7589999 66
19.653 -12.904 2.1199999 22
19.646999 -12.972 2.5179999 20
19.948 -13.254 2.9660001 29
20.421 -13.31 1.0700001 77
20.419001 -13.356 1.474 48
19.68 -12.927 1.814 6
19.540001 -12.898 2.1949999 13
19.589001 -13.003 2.5999999 33
20.334999 -13.583 3.119 68
20.464001 -13.403 1.1619999 25
19.372999 -12.734 1.485 4
19.315001 -12.75 1.869 2
19.587 -12.993 2.2909999 29
19.856001 -13.246 2.727 62
20.367001 -13.673 3.2190001 18
20.471001 -13.47 1.255 12
19.341999 -12.773 1.571 15
19.205999 -12.737 1.9450001 19
19.738001 -13.155 2.3989999 62
19.917 -13.35 2.8299999 24
25.110001 -16.938 4.0890002 22
20.488001 -13.539 1.345 1
19.846001 -13.161 1.7 37
19.67 -13.1 2.0810001 74
19.790001 -13.246 2.4960001 22
19.667999 -13.239 2.8859999 32
25.045 -16.966 4.197 28
20.450001 -13.565 1.434 90
19.937 -13.273 1.796 63
19.466999 -13.016 2.1470001 37
19.790001 -13.298 2.586 21
19.579 -13.232 2.9630001 25
18.277 -12.431 3.148 13
20.278 -13.499 1.511 24
19.497 -13.026 1.844 17
19.408001 -13.022 2.2279999 35
19.58 -13.203 2.6470001 30
19.527 -13.243 3.043 2
18.229 -12.443 3.223 28
19.231001 -12.842 1.517 13
19.657 -13.174 1.944 23
19.579 -13.179 2.3340001 58
19.582001 -13.247 2.7360001 20
25.474001 -17.332001 4.0869999 34
18.208 -12.469 3.303 12
19.226999 -12.874 1.6 27
19.528 -13.124 2.0179999 61
19.457001 -13.133 2.405 46
19.610001 -13.303 2.8269999 20
18.290001 -12.48 3.016 9
19.134001 -13.141 3.559 0
19.653999 -13.193 1.721 38
19.607 -13.209 2.112 65
19.715 -13.34 2.5250001 42
19.549999 -13.295 2.905 26
18.253 -12.485 3.0929999 28
19.070999 -13.13 3.635 5
19.823999 -13.335 1.821 45
19.683001 -13.288 2.2049999 63
19.990999 -13.555 2.6470001 50
19.450001 -13.255 2.977 9
18.229 -12.495 3.1700001 25
18.787001 -12.961 3.665 16
19.900999 -13.409 1.914 55
19.690001 -13.316 2.2909999 68
19.941999 -13.545 2.727 27
18.327 -12.511 2.885 1
18.238001 -12.523 3.2509999 10
18.648001 -12.889 3.72 28
19.747999 -13.324 1.984 67
19.333 -13.091 2.332 56
19.775 -13.449 2.79 21
18.301001 -12.51 2.96 11
18.181999 -12.501 3.3210001 1
18.247 -12.628 3.721 28
19.684999 -13.293 2.062 69
19.448 -13.181 2.4300001 67
19.598 -13.342 2.849 25
18.263 -12.496 3.0320001 22
19.164 -13.189 3.5840001 3
18.052 -12.506 3.76 32
19.738001 -13.337 2.1500001 34
19.738001 -13.386 2.549 45
19.535 -13.306 2.9230001 15
18.243 -12.49 3.1070001 29
19.052999 -13.12 3.645 5
18.087 -12.537 3.846 35
19.733999 -13.337 2.2309999 43
20.002001 -13.568 2.6659999 49
19.410999 -13.225 2.984 7
18.223 -12.478 3.1789999 29
18.809 -12.955 3.678 6
17.899 -12.409 3.882 38
19.643999 -13.274 2.3010001 67
19.903 -13.498 2.7349999 21
25.669001 -17.485001 4.0539999 10
18.212999 -12.47 3.253 24
18.716999 -12.889 3.7379999 10
17.846001 -12.371 3.9449999 39
19.424999 -13.119 2.355 46
19.771999 -13.402 2.7969999 21
18.288 -12.45 2.9630001 1
18.216 -12.464 3.3299999 13
18.159 -12.498 3.701 18
17.889999 -12.394 4.0279999 32
19.299 -13.021 2.4170001 24
19.587999 -13.265 2.849 34
18.304001 -12.45 3.0380001 3
18.072001 -12.354 3.375 14
18.069 -12.424 3.756 18
18.040001 -12.485 4.1360002 37
19.826 -13.359 2.562 51
19.591999 -13.25 2.927 36
18.295 -12.426 3.109 6
18.031 -12.309 3.4389999 10
17.997999 -12.359 3.813 28
18.125 -12.527 4.2280002 38
19.733 -13.274 2.6270001 41
19.538 -13.191 2.9949999 15
18.299 -12.408 3.181 11
18.148001 -12.368 3.5309999 12
17.746 -12.164 3.8269999 30
17.926001 -12.368 4.2490001 38
19.52 -13.104 2.6719999 24
25.440001 -17.139 3.9979999 23
18.273001 -12.364 3.2460001 12
18.142 -12.338 3.5999999 8
17.789 -12.168 3.904 35
17.785999 -12.245 4.2839999 41
19.951 -13.36 2.8069999 43
20.371 -13.69 3.2780001 12
18.254999 -12.321 3.3099999 17
18.160999 -12.32 3.671 3
17.77 -12.125 3.9660001 29
17.761 -12.197 4.3449998 35
20.079 -13.407 2.8989999 65
20.372 -13.652 3.352 83
18.235001 -12.273 3.3729999 23
17.893999 -12.104 3.681 3
17.73 -12.062 4.0219998 42
17.764999 -12.165 4.4099998 29
20.037001 -13.336 2.9649999 33
20.410999 -13.634 3.4319999 13
18.243999 -12.238 3.441 25
18.021 -12.149 3.773 9
17.796 -12.067 4.099 37
17.658001 -12.051 4.4460001 32
19.917999 -13.21 3.017 37
25.129 -16.726 4.3130002 39
18.245001 -12.195 3.5039999 17
18.069 -12.137 3.845 27
17.841999 -12.053 4.1729999 36
17.916 -12.182 4.573 18
20.021999 -13.226 3.1040001 30
20.275999 -13.441 3.55 1
18.214001 -12.126 3.5599999 37
17.839001 -11.935 3.8559999 33
17.726999 -11.927 4.2049999 34
18.18 -12.311 4.6999998 18
20.360001 -13.391 3.224 95
20.339001 -13.424 3.6289999 81
18.143999 -12.026 3.6070001 25
17.851 -11.89 3.9170001 34
17.834999 -11.946 4.289 22
18.07 -12.182 4.7309999 17
20.381001 -13.342 3.2939999 90
20.367001 -13.379 3.701 96
17.969999 -11.854 3.6300001 44
17.763 -11.775 3.954 36
18.216999 -12.144 4.4380002 31
28.296 -18.983 7.4970002 37
24.874001 -16.201 4.0999999 36
20.406 -13.336 3.7720001 8
17.966 -11.79 3.6860001 37
17.737 -11.696 4.0050001 39
18.330999 -12.156 4.5219998 38
28.465 -18.997 7.6279998 30
24.871 -16.110001 4.1789999 40
18.523001 -12.039 3.4809999 17
17.921 -11.697 3.7309999 43
17.746 -11.638 4.059 39
18.268 -12.047 4.5609999 26
28.708 -19.051001 7.7779999 14
24.879999 -16.021999 4.256 32
18.375 -11.874 3.5090001 37
17.917 -11.625 3.7839999 50
17.900999 -11.67 4.1479998 18
18.487 -12.118 4.6690001 17
28.290001 -18.66 7.7459998 24
25.083 -16.052999 4.3629999 33
18.408001 -11.82 3.5680001 10
17.993 -11.601 3.8510001 37
18.156 -11.761 4.2579999 30
18.562 -12.091 4.7389998 15
28.493999 -18.674999 7.8790002 43
24.747999 -15.734 4.3769999 32
18.604 -11.867 3.6589999 18
18.158001 -11.63 3.9349999 49
18.135 -11.67 4.3010001 20
18.549 -12 4.7849998 21
20.323999 -13.229 5.6729999 1
24.773001 -15.641 4.4489999 31
18.594 -11.779 3.707 16
18.059999 -11.485 3.9630001 35
17.993 -11.496 4.3150001 28
18.584 -11.937 4.842 2
20.349001 -13.151 5.73 8
24.711 -15.486 4.5050001 53
18.518 -11.643 3.7409999 24
18.371 -11.596 4.079 19
18.360001 -11.643 4.4499998 29
26.038 -16.601 6.849 1
20.386999 -13.076 5.7919998 16
24.764 -15.402 4.5780001 57
18.610001 -11.612 3.8050001 32
18.514 -11.597 4.1560001 23
18.391001 -11.572 4.5009999 0
18.247 -11.542 4.842 0
20.389999 -12.974 5.8379998 27
24.895 -15.358 4.6630001 42
18.686001 -11.564 3.8659999 33
19.000999 -11.804 4.3099999 7
24.656 -15.386 6.0910001 26
18.319 -11.492 4.9029999 16
18.222 -11.499 5.257 0
24.768 -15.151 4.6989999 49
18.854 -11.569 3.9449999 17
24.5 -15.091 5.6129999 31
24.621 -15.233 6.1370001 25
18.353001 -11.413 4.9510002 33
18.101 -11.323 5.2600002 1
25.212999 -15.288 4.8410001 33
19.309 -11.744 4.0840001 4
24.957001 -15.236 5.7709999 30
26.037001 -15.965 6.5440001 35
18.441999 -11.365 5.0120001 1
18.261 -11.319 5.342 5
25.431 -15.278 4.9390001 32
24.693001 -14.881 5.2750001 31
25.142 -15.207 5.8649998 33
0 0 0 0
26.507 -16.183001 7.2540002 37
18.256001 -11.21 5.3740001 40
25.426001 -15.131 4.9899998 45
24.992001 -14.918 5.388 33
24.773001 -14.841 5.8280001 40
25.872 -15.566 6.6030002 40
24.754999 -14.969 6.8189998 15
20.461 -12.443 6.059 33
25.384001 -14.96 5.0320001 44
25.715 -15.199 5.5939999 34
25.406 -15.071 6.0229998 33
25.084 -14.943 6.4460001 30
24.697001 -14.785 6.8439999 34
20.472 -12.325 6.0939999 30
25.653999 -14.966 5.132 44
25.909 -15.16 5.6810002 37
25.254 -14.828 6.0300002 29
25.458 -15.011 6.5819998 11
25.048 -14.841 6.9809999 25
20.476 -12.199 6.1259999 28
25.618 -14.788 5.171 52
25.474001 -14.749 5.6290002 32
25.280001 -14.687 6.0760002 31
25.438999 -14.84 6.6170001 32
26.802 -15.71 7.5079999 25
20.445 -12.05 6.145 45
25.552999 -14.591 5.1999998 54
25.285 -14.479 5.6269999 47
25.440001 -14.617 6.1550002 32
25.483 -14.701 6.6659999 32
26.799999 -15.535 7.546 36
20.459999 -11.923 6.1750002 32
25.658001 -14.487 5.2610002 49
25.351999 -14.353 5.6799998 44
25.382999 -14.419 6.1760001 41
25.552 -14.573 6.7179999 32
27.059 -15.505 7.652 11
20.452999 -11.781 6.1960001 37
25.750999 -14.371 5.3179998 32
25.391001 -14.208 5.724 41
25.464001 -14.296 6.2290001 44
25.688999 -14.478 6.7849998 32
32.712002 -18.523001 9.2880001 25
20.452999 -11.643 6.2189999 26
25.854 -14.258 5.375 29
25.551001 -14.128 5.7930002 49
25.414 -14.097 6.2459998 27
25.908001 -14.427 6.8709998 32
25.502001 -14.266 7.2659998 10
20.513 -11.534 6.256 18
25.979 -14.152 5.4320002 8
25.809 -14.096 5.881 20
34.326 -18.809 8.474 30
26.065001 -14.338 6.9380002 22
25.594999 -14.142 7.316 31
20.539 -11.406 6.2810001 15
0 0 0 0
26.059 -14.056 5.9650002 5
0 0 0 0
26.09 -14.168 6.9679999 19
25.511 -13.914 7.3119998 52
20.601 -11.292 6.3140001 14
0 0 0 0
0 0 0 0
0 0 0 0
26.105 -13.992 6.993 41
25.608999 -13.786 7.3579998 49
25.296 -13.685 7.7690001 37
0 0 0 0
0 0 0 0
0 0 0 0
26.031 -13.768 6.9889998 33
25.719999 -13.661 7.4039998 41
26.076 -13.917 8.0209999 34
0 0 0 0
0 0 0 0
0 0 0 0
26.313 -13.725 7.0799999 34
26.214001 -13.73 7.559 42
26.389 -13.889 8.1260004 36
0 0 0 0
0 0 0 0
0 0 0 0
26.634001 -13.7 7.1789999 6
26.238001 -13.551 7.5760002 34
26.643 -13.825 8.2119999 40
0 0 0 0
0 0 0 0
0 0 0 0
26.882 -13.629 7.256 1
26.246 -13.361 7.586 21
26.57 -13.588 8.1960001 36
0 0 0 0
0 0 0 0
0 0 0 0
0 0 0 0
26.414 -13.246 7.638 39
26.583 -13.391 8.2010002 37
0 0 0 0
0 0 0 0
0 0 0 0
0 0 0 0
26.582001 -13.13 7.6880002 37
26.372999 -13.084 8.1339998 43
0 0 0 0
0 0 0 0
0 0 0 0
0 0 0 0
26.117001 -12.699 7.552 54
26.509001 -12.948 8.1719999 35
0 0 0 0
0 0 0 0
0 0 0 0
26.891001 -12.824 7.2680001 34
26.181 -12.531 7.5669999 45
26.539 -12.757 8.1759996 35
0 0 0 0
0 0 0 0
27.223 -12.735 6.8540001 10
26.823 -12.585 7.2449999 48
26.281 -12.375 7.5890002 41
26.966 -12.753 8.2969999 43
0 0 0 0
0 0 0 0
0 0 0 0
26.891001 -12.409 7.2579999 51
26.412001 -12.233 7.618 38
27.167 -12.633 8.3459997 35
0 0 0 0
0 0 0 0
28.271 -12.789 7.1059999 9
27.174 -12.33 7.3239999 63
27.443001 -12.495 7.9029999 52
27.535999 -12.59 8.4449997 46
0 0 0 0
0 0 0 0
0 0 0 0
27.667 -12.34 7.4429998 47
27.471001 -12.295 7.8940001 35
27.556999 -12.382 8.4329996 34
0 0 0 0
0 0 0 0
0 0 0 0
27.997 -12.27 7.5170002 44
0 0 0 0
27.818001 -12.28 8.4919996 22
0 0 0 0
0 0 0 0
0 0 0 0
28.347 -12.203 7.5910001 11
0 0 0 0
0 0 0 0
0 0 0 0
0 0 0 0
0 0 0 0
0 0 0 0
0 0 0 0
0 0 0 0
0 0 0 0
0 0 0 0
0 0 0 0
0 0 0 0
0 0 0 0
0 0 0 0
0 0 0 0
0 0 0 0
0 0 0 0
0 0 0 0
0 0 0 0
0 0 0 0
0 0 0 0
0 0 0 0
0 0 0 0
0 0 0 0
0 0 0 0
0 0 0 0
0 0 0 0
0 0 0 0
0 0 0 0
0 0 0 0
0 0 0 0
0 0 0 0
0 0 0 0
0 0 0 0
0 0 0 0
0 0 0 0
0 0 0 0
0 0 0 0
0 0 0 0
0 0 0 0
0 0 0 0
0 0 0 0
0 0 0 0
0 0 0 0
0 0 0 0
0 0 0 0
0 0 0 0
0 0 0 0
0 0 0 0
0 0 0 0
0 0 0 0
0 0 0 0
0 0 0 0
0 0 0 0
0 0 0 0
0 0 0 0
49.695999 -17.444 10.205 7
0 0 0 0
0 0 0 0
0 0 0 0
0 0 0 0
0 0 0 0
49.917 -17.139999 10.178 9
0 0 0 0
0 0 0 0
0 0 0 0
0 0 0 0
0 0 0 0
51.480999 -17.284 10.414 18
0 0 0 0
0 0 0 0
0 0 0 0
0 0 0 0
0 0 0 0
50.821999 -16.679001 10.195 40
0 0 0 0
0 0 0 0
0 0 0 0
0 0 0 0
0 0 0 0
43.862999 -14.066 8.7229996 3
0 0 0 0
0 0 0 0
0 0 0 0
0 0 0 0
0 0 0 0
41.797001 -13.091 8.2329998 1
0 0 0 0
0 0 0 0
0 0 0 0
0 0 0 0
0 0 0 0
41.872002 -12.802 8.165 2
51.235001 -15.673 10.817 3
0 0 0 0
0 0 0 0
0 0 0 0
0 0 0 0
44.833 -13.374 8.6520004 40
0 0 0 0
0 0 0 0
0 0 0 0
0 0 0 0
0 0 0 0
42.675999 -12.416 8.1429996 1
44.206001 -12.865 9.1420002 4
0 0 0 0
0 0 0 0
0 0 0 0
0 0 0 0
0 0 0 0
44.285999 -12.562 9.0550003 38
0 0 0 0
0 0 0 0
0 0 0 0
0 0 0 0
42.935001 -11.864 7.9970002 15
44.403 -12.271 8.9720001 2
0 0 0 0
0 0 0 0
0 0 0 0
0 0 0 0
42.932999 -11.553 7.8920002 46
44.662998 -12.017 8.9139996 30
0 0 0 0
0 0 0 0
0 0 0 0
0 0 0 0
42.952 -11.244 7.7859998 67
43.999001 -11.521 8.6680002 65
0 0 0 0
0 0 0 0
0 0 0 0
0 0 0 0
42.880001 -10.919 7.6599998 60
43.584 -11.097 8.4689999 59
40.290001 -10.262 8.467 27
39.334 -10.028 8.8970003 5
0 0 0 0
0 0 0 0
42.23 -10.455 7.4320002 69
41.021 -10.153 7.8569999 8
39.373001 -9.7469997 8.1630001 3
41.363998 -10.247 9.2360001 5
40.486 -10.042 9.6940002 7
0 0 0 0
40.807999 -9.8129997 7.0669999 5
41.481998 -9.9729996 7.8280001 10
40.747002 -9.7969999 8.3280001 8
41.633999 -10.016 9.1709995 27
0 0 0 0
0 0 0 0
41.498001 -9.6870003 7.066 30
44.280998 -10.333 8.2259998 26
39.414001 -9.1999998 7.9390001 20
39.473999 -9.2180004 8.5760002 12
40.710999 -9.5179996 9.4969997 3
0 0 0 0
41.450001 -9.3920002 6.9369998 66
41.064999 -9.3030005 7.507 3
39.654999 -8.9829998 7.8670001 16
39.689999 -8.9949999 8.4989996 29
41.290001 -9.3629999 9.4989996 6
40.612 -9.2220001 9.9989996 1
41.473 -9.1129999 6.8140001 58
41.334999 -9.0799999 7.427 6
39.577999 -8.6920004 7.7259998 20
40.299 -8.8529997 8.5 17
41.042999 -9.0240002 9.3100004 9
41.466999 -9.1289997 10.072 7
41.285 -8.7939997 6.6550002 44
42.584 -9.0640001 7.5170002 2
40.91 -8.7060003 7.855 13
39.544998 -8.4160004 8.2119999 60
41.890999 -8.9189997 9.3590002 6
41.348999 -8.8140001 9.8999996 12
41.472 -8.552 6.5510001 37
41.073002 -8.4630003 7.1149998 5
42.276001 -8.71 7.9759998 6
43.271999 -8.915 8.8380003 2
41.132 -8.4779997 9.0489998 1
41.755001 -8.6120005 9.849 15
0 0 0 0
41.580002 -8.2889996 7.0619998 7
41.716 -8.3120003 7.7270002 1
0 0 0 0
41.467999 -8.2659998 8.9759998 6
41.978001 -8.3739996 9.7519999 27
0 0 0 0
0 0 0 0
42.297001 -8.1479998 7.6880002 16
42.490002 -8.1820002 8.3780003 3
43.242001 -8.3299999 9.2030001 3
42.291 -8.1520004 9.6689997 12
0 0 0 0
0 0 0 0
0 0 0 0
42.181999 -7.842 8.1630001 12
0 0 0 0
41.806 -7.7779999 9.3999996 10
0 0 0 0
0 0 0 0
0 0 0 0
41.948002 -7.526 7.9640002 1
0 0 0 0
41.588001 -7.4640002 9.1929998 3
36.882 -6.3969998 5.1830001 2
37.354 -6.4710002 5.8099999 10
0 0 0 0
0 0 0 0
0 0 0 0
41.584999 -7.191 9.0290003 3
36.835999 -6.1560001 5.039 39
37.314999 -6.2270002 5.664 52
0 0 0 0
0 0 0 0
0 0 0 0
0 0 0 0
36.549999 -5.8779998 4.8590002 52
37.452 -6.013 5.539 54
37.282001 -5.9790001 6.0770001 10
0 0 0 0
0 0 0 0
0 0 0 0
35.835999 -5.5409999 4.6240001 48
37.168999 -5.737 5.3499999 55
37.152 -5.7259998 5.9060001 52
0 0 0 0
0 0 0 0
0 0 0 0
35.814999 -5.3200002 4.48 48
36.548 -5.4169998 5.1129999 51
37.113998 -5.4920001 5.7490001 52
36.77 -5.434 6.2519999 2
0 0 0 0
0 0 0 0
35.630001 -5.0780001 4.3109999 46
36.448002 -5.1830001 4.9510002 55
37.803001 -5.3670001 5.7010002 37
36.931 -5.2379999 6.1279998 51
0 0 0 0
0 0 0 0
35.674 -4.8720002 4.1700001 59
36.347 -4.9520001 4.7849998 48
0 0 0 0
36.541 -4.96 5.9060001 50
36.896 -5.0029998 6.5240002 3
39.498001 -5.3509998 7.5879998 3
35.942001 -4.6960001 4.0479999 42
36.402 -4.744 4.638 55
37.262001 -4.8470001 5.303 53
36.52 -4.7410002 5.744 50
37.015999 -4.7979999 6.382 43
39.143002 -5.0669999 7.3460002 2
67.945999 -8.4840002 7.3600001 23
36.369999 -4.5289998 4.4759998 34
36.022999 -4.4759998 4.9689999 47
36.605 -4.539 5.5970001 50
36.563 -4.527 6.1430001 49
38.830002 -4.8010001 7.1149998 5
67.976997 -8.099 7.0650001 7
36.555 -4.342 4.3369999 5
36.016998 -4.2670002 4.8070002 48
0 0 0 0
36.712002 -4.3319998 6.0009999 49
37.872002 -4.461 6.7649999 47
74.574997 -8.4630003 7.4190001 16
45.263 -5.1220002 5.1680002 32
0 0 0 0
35.935001 -4.0430002 5.1680002 37
37.058998 -4.1630001 5.8889999 27
38.087002 -4.2690001 6.6259999 53
65.593002 -7.0830002 6.2280002 34
39.550999 -4.256 4.335 1
36.153999 -3.8789999 4.4970002 2
36.071999 -3.858 5.0219998 47
37.368999 -3.9879999 5.763 37
38.702 -4.1230001 6.5539999 55
78.664001 -8.066 7.1090002 15
39.549 -4.04 4.1529999 1
38.035999 -3.8729999 4.5549998 8
36.083 -3.6630001 4.8569999 4
38.266998 -3.8729999 5.7199998 11
38.761002 -3.9130001 6.3769999 56
66.393997 -6.447 5.6859999 17
39.214001 -3.7939999 3.9319999 17
38.226002 -3.684 4.395 22
38.008999 -3.652 4.934 27
38.429001 -3.681 5.5619998 54
38.757 -3.7019999 6.191 9
65.670998 -6.0289998 5.3109999 31
65.598999 -5.9959998 6.2620001 35
38.221001 -3.4790001 4.2090001 51
38.213001 -3.467 4.7740002 28
38.667999 -3.4960001 5.4060001 55
39.780998 -3.585 6.1570001 45
85.807999 -7.428 6.52 36
74.274002 -6.402 6.7280002 33
38.254002 -3.2820001 4.026 48
38.109001 -3.256 4.573 39
38.717999 -3.2950001 5.2210002 26
39.134998 -3.3199999 5.862 56
121.004 -9.8579998 8.6040001 11
38.737999 -3.141 3.319 10
39.457001 -3.1819999 3.957 2
38.202 -3.0680001 4.395 14
38.105 -3.046 4.947 3
38.856998 -3.095 5.625 50
67.079002 -5.1290002 4.4359999 24
38.862999 -2.9549999 3.135 30
65.322998 -4.9429998 6.2259998 19
39.014 -2.937 4.2919998 30
39.049 -2.927 4.875 51
63.278 -4.7210002 8.8409996 23
90.112999 -6.447 5.506 38
38.990002 -2.7720001 2.948 46
39.158001 -2.7679999 3.533 2
39.061001 -2.7449999 4.0960002 55
39.094002 -2.734 4.678 51
63.242001 -4.4000001 8.507 34
89.168999 -5.9429998 4.987 32
39.175999 -2.5940001 2.7590001 44
39.242001 -2.5810001 3.336 49
39.240002 -2.5669999 3.9130001 41
39.139 -2.5450001 4.48 52
39.091999 -2.526 5.052 2
39.164001 -2.4219999 1.985 42
39.216999 -2.408 2.556 6
90.070999 -5.4949999 7.1869998 10
63.216 -3.8299999 5.9699998 5
39.310001 -2.3659999 4.2909999 32
39.231998 -2.345 4.8610001 23
39.09 -2.234 1.773 48
50.131001 -2.842 3 17
90.202003 -5.0739999 6.7129998 23
89.454002 -4.994 7.9660001 39
67.094002 -3.717 6.961 9
39.449001 -2.1689999 4.6739998 26
50.441002 -2.6500001 2.016 48
50.205002 -2.6140001 2.734 54
88.234001 -4.5580001 6.092 20
89.702003 -4.5949998 7.5050001 31
89.445 -4.5430002 8.7969999 24
67.036003 -3.3789999 7.5840001 25
50.764 -2.4400001 1.755 46
50.389 -2.4000001 2.474 63
50.271 -2.372 3.2 60
50.014999 -2.336 3.9119999 22
88.640999 -4.105 8.2370005 42
66.121002 -3.033 7.118 11
50.976002 -2.227 1.482 18
50.591 -2.1860001 2.204 57
50.254002 -2.1489999 2.9219999 46
49.985001 -2.115 3.6359999 64
49.685001 -2.0799999 4.3429999 21
67.724998 -2.8080001 6.9180002 33
0 0 0 0
50.950001 -1.982 1.936 7
50.459999 -1.939 2.651 60
50.290001 -1.909 3.3759999 24
49.862999 -1.87 4.0780001 30
49.793999 -1.847 4.8060002 5
121.324 -4.263 2.1619999 11
115.79 -4.0120001 3.7409999 10
50.206001 -1.716 2.3540001 48
50.868999 -1.716 3.1289999 58
51.014999 -1.696 3.882 6
67.531998 -2.214 6.131 25
116.398 -3.6140001 1.416 18
0 0 0 0
50.158001 -1.508 2.066 14
51.337002 -1.52 2.865 9
50.828999 -1.48 3.5780001 61
50.706001 -1.452 4.3130002 6
83.031998 -2.243 0.528 22
0 0 0 0
111.222 -2.8940001 3.938 38
91.611 -2.3410001 4.5830002 21
51.214001 -1.285 3.312 4
50.792 -1.249 4.027 44
59.219002 -1.368 0.030999999 3
90.198997 -2.0409999 1.36 83
90.273003 -1.998 2.674 52
90.341003 -1.954 3.994 14
90.480003 -1.914 5.3260002 19
50.932999 -1.052 3.744 5
41.372002 -0.79900002 -0.219 79
82.728996 -1.558 0.764 16
0 0 0 0
110.232 -1.962 4.2259998 48
110.894 -1.918 5.8720002 12
88.543999 -1.4859999 5.9840002 12
41.375999 -0.64499998 -0.46700001 150
41.382 -0.62300003 0.133 13
0 0 0 0
94.107002 -1.322 3.046 9
89.260002 -1.2079999 4.1929998 18
88.836998 -1.156 5.473 25
41.388 -0.49399999 -0.71799999 98
41.414001 -0.47299999 -0.116 150
45.778999 -0.49900001 0.53799999 16
93.847 -0.97500002 2.4719999 35
89.863998 -0.88700002 3.6800001 20
88.818001 -0.829 4.9369998 31
38.330002 -0.32300001 -0.898 5
41.408001 -0.32699999 -0.36700001 95
42.884998 -0.317 0.24600001 57
93.93 -0.64399999 1.9069999 18
0 0 0 0
0 0 0 0
0 0 0 0
41.400002 -0.18799999 -0.61699998 49
42.202999 -0.169 -0.013 65
43.109001 -0.149 0.61400002 3
62.250999 -0.18099999 1.7970001 41
62.258999 -0.149 2.71 42
32.806999 -0.057 -1.1720001 5
38.844002 -0.046 -0.82099998 1
41.569 -0.028000001 -0.26899999 62
42.743 -0.0060000001 0.347 65
93.927002 0.037 2.138 20
61.945 0.057 2.319 48
29.806999 0.043000001 -1.25 5
0 0 0 0
42.943001 0.108 -0.54500002 48
42.563 0.13 0.082000002 64
45.603001 0.16500001 0.755 12
61.905998 0.25799999 1.934 34
27.256001 0.124 -1.3150001 8
33.165001 0.169 -1.115 3
42.529999 0.23899999 -0.80500001 65
42.556 0.26300001 -0.183 64
42.801998 0.289 0.442 58
61.834999 0.45199999 1.546 17
25.403999 0.192 -1.388 19
30.120001 0.244 -1.2029999 5
38.283001 0.33000001 -0.96600002 15
42.910999 0.39399999 -0.45300001 65
42.603001 0.41600001 0.17299999 63
45.664001 0.472 0.85500002 5
23.403999 0.244 -1.429 18
27.674999 0.30500001 -1.284 8
0 0 0 0
42.830002 0.51899999 -0.727 51
42.636002 0.542 -0.097000003 64
42.937 0.56999999 0.53200001 29
21.66 0.287 -1.4630001 16
25.638 0.354 -1.354 17
31.268 0.449 -1.189 5
38.566002 0.57599998 -0.90100002 14
38.917 0.60399997 -0.33700001 42
38.875999 0.62599999 0.23199999 97
20.277 0.32300001 -1.502 14
23.704 0.391 -1.406 20
28.346001 0.484 -1.263 7
36.561001 0.64499998 -1.089 5
38.869999 0.708 -0.58600003 48
38.887001 0.73199999 -0.015 66
18.982 0.35100001 -1.531 13
22.013 0.41999999 -1.45 18
26.141001 0.514 -1.334 15
31.750999 0.64300001 -1.152 3
38.676998 0.80599999 -0.833 7
43.513 0.93199998 -0.296 1
17.867001 0.375 -1.5599999 11
20.473 0.44100001 -1.483 15
24.16 0.53500003 -1.392 20
28.884001 0.65700001 -1.237 6
0 0 0 0
43.104 1.0319999 -0.57300001 53
16.843 0.39399999 -1.584 10
19.184 0.46000001 -1.518 13
22.454 0.551 -1.443 18
26.589001 0.66799998 -1.3150001 12
32.498001 0.83600003 -1.125 3
41.937 1.105 -0.83399999 38
15.947 0.40900001 -1.607 9
18.023001 0.47299999 -1.546 12
20.816999 0.55800003 -1.477 15
24.582001 0.67400002 -1.378 17
29.473 0.82599998 -1.215 6
0 0 0 0
15.111 0.41999999 -1.626 10
16.973 0.48199999 -1.572 10
19.468 0.565 -1.513 13
22.777 0.67500001 -1.4299999 18
26.936001 0.81400001 -1.291 10
0 0 0 0
14.359 0.42899999 -1.643 11
16.037001 0.48899999 -1.594 9
18.252001 0.56699997 -1.541 12
21.091999 0.66799998 -1.466 16
24.906 0.80500001 -1.3609999 14
30.042999 0.99000001 -1.197 5
13.668 0.435 -1.659 11
15.205 0.493 -1.6160001 9
17.191 0.56800002 -1.569 10
19.690001 0.66299999 -1.502 14
23.039 0.79100001 -1.415 19
27.385 0.95700002 -1.274 8
13.028 0.43900001 -1.673 11
14.439 0.495 -1.6339999 11
16.219 0.56599998 -1.591 9
18.438999 0.65499997 -1.5319999 12
21.379999 0.773 -1.456 16
25.225 0.92799997 -1.3430001 13
12.462 0.442 -1.687 10
13.74 0.495 -1.65 12
15.376 0.56300002 -1.614 10
17.349001 0.64600003 -1.559 11
19.940001 0.75599998 -1.493 14
23.399 0.903 -1.404 19
11.917 0.442 -1.697 11
13.095 0.493 -1.665 12
14.588 0.55800003 -1.632 11
16.365999 0.63700002 -1.584 9
18.683001 0.73900002 -1.527 12
21.659 0.87099999 -1.446 17
11.411 0.44 -1.705 11
12.521 0.491 -1.678 11
13.866 0.55199999 -1.648 12
15.5 0.62699997 -1.607 10
17.551001 0.722 -1.5549999 11
20.157 0.84200001 -1.484 14
10.937 0.43799999 -1.7130001 12
11.971 0.486 -1.6900001 12
13.213 0.54500002 -1.663 12
14.68 0.61500001 -1.624 11
16.532 0.704 -1.579 10
18.865 0.815 -1.518 13
10.507 0.43399999 -1.721 12
11.461 0.48100001 -1.699 13
12.626 0.537 -1.678 12
13.969 0.60399997 -1.643 11
15.646 0.68599999 -1.603 9
17.693001 0.78899997 -1.5470001 11
10.105 0.43000001 -1.728 11
10.982 0.47400001 -1.707 13
12.076 0.52899998 -1.691 12
13.305 0.59100002 -1.659 11
14.812 0.66799998 -1.6210001 10
16.684999 0.764 -1.574 10
9.724 0.42399999 -1.733 11
10.537 0.46599999 -1.714 12
11.544 0.51800001 -1.698 12
12.711 0.579 -1.674 12
14.084 0.65100002 -1.64 11
15.752 0.73900002 -1.595 11
9.3830004 0.41800001 -1.7410001 12
10.141 0.45899999 -1.722 12
11.078 0.50800002 -1.709 11
12.151 0.565 -1.686 12
13.412 0.63300002 -1.655 12
14.946 0.71600002 -1.6160001 10
9.0620003 0.412 -1.747 11
9.7709999 0.45100001 -1.73 11
10.618 0.49700001 -1.7130001 12
11.618 0.551 -1.694 11
12.792 0.61500001 -1.669 12
14.168 0.69199997 -1.632 12
8.7639999 0.405 -1.7539999 11
9.4110003 0.44100001 -1.734 12
10.214 0.486 -1.722 12
11.142 0.537 -1.705 13
12.229 0.59799999 -1.681 12
13.516 0.67000002 -1.651 12
8.4720001 0.39700001 -1.7589999 11
9.0970001 0.433 -1.744 11
9.842 0.47499999 -1.73 12
10.684 0.52200001 -1.711 12
11.719 0.58099997 -1.6950001 11
12.873 0.64700001 -1.664 12
8.2069998 0.389 -1.765 11
8.7790003 0.42199999 -1.747 11
9.4820004 0.463 -1.737 12
10.253 0.50700003 -1.716 12
11.22 0.56300002 -1.7029999 12
12.326 0.62699997 -1.6799999 11
7.9530001 0.38100001 -1.77 10
8.4980001 0.41299999 -1.7539999 10
9.1520004 0.45100001 -1.742 11
9.908 0.495 -1.729 11
10.758 0.54500002 -1.709 12
11.797 0.60600001 -1.6900001 12
7.7210002 0.37200001 -1.775 10
8.243 0.403 -1.761 11
8.8330002 0.43799999 -1.7460001 11
9.54 0.479 -1.733 12
10.35 0.528 -1.7180001 11
11.302 0.58399999 -1.7 12
7.5219998 0.36399999 -1.786 10
7.9840002 0.39199999 -1.766 10
8.552 0.426 -1.753 11
9.21 0.465 -1.74 11
9.967 0.51099998 -1.726 11
10.837 0.56300002 -1.707 12
7.3000002 0.354 -1.789 10
7.7449999 0.38100001 -1.771 10
8.2849998 0.414 -1.7589999 11
8.8999996 0.45100001 -1.747 11
9.5909996 0.493 -1.7309999 11
10.404 0.542 -1.7130001 12
7.0549998 0.34299999 -1.7819999 10
7.54 0.37099999 -1.78 10
8.0410004 0.40200001 -1.767 11
8.6049995 0.43599999 -1.751 11
9.2609997 0.47600001 -1.737 11
10.025 0.523 -1.723 12
6.8800001 0.33399999 -1.791 10
7.3319998 0.361 -1.786 10
7.8049998 0.389 -1.773 10
8.342 0.42199999 -1.7589999 11
8.9589996 0.46000001 -1.745 10
9.6660004 0.50300002 -1.729 12
6.6989999 0.32300001 -1.794 11
7.0900002 0.347 -1.78 11
7.5869999 0.377 -1.78 10
8.0880003 0.40799999 -1.765 11
8.6689997 0.44299999 -1.751 11
9.3310003 0.48500001 -1.7359999 11
6.5359998 0.31299999 -1.801 11
6.9029999 0.336 -1.786 10
7.3649998 0.36399999 -1.7819999 11
7.8540001 0.39399999 -1.772 10
8.3929996 0.42699999 -1.757 11
9.0100002 0.465 -1.7410001 11
6.3610001 0.30199999 -1.802 11
6.723 0.324 -1.79 11
7.1459999 0.34999999 -1.783 12
