# .PCD v0.7 - Point Cloud Data file format
VERSION 0.7
FIELDS x y z intensity
SIZE 4 4 4 4
TYPE F F F F
COUNT 1 1 1 1
WIDTH 1798
HEIGHT 1
VIEWPOINT 0 0 0 1 0 0 0
POINTS 1798
DATA ascii
4.4299998 -2.5120001 -1.908 9
4.6939998 -2.632 -1.9069999 9
4.9780002 -2.763 -1.904 9
5.2880001 -2.9070001 -1.901 10
3.977 -2.3269999 -1.908 9
4.1989999 -2.424 -1.904 9
4.4590001 -2.543 -1.908 9
4.7259998 -2.665 -1.9069999 9
5.0209999 -2.802 -1.9069999 9
5.342 -2.9530001 -1.906 9
4 -2.3529999 -1.908 9
4.224 -2.451 -1.903 10
4.4899998 -2.5739999 -1.909 9
4.7589998 -2.697 -1.906 9
5.059 -2.8380001 -1.9069999 9
5.3800001 -2.9890001 -1.903 9
4.0240002 -2.378 -1.9069999 8
4.2600002 -2.484 -1.9069999 10
4.5170002 -2.6010001 -1.9069999 10
4.79 -2.7279999 -1.904 10
5.105 -2.8770001 -1.908 10
5.4260001 -3.029 -1.903 9
4.0489998 -2.4030001 -1.906 9
4.283 -2.5079999 -1.903 9
4.5570002 -2.6359999 -1.909 8
4.8369999 -2.766 -1.908 9
5.1430001 -2.911 -1.906 9
5.4780002 -3.072 -1.904 9
4.0809999 -2.4319999 -1.9069999 8
4.3179998 -2.539 -1.904 11
4.5900002 -2.665 -1.908 8
4.8829999 -2.8039999 -1.91 9
5.1820002 -2.9449999 -1.903 9
5.546 -3.122 -1.909 9
4.1100001 -2.457 -1.906 8
4.3600001 -2.572 -1.9069999 9
4.6220002 -2.694 -1.905 9
4.927 -2.839 -1.909 9
5.2459998 -2.9920001 -1.908 10
5.6079998 -3.168 -1.911 9
4.1469998 -2.487 -1.909 8
4.3969998 -2.602 -1.908 10
4.6729999 -2.7320001 -1.909 8
4.9770002 -2.8770001 -1.911 9
5.3049998 -3.036 -1.911 9
5.665 -3.211 -1.91 9
4.1669998 -2.506 -1.901 9
4.4400001 -2.635 -1.91 9
4.7179999 -2.766 -1.909 8
5.0240002 -2.9119999 -1.91 9
5.3590002 -3.075 -1.91 9
5.7360001 -3.26 -1.9119999 10
4.2249999 -2.5469999 -1.911 8
4.4829998 -2.6659999 -1.91 9
4.763 -2.799 -1.909 9
5.079 -2.951 -1.911 9
5.4229999 -3.119 -1.911 9
5.835 -3.325 -1.9220001 8
4.2600002 -2.573 -1.909 8
4.5310001 -2.7 -1.9119999 9
4.8179998 -2.836 -1.911 9
5.1269999 -2.9849999 -1.908 9
5.4879999 -3.1630001 -1.9119999 9
5.8600001 -3.346 -1.9069999 8
4.3070002 -2.605 -1.911 8
4.5760002 -2.7309999 -1.911 9
4.8660002 -2.869 -1.909 9
5.1989999 -3.0320001 -1.913 10
5.5619998 -3.211 -1.915 9
5.948 -3.402 -1.911 9
4.355 -2.6370001 -1.9119999 7
4.6199999 -2.7609999 -1.909 9
4.9320002 -2.9119999 -1.913 9
5.2579999 -3.0699999 -1.9119999 9
5.6329999 -3.256 -1.915 9
6.052 -3.4660001 -1.919 8
4.3990002 -2.665 -1.9119999 8
4.6719999 -2.7939999 -1.909 9
4.9899998 -2.948 -1.913 10
5.3270001 -3.1129999 -1.913 9
5.71 -3.3039999 -1.916 8
6.1479998 -3.5250001 -1.9220001 8
4.4530001 -2.698 -1.914 8
4.7210002 -2.8239999 -1.9069999 8
5.0510001 -2.9849999 -1.914 9
5.3920002 -3.152 -1.9119999 9
5.8109999 -3.3640001 -1.924 8
6.2309999 -3.5739999 -1.921 8
4.5050001 -2.73 -1.914 8
4.776 -2.8570001 -1.906 9
5.1059999 -3.0179999 -1.911 9
5.4660001 -3.1960001 -1.913 9
5.888 -3.4089999 -1.923 8
6.3270001 -3.6300001 -1.9220001 8
4.552 -2.757 -1.911 9
4.8439999 -2.8970001 -1.91 9
5.1799998 -3.0610001 -1.913 9
5.5580001 -3.2490001 -1.919 9
5.9699998 -3.4549999 -1.9220001 8
6.428 -3.688 -1.9220001 9
4.6139998 -2.7920001 -1.914 9
4.9089999 -2.9330001 -1.911 9
5.2480001 -3.099 -1.913 9
5.6300001 -3.289 -1.916 9
6.059 -3.5050001 -1.921 8
6.52 -3.7379999 -1.919 9
4.665 -2.8199999 -1.911 8
4.9720001 -2.967 -1.91 9
5.3280001 -3.1429999 -1.915 9
5.7449999 -3.3529999 -1.927 8
6.1570001 -3.5580001 -1.9220001 8
6.631 -3.799 -1.919 9
4.7280002 -2.8529999 -1.911 8
5.0430002 -3.0050001 -1.91 9
5.4089999 -3.1860001 -1.916 9
5.829 -3.3970001 -1.925 8
6.2620001 -3.6140001 -1.923 8
6.743 -3.858 -1.919 9
4.796 -2.888 -1.9119999 9
5.1149998 -3.0420001 -1.91 9
5.4850001 -3.2249999 -1.914 8
5.9089999 -3.438 -1.921 8
6.3569999 -3.6630001 -1.921 8
6.8540001 -3.915 -1.916 9
4.869 -2.925 -1.914 9
5.1900001 -3.0799999 -1.91 9
5.605 -3.289 -1.926 7
6.0029998 -3.4860001 -1.921 8
6.4699998 -3.721 -1.921 8
6.9860001 -3.983 -1.918 9
4.9380002 -2.9590001 -1.913 9
5.27 -3.119 -1.911 9
5.6929998 -3.332 -1.926 8
6.112 -3.54 -1.924 8
6.5840001 -3.7780001 -1.921 9
7.1170001 -4.0489998 -1.9170001 9
5.0159998 -2.9960001 -1.915 9
5.3569999 -3.161 -1.9119999 9
5.7859998 -3.3770001 -1.925 8
6.2119999 -3.589 -1.921 8
6.6999998 -3.8340001 -1.919 9
7.25 -4.1129999 -1.915 9
5.0890002 -3.03 -1.913 9
5.447 -3.204 -1.913 8
5.875 -3.418 -1.9220001 8
6.3260002 -3.6429999 -1.9220001 9
6.8299999 -3.8970001 -1.92 9
7.3930001 -4.1830001 -1.914 9
5.177 -3.0710001 -1.916 9
5.5409999 -3.2479999 -1.914 9
5.9689999 -3.46 -1.92 8
6.4349999 -3.6930001 -1.92 9
6.9640002 -3.96 -1.92 10
7.5419998 -4.2529998 -1.9119999 9
5.257 -3.1059999 -1.914 9
5.6350002 -3.29 -1.914 9
6.0780001 -3.51 -1.92 8
6.5560002 -3.7490001 -1.919 8
7.0910001 -4.0170002 -1.916 9
7.7090001 -4.3309999 -1.913 9
5.3379998 -3.1389999 -1.9119999 9
5.7719998 -3.355 -1.926 8
6.1919999 -3.5610001 -1.92 8
6.6890001 -3.809 -1.92 8
7.2449999 -4.0879998 -1.9170001 9
7.8740001 -4.4060001 -1.911 10
5.434 -3.1800001 -1.9119999 9
5.862 -3.392 -1.921 8
6.3140001 -3.6140001 -1.921 8
6.8189998 -3.865 -1.918 9
7.3839998 -4.1479998 -1.913 9
8.0550003 -4.4879999 -1.911 9
5.5809999 -3.25 -1.9299999 8
5.9619999 -3.4319999 -1.918 8
6.4320002 -3.664 -1.92 9
6.9559999 -3.924 -1.9170001 9
7.5419998 -4.217 -1.911 9
8.2449999 -4.573 -1.91 9
5.6440001 -3.2690001 -1.9170001 8
6.0700002 -3.4760001 -1.916 8
6.5580001 -3.7160001 -1.919 9
7.1020002 -3.9860001 -1.9170001 9
7.724 -4.2969999 -1.914 9
8.448 -4.6620002 -1.91 9
5.7810001 -3.329 -1.928 8
6.2010002 -3.5309999 -1.92 8
6.698 -3.7750001 -1.919 9
7.2509999 -4.0479999 -1.915 9
7.8979998 -4.3699999 -1.9119999 9
8.6450005 -4.7459998 -1.906 8
5.888 -3.3699999 -1.926 8
6.3239999 -3.579 -1.92 8
6.829 -3.825 -1.916 9
7.408 -4.1110001 -1.913 9
8.0830002 -4.447 -1.91 9
8.8640003 -4.8390002 -1.905 9
5.9879999 -3.405 -1.921 8
6.4489999 -3.6270001 -1.919 9
6.9840002 -3.888 -1.918 9
7.5749998 -4.178 -1.9119999 9
8.2819996 -4.5300002 -1.91 9
9.0979996 -4.9369998 -1.904 9
6.1040001 -3.448 -1.92 8
6.5830002 -3.678 -1.918 9
7.1269999 -3.9430001 -1.915 9
7.756 -4.2509999 -1.9119999 9
8.4879999 -4.6129999 -1.909 9
9.3330002 -5.0339999 -1.901 8
6.2319999 -3.4949999 -1.9220001 8
6.723 -3.7309999 -1.918 9
7.2810001 -4 -1.913 9
7.934 -4.3200002 -1.91 9
8.6949997 -4.6939998 -1.905 10
9.5860004 -5.1360002 -1.898 8
6.3590002 -3.54 -1.92 8
6.8579998 -3.7780001 -1.914 9
7.447 -4.0619998 -1.9119999 9
8.1300001 -4.395 -1.909 9
8.9160004 -4.7810001 -1.903 8
9.8590002 -5.2470002 -1.897 8
6.4990001 -3.5910001 -1.9220001 9
7.0089998 -3.832 -1.913 10
7.6209998 -4.1259999 -1.911 9
8.3269997 -4.4679999 -1.906 9
9.1560001 -4.8740001 -1.901 8
10.15 -5.3629999 -1.895 8
6.6389999 -3.6389999 -1.921 9
7.165 -3.8870001 -1.9119999 9
7.8109999 -4.197 -1.911 9
8.54 -4.5479999 -1.905 9
9.4060001 -4.9689999 -1.899 8
10.432 -5.4710002 -1.89 8
6.7820001 -3.687 -1.92 9
7.3249998 -3.9419999 -1.91 10
7.9959998 -4.2620001 -1.909 9
8.7679996 -4.6329999 -1.906 9
9.6619997 -5.0650001 -1.896 8
10.747 -5.592 -1.887 8
6.927 -3.734 -1.918 9
7.4959998 -4 -1.908 10
8.1999998 -4.335 -1.909 9
8.9860001 -4.7090001 -1.9 9
9.948 -5.1719999 -1.895 8
11.055 -5.7069998 -1.8789999 8
7.0780001 -3.7820001 -1.915 9
7.6739998 -4.059 -1.9069999 10
8.4119997 -4.4089999 -1.908 9
9.243 -4.803 -1.901 8
10.224 -5.2709999 -1.8890001 8
11.406 -5.8379998 -1.874 8
7.2470002 -3.8369999 -1.916 10
7.875 -4.1279998 -1.909 10
8.6160002 -4.4749999 -1.903 9
9.4919996 -4.8889999 -1.896 8
10.539 -5.3860002 -1.887 8
11.783 -5.9780002 -1.87 8
7.4130001 -3.8870001 -1.913 10
8.0699997 -4.191 -1.9069999 9
8.8509998 -4.5549998 -1.903 10
9.7690001 -4.9850001 -1.895 8
10.869 -5.5040002 -1.885 8
12.145 -6.1079998 -1.86 8
7.5799999 -3.9360001 -1.91 10
8.2629995 -4.25 -1.904 10
9.0799999 -4.6279998 -1.899 9
10.049 -5.0799999 -1.892 8
11.185 -5.6110001 -1.876 8
12.547 -6.2509999 -1.852 7
7.7659998 -3.993 -1.909 10
8.4750004 -4.316 -1.902 10
9.3369999 -4.7129998 -1.898 9
10.313 -5.1630001 -1.883 8
11.54 -5.7340002 -1.872 8
13.038 -6.4330001 -1.854 7
7.961 -4.0510001 -1.909 9
8.6940002 -4.382 -1.899 10
9.5860004 -4.789 -1.893 8
10.646 -5.2750001 -1.883 8
11.904 -5.855 -1.864 7
13.533 -6.6110001 -1.849 8
8.1569996 -4.1069999 -1.906 9
8.915 -4.447 -1.8940001 10
9.8590002 -4.8740001 -1.89 8
10.969 -5.3790002 -1.878 8
12.283 -5.98 -1.8559999 6
14.091 -6.8140001 -1.85 8
8.3620005 -4.164 -1.903 10
9.1739998 -4.526 -1.895 9
10.143 -4.96 -1.887 9
11.323 -5.494 -1.875 8
12.714 -6.1240001 -1.851 7
14.7 -7.033 -1.85 9
8.5860004 -4.2270002 -1.903 10
9.4309998 -4.5999999 -1.893 9
10.44 -5.0500002 -1.882 9
11.669 -5.599 -1.867 8
13.162 -6.27 -1.844 7
15.357 -7.2670002 -1.851 10
8.8070002 -4.2859998 -1.9 9
9.6850004 -4.6700001 -1.888 9
10.77 -5.1500001 -1.88 9
12.031 -5.7080002 -1.859 8
13.694 -6.4499998 -1.845 8
16.016001 -7.4949999 -1.846 10
9.0439997 -4.349 -1.898 10
9.948 -4.7410002 -1.883 9
11.09 -5.2410002 -1.875 8
12.413 -5.8210001 -1.851 6
14.23 -6.6259999 -1.841 9
16.714001 -7.7319999 -1.839 11
9.283 -4.4099998 -1.895 10
10.24 -4.822 -1.881 9
11.422 -5.3340001 -1.868 9
12.849 -5.954 -1.847 7
14.871 -6.8429999 -1.847 9
17.417999 -7.9629998 -1.826 10
9.5369997 -4.4749999 -1.892 9
10.532 -4.8979998 -1.876 9
11.773 -5.4310002 -1.862 8
13.289 -6.0830002 -1.839 7
15.507 -7.0500002 -1.845 10
18.245001 -8.2410002 -1.819 11
9.7969999 -4.5380001 -1.888 9
10.848 -4.9809999 -1.872 9
12.136 -5.5279999 -1.854 8
13.79 -6.2340002 -1.836 8
16.146 -7.2480001 -1.837 11
19.077 -8.5089998 -1.8049999 8
10.066 -4.6020002 -1.8839999 9
11.186 -5.0700002 -1.869 9
12.533 -5.6339998 -1.847 8
14.369 -6.4120002 -1.839 9
16.851 -7.467 -1.832 9
19.986 -8.8000002 -1.791 6
10.351 -4.6690001 -1.8789999 9
11.527 -5.1550002 -1.864 9
12.957 -5.7480001 -1.841 7
14.912 -6.5669999 -1.831 9
17.506001 -7.6570001 -1.8150001 10
21.058001 -9.1520004 -1.785 6
10.667 -4.7459998 -1.8789999 9
11.865 -5.2340002 -1.855 8
13.391 -5.8610001 -1.834 7
15.539 -6.75 -1.8279999 10
18.368999 -7.9250002 -1.812 11
22.15 -9.4969997 -1.768 5
10.971 -4.8130002 -1.873 9
12.213 -5.3130002 -1.846 8
13.899 -5.9980001 -1.832 8
16.252001 -6.9629998 -1.831 11
19.155001 -8.151 -1.796 9
23.402 -9.8950005 -1.756 5
11.3 -4.8860002 -1.87 9
12.615 -5.4089999 -1.841 8
14.446 -6.1459999 -1.831 9
16.895 -7.1350002 -1.8200001 12
20.063 -8.4169998 -1.784 6
24.572001 -10.245 -1.727 4
11.625 -4.9530001 -1.863 9
13.016 -5.5 -1.834 7
14.989 -6.2849998 -1.826 9
17.591999 -7.322 -1.8099999 13
21.011 -8.6870003 -1.7690001 5
0 0 0 0
11.963 -5.0209999 -1.8559999 9
13.43 -5.5890002 -1.825 7
15.594 -6.4400001 -1.823 10
18.311001 -7.507 -1.796 12
22.042999 -8.9790001 -1.752 5
27.785999 -11.247 -1.696 23
12.32 -5.0900002 -1.848 9
13.891 -5.6929998 -1.819 8
16.211 -6.592 -1.816 11
19.097 -7.711 -1.783 10
23.222 -9.3140001 -1.738 5
29.284 -11.673 -1.654 7
12.684 -5.1589999 -1.841 9
14.393 -5.8049998 -1.8150001 8
16.833 -6.7379999 -1.807 11
19.957001 -7.9310002 -1.771 9
24.429001 -9.6450005 -1.7180001 5
32.054001 -12.579 -1.669 24
13.071 -5.23 -1.832 8
14.932 -5.927 -1.812 9
17.518 -6.8990002 -1.799 12
20.805 -8.1359997 -1.752 7
25.823999 -10.033 -1.702 5
0 0 0 0
13.486 -5.3080001 -1.826 7
15.494 -6.0489998 -1.808 10
18.207001 -7.0539999 -1.786 13
21.903999 -8.4259996 -1.747 5
0 0 0 0
35.208 -13.375 -1.529 10
13.919 -5.3870001 -1.8200001 8
16.073999 -6.1700001 -1.802 10
18.940001 -7.2150002 -1.775 11
22.922001 -8.6700001 -1.728 6
28.620001 -10.754 -1.638 25
35.176998 -13.139 -1.381 0
14.407 -5.4790001 -1.817 8
16.662001 -6.2859998 -1.793 11
19.672001 -7.3649998 -1.756 10
24.054001 -8.941 -1.71 5
0 0 0 0
42.264 -15.513 -1.485 2
14.866 -5.553 -1.808 9
17.281 -6.4029999 -1.783 12
20.601999 -7.5770001 -1.751 9
25.177999 -9.1949997 -1.684 5
0 0 0 0
47.330002 -17.065001 -1.471 1
15.394 -5.6469998 -1.804 9
17.909 -6.5170002 -1.772 12
21.509001 -7.7680001 -1.738 8
26.405001 -9.4680004 -1.6569999 5
34.227001 -12.193 -1.536 22
49.676998 -17.591 -1.349 3
15.934 -5.7360001 -1.799 10
18.596001 -6.6399999 -1.761 13
22.424999 -7.947 -1.719 7
29.035999 -10.219 -1.706 31
41.455002 -14.495 -1.698 2
55.150002 -19.166 -1.284 10
16.513 -5.8319998 -1.794 11
19.278999 -6.7550001 -1.7460001 14
23.466 -8.1590004 -1.705 7
29.507 -10.187 -1.618 36
41.209999 -14.136 -1.531 3
58.179001 -19.834999 -1.137 7
17.044001 -5.9029999 -1.781 11
20.011999 -6.8759999 -1.733 14
24.475 -8.3450003 -1.681 5
0 0 0 0
46.165001 -15.529 -1.54 3
58.441002 -19.535 -0.926 54
17.646 -5.9889998 -1.773 12
20.841999 -7.0180001 -1.723 12
25.646999 -8.5719995 -1.665 5
32.438 -10.765 -1.534 31
48.459999 -15.977 -1.441 8
58.210999 -19.073 -0.71399999 63
18.209999 -6.0560002 -1.7589999 13
21.608 -7.1290002 -1.7029999 9
26.767 -8.7650003 -1.637 5
0 0 0 0
48.472 -15.652 -1.268 1
58.487 -18.771999 -0.51499999 54
18.851999 -6.138 -1.749 14
22.448999 -7.2509999 -1.686 7
0 0 0 0
34.848 -11.091 -1.395 1
53.497002 -16.916 -1.214 18
60.237 -18.931 -0.32600001 47
19.48 -6.2080002 -1.735 15
23.378 -7.3920002 -1.6720001 7
29.976 -9.4040003 -1.62 35
40.051998 -12.476 -1.4680001 3
54.856998 -16.973 -1.061 14
60.485001 -18.6 -0.12899999 56
20.177 -6.29 -1.725 14
24.424 -7.552 -1.661 6
30.983999 -9.507 -1.567 29
44.688999 -13.612 -1.488 5
55.544998 -16.805 -0.89200002 8
47.903 -14.402 0.052000001 60
20.865999 -6.3559999 -1.71 12
25.462999 -7.6939998 -1.643 6
0 0 0 0
47.183998 -14.048 -1.416 18
47.998001 -14.196 -0.61799997 72
62.889999 -18.485001 0.26199999 36
21.625999 -6.4369998 -1.7 13
26.370001 -7.7849998 -1.6160001 6
33.688999 -9.8690004 -1.484 16
47.728001 -13.881 -1.283 25
62.990002 -18.194 -0.61699998 23
56.348999 -16.174 0.405 48
22.316 -6.4850001 -1.6799999 16
27.440001 -7.908 -1.594 6
0 0 0 0
48.140999 -13.665 -1.147 4
62.845001 -17.716 -0.428 53
63.182999 -17.698999 0.63800001 10
23.094999 -6.5469999 -1.665 8
28.388 -7.98 -1.5599999 6
36.619999 -10.214 -1.388 6
51.747002 -14.327 -1.081 11
63.087002 -17.348 -0.25 47
62.240002 -17.003 0.80400002 6
24 -6.6339998 -1.6569999 7
29.308001 -8.0340004 -1.524 7
43.264 -11.768 -1.515 3
53.102001 -14.337 -0.95999998 9
60.737 -16.283001 -0.071999997 84
61.011002 -16.247999 0.95300001 7
24.809999 -6.6810002 -1.64 7
31.282 -8.3529997 -1.536 37
43.063999 -11.408 -1.385 2
56.567001 -14.875 -0.86699998 8
67.537003 -17.636 0.097000003 3
61.596001 -15.977 1.122 21
25.687 -6.7350001 -1.624 6
0 0 0 0
43.174999 -11.136 -1.275 4
43.042999 -11.017 -0.54699999 107
43.243999 -10.989 0.17299999 3
62.233002 -15.71 1.288 4
26.552999 -6.7729998 -1.607 8
33.066002 -8.3629999 -1.4450001 17
44.103001 -11.066 -1.188 28
44.328999 -11.037 -0.45199999 3
0 0 0 0
62.126999 -15.247 1.4349999 9
27.381001 -6.789 -1.586 7
34.125 -8.3900003 -1.405 11
43.709 -10.658 -1.069 4
0 0 0 0
137.491 -33.032001 1.205 20
60.956001 -14.542 1.545 4
27.973 -6.7389998 -1.551 6
35.226002 -8.4119997 -1.365 22
43.687 -10.348 -0.96600002 4
64.148003 -15.074 -0.354 3
78.164001 -18.23 0.86299998 8
55.129002 -12.768 1.518 2
28.943001 -6.7670002 -1.535 6
37.728001 -8.7440004 -1.375 8
50.858002 -11.688 -1.01 19
84.958 -19.365 -0.28299999 10
71.626999 -16.205 0.94099998 9
55.570999 -12.478 1.647 10
30.066999 -6.8140001 -1.526 7
37.948002 -8.5229998 -1.298 2
51.332001 -11.431 -0.90799999 14
0 0 0 0
57.648998 -12.631 0.87699997 3
55.854 -12.147 1.767 54
30.639999 -6.723 -1.489 7
41.209999 -8.96 -1.323 1
44.438 -9.5769997 -0.69499999 1
44.429001 -9.4980001 0.033 59
44.428001 -9.4219999 0.76099998 58
44.452 -9.3559999 1.489 53
0 0 0 0
43.632999 -9.1750002 -1.314 20
44.433998 -9.2600002 -0.61000001 102
44.522999 -9.2019997 0.116 17
56.412998 -11.566 1.069 19
55.662998 -11.324 1.9630001 60
31.924 -6.546 -1.423 5
43.880001 -8.9130001 -1.238 22
55.358002 -11.145 -0.65899998 21
0 0 0 0
56.825001 -11.245 1.174 14
56.009998 -10.996 2.069 44
33.752998 -6.677 -1.443 30
44.356998 -8.6920004 -1.174 14
48.258999 -9.3699999 -0.491 54
0 0 0 0
56.918999 -10.863 1.268 5
0 0 0 0
34.022999 -6.4850001 -1.396 23
44.174999 -8.3380003 -1.095 1
56.181999 -10.505 -0.48199999 4
0 0 0 0
0 0 0 0
57.391998 -10.459 2.2920001 47
0 0 0 0
46.904999 -8.5170002 -1.092 31
47.782001 -8.5930004 -0.33899999 4
47.681999 -8.4980001 0.43000001 5
0 0 0 0
57.791 -10.121 2.385 51
0 0 0 0
46.865002 -8.177 -1.024 21
47.622002 -8.2270002 -0.273 21
47.710999 -8.1610003 0.493 14
127.123 -21.558001 3.3610001 29
127.412 -21.410999 5.415 19
35.943001 -6.0749998 -1.316 9
47.227001 -7.901 -0.97000003 19
42.405998 -7.0229998 -0.19 1
42.384998 -6.9510002 0.49000001 1
42.419998 -6.8909998 1.171 1
123.995 -19.965 5.4099998 31
36.063 -5.8379998 -1.275 8
47.659 -7.6339998 -0.92199999 19
62.377998 -9.8850002 -0.208 2
110.406 -17.32 1.397 25
99.260002 -15.424 2.8429999 33
78.383003 -12.065 3.4979999 13
36.592999 -5.6609998 -1.253 2
0 0 0 0
78.231003 -11.839 -0.17900001 27
78.599998 -11.771 1.074 67
78.43 -11.631 2.322 16
91.302002 -13.403 4.158 39
37.861 -5.5830002 -1.258 4
0 0 0 0
67.915001 -9.7930002 -0.093999997 4
101.4 -14.464 1.473 10
86.889999 -12.265 2.645 39
78.390999 -10.953 3.6340001 8
38.133999 -5.3470001 -1.233 6
48.793999 -6.7639999 -0.80299997 17
67.556 -9.257 -0.039000001 12
111.019 -15.042 1.698 26
86.024002 -11.529 2.6819999 30
67.612999 -8.9650002 3.181 8
37.445999 -4.98 -1.182 1
48.841 -6.4159999 -0.76800001 14
67.584 -8.776 0.0070000002 34
92.237 -11.838 1.471 6
67.839996 -8.6070004 2.1559999 42
67.660004 -8.493 3.221 4
38.459999 -4.8410001 -1.189 3
48.582001 -6.0349998 -0.73400003 6
67.697998 -8.3050003 0.046 38
0 0 0 0
86.458 -10.353 2.7920001 42
86.174004 -10.204 4.1430001 45
39.212002 -4.6529999 -1.191 2
49.167 -5.7589998 -0.71799999 9
67.774002 -7.835 0.078000002 14
0 0 0 0
86.308998 -9.7290001 2.819 47
68.401001 -7.6129999 3.313 19
40.502998 -4.5139999 -1.2130001 16
47.016998 -5.1680002 -0.66799998 1
0 0 0 0
109.736 -11.743 1.891 32
86.792 -9.1619997 2.8599999 45
0 0 0 0
40.528 -4.2280002 -1.202 12
48.438999 -4.9790001 -0.676 13
85.052002 -8.6169996 0.147 7
76.265999 -7.618 1.329 35
90.793999 -8.9429998 3.0079999 17
53.702999 -5.2199998 2.622 5
38.879002 -3.7780001 -1.145 1
47.669998 -4.5630002 -0.65799999 3
83.500999 -7.8720002 0.155 9
76.643997 -7.1139998 1.342 6
52.500999 -4.8010001 1.742 12
41.213001 -3.714 2.013 46
38.686001 -3.4820001 -1.137 3
41.200001 -3.6470001 -0.56699997 1
41.129002 -3.5799999 0.075000003 94
41.159 -3.5280001 0.71899998 77
41.235001 -3.4779999 1.365 45
41.111 -3.414 2.0039999 2
38.431999 -3.1849999 -1.132 1
41.115002 -3.348 -0.56999999 108
0 0 0 0
52.948002 -4.1669998 0.91799998 23
52.66 -4.0770001 1.735 44
52.316002 -3.9820001 2.5409999 47
38.373001 -2.9100001 -1.137 1
47.790001 -3.5539999 -0.67199999 14
84.400002 -6.1599998 0.127 9
0 0 0 0
52.900002 -3.7219999 1.728 8
52.514 -3.6270001 2.5339999 63
40.325001 -2.7720001 -1.207 17
47.522999 -3.201 -0.68300003 18
0 0 0 0
117.919 -7.6290002 1.972 39
0 0 0 0
52.215 -3.2409999 2.4979999 19
40.249001 -2.48 -1.221 15
46.688999 -2.8150001 -0.69199997 12
0 0 0 0
0 0 0 0
92.377998 -5.211 2.9360001 8
92.303001 -5.0900002 4.368 41
36.844002 -2.0139999 -1.137 1
43.362 -2.312 -0.66600001 2
43.455002 -2.2590001 0.0049999999 41
0 0 0 0
112.487 -5.5609999 3.5050001 30
90.818001 -4.381 4.2399998 6
38.504002 -1.834 -1.2130001 3
43.470001 -2.013 -0.69700003 150
43.486 -1.957 -0.023 150
0 0 0 0
96.07 -4.085 2.925 20
65.671997 -2.7090001 3.016 17
36.528999 -1.4809999 -1.179 1
43.522999 -1.711 -0.73199999 64
0 0 0 0
47.923 -1.7640001 0.67699999 2
64.311996 -2.2880001 1.904 37
64.378998 -2.2149999 2.9030001 57
35.763 -1.2029999 -1.186 1
43.561001 -1.41 -0.77100003 41
44.700001 -1.393 -0.1 68
45.277 -1.355 0.597 4
63.945 -1.8329999 1.832 38
64.184998 -1.763 2.832 46
0 0 0 0
44.887001 -1.141 -0.83999997 71
44.675999 -1.08 -0.147 69
45.183998 -1.04 0.54900002 11
63.962002 -1.395 1.765 28
41.834 -0.86400002 1.801 2
34.613998 -0.685 -1.221 2
44.306 -0.82300001 -0.87900001 69
41.104 -0.713 -0.18099999 39
41.015999 -0.66100001 0.45100001 120
41.034 -0.61400002 1.085 74
41.002998 -0.56599998 1.717 41
33.617001 -0.43000001 -1.227 3
41.035999 -0.47600001 -0.86500001 4
50.382999 -0.52700001 -0.285 44
50.441002 -0.46799999 0.491 10
50.389 -0.40900001 1.268 40
64.418999 -0.45100001 2.615 51
32.751999 -0.193 -1.24 5
40.616001 -0.191 -0.912 7
49.356998 -0.175 -0.34799999 13
50.488998 -0.121 0.421 62
50.509998 -0.063000001 1.2 67
64.698997 -0.0099999998 2.5350001 29
32.053001 0.030999999 -1.261 5
40.613998 0.088 -0.972 14
46.782001 0.153 -0.39899999 5
50.601002 0.223 0.347 10
50.645 0.28099999 1.127 75
111.788 0.741 4.2119999 24
31.334 0.24600001 -1.2819999 6
40.466999 0.36300001 -1.033 21
46.729 0.472 -0.47299999 31
52.157001 0.58200002 0.27399999 5
52.159 0.63800001 1.0779999 2
96.516998 1.289 3.4809999 12
30.292999 0.44299999 -1.291 6
0 0 0 0
46.474998 0.78100002 -0.54900002 55
50.889999 0.91100001 0.18099999 86
52.242001 0.99199998 0.99000001 28
52.292 1.051 1.796 4
29.591999 0.634 -1.3150001 7
37.398998 0.84100002 -1.086 3
45.529999 1.071 -0.62 77
52.375999 1.289 0.090999998 5
52.356998 1.342 0.898 16
96.247002 2.572 3.131 22
28.784 0.81099999 -1.334 8
0 0 0 0
45.126999 1.364 -0.70200002 73
52.446999 1.64 -0.0089999996 22
52.480999 1.6950001 0.79900002 34
95.649002 3.191 2.927 18
27.966999 0.97500002 -1.353 8
34.07 1.224 -1.124 4
42.346001 1.564 -0.745 1
48.479 1.841 -0.107 3
50.952 1.985 0.671 2
96.087997 3.845 2.744 17
27.219 1.132 -1.376 9
33.095001 1.409 -1.163 4
41.835999 1.823 -0.82599998 4
48.264 2.154 -0.211 18
53.710999 2.45 0.59200001 5
50.956001 2.3759999 1.345 4
26.434 1.278 -1.397 11
31.955999 1.575 -1.196 6
40.956001 2.0569999 -0.90200001 12
44.805 2.2950001 -0.296 3
0 0 0 0
51.025002 2.7179999 1.2309999 40
25.695999 1.413 -1.42 11
30.839001 1.725 -1.228 6
0 0 0 0
46.581001 2.6949999 -0.41999999 47
51.223999 3.0139999 0.32600001 18
51.157001 3.0580001 1.114 36
24.9 1.535 -1.439 14
29.629999 1.855 -1.255 6
39.307999 2.4949999 -1.058 5
45.710999 2.9449999 -0.52499998 48
51.275002 3.3499999 0.2 38
51.276001 3.4000001 0.99000001 47
24.091 1.6440001 -1.455 15
28.601 1.977 -1.286 7
35.872002 2.5109999 -1.058 1
44.870998 3.1819999 -0.63099998 61
51.393002 3.6900001 0.068999998 30
51.384998 3.7390001 0.86000001 71
23.330999 1.7460001 -1.473 14
27.591 2.0880001 -1.3150001 8
34.285999 2.6229999 -1.104 4
41.868 3.2409999 -0.70200002 49
48.041 3.76 -0.064000003 3
51.544998 4.0830002 0.72399998 7
22.559 1.834 -1.488 16
26.742001 2.1960001 -1.35 9
32.488998 2.6949999 -1.138 3
41.495998 3.48 -0.81199998 44
41.876999 3.5469999 -0.17299999 98
41.912998 3.589 0.472 35
21.763 1.9119999 -1.501 16
25.726 2.279 -1.375 9
31.273001 2.796 -1.187 6
39.604 3.5739999 -0.88999999 2
42.217999 3.845 -0.296 3
56.784 5.2199998 0.47799999 3
21.046 1.983 -1.516 16
24.802 2.3559999 -1.401 11
29.921 2.865 -1.226 6
39.477001 3.8150001 -1.007 5
42.004002 4.0929999 -0.421 1
54.139999 5.322 0.292 26
20.354 2.05 -1.531 15
23.973 2.431 -1.431 13
28.749001 2.9360001 -1.268 7
0 0 0 0
45.091 4.6760001 -0.59100002 51
52.104 5.448 0.121 19
19.653 2.1029999 -1.543 14
23.056 2.483 -1.451 16
27.662001 2.9979999 -1.309 7
33.974998 3.707 -1.08 1
44.997002 4.948 -0.73299998 33
45.417 5.0320001 -0.037999999 3
19.017 2.1559999 -1.558 13
22.171 2.5280001 -1.47 16
26.493 3.039 -1.344 8
31.997 3.6930001 -1.125 4
41.457001 4.8169999 -0.81400001 7
48.537998 5.6789999 -0.20100001 21
18.4 2.201 -1.572 12
21.315001 2.5650001 -1.488 16
25.393999 3.072 -1.376 8
30.507 3.7130001 -1.179 6
39.716 4.8629999 -0.91600001 6
47.231998 5.8200002 -0.35699999 57
17.761 2.2379999 -1.5829999 11
20.465 2.592 -1.503 15
24.273001 3.0880001 -1.403 8
29.113001 3.724 -1.228 6
0 0 0 0
45.164001 5.842 -0.5 49
17.197001 2.2739999 -1.597 11
19.742001 2.6210001 -1.523 14
23.368 3.1159999 -1.436 14
27.900999 3.7379999 -1.278 6
34.229 4.6090002 -1.034 4
45.243 6.1259999 -0.66299999 21
16.636999 2.303 -1.61 10
19.037001 2.645 -1.541 13
22.406 3.125 -1.462 17
26.549999 3.72 -1.316 7
32.134998 4.5219998 -1.09 3
41.624001 5.8860002 -0.76200002 11
16.061001 2.3210001 -1.617 9
18.379999 2.665 -1.5599999 12
21.414 3.1159999 -1.48 15
25.429001 3.714 -1.358 6
30.500999 4.4749999 -1.151 5
39.862999 5.8740001 -0.88099998 7
15.524 2.3380001 -1.626 11
17.667999 2.668 -1.5700001 11
20.559 3.115 -1.502 15
24.229 3.6849999 -1.3890001 9
29.219 4.461 -1.217 6
37.615002 5.7680001 -0.97899997 1
15.027 2.3540001 -1.637 12
17.021999 2.6730001 -1.584 10
19.719 3.1070001 -1.522 14
23.24 3.6730001 -1.427 13
27.599001 4.3779998 -1.261 6
34.445999 5.4860001 -1.035 4
14.547 2.3670001 -1.648 11
16.4 2.675 -1.597 10
18.972 3.1029999 -1.545 13
22.177 3.6370001 -1.455 12
26.285999 4.3249998 -1.3099999 6
32.155998 5.3109999 -1.098 4
14.086 2.3770001 -1.658 11
15.804 2.671 -1.607 11
18.16 3.0769999 -1.557 12
21.084999 3.582 -1.474 16
24.934 4.2490001 -1.349 7
30.219999 5.1659999 -1.158 5
13.601 2.3759999 -1.663 11
15.27 2.6719999 -1.6210001 12
17.405001 3.05 -1.569 11
20.257999 3.559 -1.5039999 15
23.84 4.1989999 -1.391 8
28.489 5.033 -1.2130001 5
13.166 2.3770001 -1.67 12
14.843 2.684 -1.6440001 13
16.802999 3.043 -1.591 11
19.415001 3.523 -1.528 14
22.794001 4.1459999 -1.431 13
26.969999 4.9190001 -1.267 6
12.704 2.3670001 -1.671 12
14.381 2.6830001 -1.659 14
16.129 3.013 -1.601 10
18.573 3.4760001 -1.5470001 13
21.681999 4.0669999 -1.459 16
25.632 4.8189998 -1.319 6
12.267 2.3570001 -1.674 11
13.935 2.6800001 -1.675 10
15.527 2.9890001 -1.615 12
17.829 3.4389999 -1.568 12
20.721001 4.0029998 -1.49 16
16.351999 3.1659999 -0.91600001 2
11.861 2.348 -1.677 12
13.376 2.6489999 -1.673 8
15.001 2.973 -1.632 14
16.792999 3.332 -1.556 11
15.445 3.0699999 -1.184 41
15.379 3.0639999 -0.93300003 43
11.484 2.3380001 -1.681 13
12.821 2.6110001 -1.6670001 6
14.46 2.947 -1.645 11
15.434 3.1489999 -1.506 12
14.381 2.937 -1.171 42
14.491 2.9649999 -0.94800001 40
11.134 2.329 -1.688 13
12.36 2.5869999 -1.67 13
13.9 2.9100001 -1.651 7
14.766 3.0940001 -1.5140001 14
14 2.9360001 -1.2079999 42
13.829 2.905 -0.97100002 50
10.803 2.3210001 -1.694 13
11.892 2.5539999 -1.669 13
13.38 2.8740001 -1.6569999 8
14.07 3.023 -1.512 32
13.542 2.9130001 -1.2359999 46
13.382 2.8829999 -1.006 41
10.485 2.3110001 -1.7 12
11.489 2.53 -1.6720001 14
12.795 2.8180001 -1.651 16
13.593 2.994 -1.53 23
13.163 2.902 -1.268 44
12.997 2.868 -1.0420001 44
10.171 2.296 -1.704 13
11.107 2.506 -1.675 14
12.44 2.806 -1.67 14
13.043 2.9419999 -1.536 14
12.971 2.928 -1.316 43
12.73 2.8759999 -1.085 44
9.875 2.283 -1.709 12
10.774 2.4890001 -1.684 13
11.973 2.7639999 -1.6720001 16
12.66 2.9219999 -1.559 12
12.88 2.974 -1.374 40
12.596 2.9100001 -1.138 49
9.6059999 2.2720001 -1.717 12
10.442 2.4679999 -1.6900001 13
11.549 2.727 -1.676 16
12.357 2.9170001 -1.5880001 3
12.97 3.0610001 -1.452 43
12.501 2.9519999 -1.1950001 41
9.3459997 2.26 -1.724 12
10.146 2.45 -1.699 12
11.123 2.684 -1.676 15
12.203 2.944 -1.635 26
12.72 3.0680001 -1.494 51
12.418 2.9960001 -1.2539999 45
9.0799999 2.244 -1.728 12
9.8249998 2.424 -1.702 11
10.766 2.6530001 -1.683 14
11.93 2.938 -1.664 14
12.502 3.0780001 -1.536 25
12.687 3.1240001 -1.35 40
8.8450003 2.2320001 -1.7359999 12
9.5500002 2.405 -1.71 12
10.414 2.619 -1.687 12
11.513 2.8929999 -1.6720001 16
12.217 3.069 -1.5700001 19
12.445 3.1259999 -1.393 4
8.6149998 2.2179999 -1.743 11
9.2810001 2.385 -1.717 12
10.1 2.5910001 -1.696 12
11.099 2.8440001 -1.675 16
12.19 3.122 -1.636 11
12.424 3.181 -1.46 4
8.3859997 2.2019999 -1.748 11
9.0170002 2.362 -1.723 12
9.7810001 2.5580001 -1.7 12
10.742 2.806 -1.684 15
11.856 3.0940001 -1.659 14
12.454 3.2479999 -1.534 26
8.1630001 2.184 -1.752 11
8.7779999 2.3429999 -1.73 12
9.5 2.5309999 -1.7079999 12
10.357 2.7550001 -1.6849999 13
11.455 3.0439999 -1.669 10
12.24 3.25 -1.5779999 11
7.9619999 2.1689999 -1.7589999 10
8.5559998 2.325 -1.739 12
9.2259998 2.5020001 -1.714 12
10.045 2.7190001 -1.694 13
11.036 2.983 -1.6720001 14
12.165 3.286 -1.638 10
7.7709999 2.155 -1.766 10
8.3240004 2.302 -1.744 12
8.9750004 2.4760001 -1.723 12
9.7290001 2.6789999 -1.699 11
10.702 2.9430001 -1.6849999 16
11.774 3.234 -1.654 10
7.5710001 2.1359999 -1.7690001 10
8.1049995 2.28 -1.749 11
8.7390003 2.4519999 -1.732 12
9.4399996 2.6429999 -1.706 12
10.348 2.892 -1.691 15
11.38 3.177 -1.666 11
7.3979998 2.122 -1.777 10
7.8990002 2.2590001 -1.755 11
8.5109997 2.427 -1.739 12
9.1639996 2.6070001 -1.712 11
10.002 2.8399999 -1.6950001 13
10.995 3.118 -1.675 9
7.2270002 2.1070001 -1.783 10
7.7030001 2.2379999 -1.761 10
8.2770004 2.3970001 -1.744 11
8.8999996 2.5710001 -1.7180001 12
9.665 2.7869999 -1.697 11
10.617 3.056 -1.681 15
7.0349998 2.0829999 -1.783 11
7.5079999 2.2149999 -1.765 9
8.0640001 2.372 -1.751 11
8.6739998 2.5439999 -1.729 12
9.3780003 2.744 -1.705 11
10.267 2.9990001 -1.688 14
6.8850002 2.0699999 -1.791 9
7.3390002 2.198 -1.774 10
7.8520002 2.3440001 -1.756 11
8.434 2.51 -1.735 11
9.0880003 2.698 -1.71 12
9.9469995 2.947 -1.698 15
6.691 2.0420001 -1.7869999 9
7.1659999 2.178 -1.781 10
7.6570001 2.319 -1.763 10
8.2080002 2.4779999 -1.742 11
8.8330002 2.6600001 -1.7180001 12
9.5979996 2.8840001 -1.698 12
6.5430002 2.0250001 -1.793 10
7.006 2.1600001 -1.789 10
7.4569998 2.29 -1.767 10
7.9990001 2.448 -1.75 11
8.6059999 2.6270001 -1.729 12
9.29 2.829 -1.702 12
6.3829999 2.003 -1.794 9
6.8210001 2.131 -1.788 9
7.2789998 2.2650001 -1.773 10
7.7930002 2.4170001 -1.756 11
8.3719997 2.589 -1.7359999 11
9.026 2.7850001 -1.712 11
6.243 1.9859999 -1.799 10
6.6290002 2.099 -1.784 10
7.0949998 2.237 -1.777 10
7.5879998 2.3840001 -1.761 10
8.151 2.553 -1.743 11
8.7700005 2.7390001 -1.719 12
6.0949998 1.964 -1.8 10
6.4840002 2.079 -1.79 10
6.9510002 2.22 -1.788 10
7.4050002 2.3559999 -1.767 10
7.9429998 2.5179999 -1.75 11
8.5229998 2.694 -1.725 11
5.9590001 1.9450001 -1.802 9
6.3400002 2.059 -1.795 10
6.7820001 2.1919999 -1.791 9
7.2319999 2.3280001 -1.775 10
7.7410002 2.483 -1.757 11
8.2969999 2.654 -1.734 11
5.8309999 1.927 -1.806 10
6.1890001 2.0350001 -1.796 10
6.5890002 2.1559999 -1.786 11
7.0619998 2.3010001 -1.781 10
7.5419998 2.447 -1.762 10
8.085 2.615 -1.743 11
5.6950002 1.904 -1.806 9
6.0409999 2.0090001 -1.796 10
6.4429998 2.132 -1.791 10
6.8930001 2.2709999 -1.786 9
7.349 2.4119999 -1.767 10
7.8920002 2.5810001 -1.752 11
5.579 1.887 -1.8099999 9
5.9089999 1.988 -1.799 10
6.3010001 2.108 -1.796 10
6.7199998 2.2379999 -1.7869999 10
7.191 2.385 -1.777 10
7.678 2.5369999 -1.756 11
5.4439998 1.862 -1.806 10
5.7880001 1.9680001 -1.804 10
6.1539998 2.0810001 -1.7970001 9
6.5580001 2.207 -1.789 10
7.0050001 2.3469999 -1.779 9
7.4829998 2.4979999 -1.761 10
5.3249998 1.841 -1.807 10
5.6479998 1.941 -1.802 10
6.0190001 2.056 -1.8 10
6.408 2.178 -1.7920001 10
6.8319998 2.312 -1.781 10
7.3109999 2.464 -1.7690001 10
5.2189999 1.824 -1.8099999 9
5.5310001 1.92 -1.8049999 9
5.8839998 2.0309999 -1.803 10
6.2600002 2.1489999 -1.795 10
6.6729999 2.28 -1.785 10
7.1360002 2.428 -1.775 10
5.112 1.8049999 -1.812 10
5.4109998 1.897 -1.806 10
5.743 2.0009999 -1.801 10
6.1279998 2.1240001 -1.801 10
6.4980001 2.2409999 -1.784 9
6.9320002 2.3800001 -1.771 11
5.0079999 1.785 -1.814 9
5.2859998 1.8710001 -1.804 10
5.6199999 1.977 -1.803 10
5.9840002 2.0929999 -1.801 10
6.3569999 2.2119999 -1.789 10
6.7719998 2.345 -1.776 10
4.902 1.7640001 -1.813 10
5.1750002 1.849 -1.8049999 9
5.5079999 1.955 -1.807 10
5.8449998 2.062 -1.801 10
6.2259998 2.1849999 -1.796 10
6.6139998 2.3099999 -1.78 10
4.7940001 1.7410001 -1.8099999 10
5.072 1.8279999 -1.807 10
5.3889999 1.929 -1.808 10
5.7220001 2.036 -1.804 10
6.0819998 2.152 -1.7970001 9
6.4640002 2.276 -1.784 10
4.6950002 1.72 -1.8099999 10
4.9699998 1.807 -1.809 11
5.2680001 1.902 -1.807 10
5.586 2.0039999 -1.802 10
5.9419999 2.119 -1.7970001 10
6.3200002 2.2420001 -1.788 11
4.5939999 1.698 -1.807 10
4.8639998 1.783 -1.808 10
5.1589999 1.878 -1.808 9
5.4720001 1.978 -1.804 10
5.8109999 2.0880001 -1.799 10
6.1820002 2.2090001 -1.7920001 10
4.5219998 1.6849999 -1.814 10
4.7729998 1.763 -1.809 10
5.053 1.853 -1.808 10
5.3559999 1.951 -1.8049999 10
5.6919999 2.0599999 -1.802 10
6.033 2.171 -1.79 9
4.4429998 1.669 -1.817 10
4.678 1.742 -1.809 11
4.9530001 1.83 -1.809 10
5.25 1.925 -1.807 9
5.5669999 2.029 -1.802 10
5.9109998 2.141 -1.795 9
4.3600001 1.65 -1.818 10
4.5900002 1.722 -1.811 11
4.8660002 1.8099999 -1.813 10
5.1360002 1.896 -1.8049999 9
5.4559999 2.0009999 -1.804 10
5.783 2.108 -1.796 10
4.2849998 1.633 -1.8200001 10
4.4970002 1.698 -1.808 10
4.7690001 1.786 -1.812 10
5.0450001 1.875 -1.809 10
5.3410001 1.971 -1.804 10
5.6620002 2.0769999 -1.7970001 10
4.224 1.6210001 -1.8279999 12
4.427 1.683 -1.814 10
4.6750002 1.762 -1.811 11
4.9400001 1.847 -1.807 11
5.217 1.937 -1.799 10
5.546 2.0450001 -1.798 10
4.1409998 1.6 -1.824 9
4.3540001 1.666 -1.817 11
4.5890002 1.74 -1.812 10
4.8509998 1.824 -1.809 10
5.0970001 1.903 -1.793 10
5.4390001 2.016 -1.8 10
4.0669999 1.581 -1.824 9
4.277 1.646 -1.818 11
4.5050001 1.7180001 -1.812 10
4.7600002 1.8 -1.8099999 11
5.0219998 1.8839999 -1.801 11
5.3150001 1.98 -1.796 10
3.9990001 1.564 -1.825 10
4.2020001 1.626 -1.818 11
4.4250002 1.697 -1.813 11
4.6719999 1.776 -1.8099999 11
4.9390001 1.862 -1.806 11
5.2140002 1.952 -1.7970001 10
3.9349999 1.5470001 -1.827 10
4.1420002 1.612 -1.824 11
4.3499999 1.676 -1.814 10
4.5879998 1.752 -1.8099999 10
4.8460002 1.836 -1.806 10
5.0949998 1.915 -1.791 10
3.8659999 1.528 -1.825 9
4.0669999 1.591 -1.822 11
4.2839999 1.659 -1.818 11
4.5 1.726 -1.808 10
4.7579999 1.8099999 -1.806 11
5.0089998 1.891 -1.794 9
3.799 1.51 -1.824 9
4.0019999 1.573 -1.823 11
4.217 1.64 -1.821 11
4.4260001 1.705 -1.8099999 11
4.6760001 1.785 -1.808 11
4.9390001 1.8710001 -1.803 11
3.7479999 1.4960001 -1.8279999 9
3.9400001 1.5549999 -1.824 11
4.1420002 1.618 -1.819 11
4.3610001 1.687 -1.814 10
4.5890002 1.7589999 -1.806 11
4.8590002 1.847 -1.806 10
3.688 1.479 -1.8279999 9
3.8770001 1.5369999 -1.825 10
4.0830002 1.601 -1.823 12
4.2930002 1.666 -1.816 11
4.5170002 1.737 -1.808 10
4.763 1.816 -1.802 10
3.632 1.462 -1.829 9
3.819 1.5190001 -1.826 10
4.0190001 1.581 -1.823 11
4.223 1.6440001 -1.816 11
4.4400001 1.712 -1.808 11
4.6859999 1.791 -1.804 10
3.5869999 1.45 -1.834 9
3.7579999 1.5 -1.825 10
3.957 1.561 -1.823 11
4.165 1.626 -1.8200001 10
4.3730001 1.691 -1.8099999 10
4.6110001 1.767 -1.8049999 11
3.536 1.434 -1.835 8
3.707 1.484 -1.827 10
3.8959999 1.5420001 -1.823 11
4.092 1.602 -1.816 11
4.303 1.668 -1.8099999 10
4.533 1.74 -1.804 10
3.484 1.4170001 -1.834 8
3.6530001 1.467 -1.827 10
3.8399999 1.523 -1.824 10
4.0450001 1.587 -1.823 11
4.2470002 1.649 -1.814 11
4.461 1.715 -1.804 10
3.4360001 1.401 -1.835 9
3.6070001 1.452 -1.83 10
3.789 1.506 -1.826 10
3.98 1.564 -1.8200001 10
4.1849999 1.627 -1.8150001 10
4.401 1.6950001 -1.808 10
3.4000001 1.39 -1.841 9
3.5580001 1.4349999 -1.831 10
3.733 1.487 -1.825 10
3.9289999 1.546 -1.823 11
4.125 1.6059999 -1.816 11
4.3379998 1.6720001 -1.8099999 10
3.348 1.372 -1.8380001 9
3.5150001 1.42 -1.834 10
3.6900001 1.472 -1.83 10
3.8740001 1.527 -1.824 10
4.0749998 1.5880001 -1.8200001 10
4.283 1.652 -1.813 10
3.3080001 1.358 -1.84 9
3.4679999 1.403 -1.834 10
3.6359999 1.452 -1.827 11
3.8239999 1.508 -1.825 10
4.0209999 1.568 -1.821 10
4.2259998 1.63 -1.8150001 10
3.2590001 1.34 -1.836 9
3.4260001 1.388 -1.835 9
3.599 1.438 -1.832 10
3.766 1.4859999 -1.821 9
3.9649999 1.546 -1.8200001 10
4.1729999 1.61 -1.817 10
3.2260001 1.327 -1.841 8
3.3900001 1.374 -1.839 10
3.55 1.419 -1.831 10
3.727 1.471 -1.826 10
3.9159999 1.527 -1.822 10
4.1160002 1.587 -1.817 10
3.184 1.311 -1.839 8
3.352 1.359 -1.841 9
3.513 1.404 -1.834 10
3.6789999 1.451 -1.825 10
3.868 1.508 -1.823 10
4.0669999 1.567 -1.819 10
3.152 1.299 -1.842 8
3.3039999 1.34 -1.836 9
3.4719999 1.388 -1.835 9
3.635 1.433 -1.825 10
3.819 1.487 -1.822 10
4.0159998 1.546 -1.819 9
3.115 1.283 -1.842 8
3.273 1.327 -1.84 9
3.4330001 1.3710001 -1.835 9
3.5940001 1.415 -1.826 9
3.7750001 1.4680001 -1.823 10
3.9679999 1.525 -1.819 10
3.0810001 1.2690001 -1.842 7
3.234 1.3099999 -1.839 10
3.3970001 1.355 -1.836 9
3.562 1.401 -1.831 9
3.7260001 1.446 -1.8200001 10
3.9219999 1.5039999 -1.819 10
3.0409999 1.251 -1.8380001 8
3.2019999 1.295 -1.841 10
3.362 1.339 -1.837 9
3.5250001 1.3839999 -1.832 8
3.6919999 1.4299999 -1.824 10
3.8800001 1.484 -1.8200001 10
3.016 1.24 -1.841 8
3.1689999 1.28 -1.84 9
3.332 1.325 -1.84 9
3.4909999 1.367 -1.8329999 9
3.651 1.411 -1.823 10
3.8340001 1.4630001 -1.819 9
2.9909999 1.227 -1.844 7
3.141 1.266 -1.842 8
3.296 1.308 -1.839 9
3.4549999 1.35 -1.8329999 9
3.6199999 1.395 -1.826 9
3.7909999 1.442 -1.817 9
2.96 1.212 -1.8430001 7
3.105 1.249 -1.8380001 9
3.2650001 1.2920001 -1.839 9
3.424 1.334 -1.835 9
3.5869999 1.378 -1.827 9
3.76 1.425 -1.821 10
2.9389999 1.2 -1.846 7
3.079 1.235 -1.84 9
3.233 1.275 -1.8380001 9
3.3970001 1.319 -1.837 10
3.5610001 1.363 -1.832 10
3.724 1.406 -1.821 9
2.911 1.186 -1.845 7
3.0510001 1.22 -1.84 8
3.2049999 1.26 -1.839 8
3.3610001 1.301 -1.835 9
3.529 1.345 -1.832 9
3.6930001 1.3890001 -1.823 10
2.888 1.1720001 -1.846 7
3.029 1.207 -1.842 8
3.1789999 1.245 -1.839 8
3.336 1.285 -1.836 9
3.4990001 1.3279999 -1.832 9
3.6619999 1.3710001 -1.823 9
1.467 0.59299999 -0.94499999 0
3.0050001 1.193 -1.842 8
3.1570001 1.2309999 -1.841 8
3.3150001 1.272 -1.84 9
3.4719999 1.312 -1.8329999 9
3.625 1.35 -1.821 9
0 0 0 0
2.984 1.179 -1.8430001 7
3.1340001 1.216 -1.842 8
3.2820001 1.253 -1.836 9
3.4519999 1.2970001 -1.837 8
3.6040001 1.335 -1.825 9
0 0 0 0
2.96 1.164 -1.842 8
3.1110001 1.201 -1.8430001 8
3.2590001 1.237 -1.837 8
3.421 1.278 -1.835 9
3.586 1.3200001 -1.829 9
0 0 0 0
2.9449999 1.152 -1.845 8
3.085 1.1849999 -1.84 9
3.2409999 1.223 -1.839 8
3.4030001 1.2640001 -1.8380001 9
3.5669999 1.3049999 -1.8329999 8
0 0 0 0
2.9289999 1.14 -1.848 7
3.066 1.171 -1.841 8
3.2190001 1.2079999 -1.839 9
3.3710001 1.244 -1.8329999 9
3.5420001 1.2869999 -1.8329999 9
0 0 0 0
2.911 1.125 -1.847 7
3.056 1.159 -1.846 8
3.2030001 1.193 -1.841 8
3.3559999 1.23 -1.836 9
3.5179999 1.27 -1.832 9
0 0 0 0
2.8889999 1.11 -1.844 7
3.03 1.141 -1.84 8
3.184 1.178 -1.841 7
3.3410001 1.215 -1.839 9
3.5009999 1.253 -1.834 8
0 0 0 0
2.865 1.0930001 -1.8380001 9
3.0179999 1.1289999 -1.8430001 8
3.168 1.163 -1.842 8
3.3269999 1.201 -1.841 9
3.483 1.237 -1.835 9
0 0 0 0
0 0 0 0
3.006 1.1160001 -1.845 7
3.151 1.148 -1.841 8
3.3050001 1.183 -1.8380001 8
3.4660001 1.221 -1.835 9
0 0 0 0
1.577 0.59200001 -1.021 8
2.9920001 1.101 -1.844 8
3.1370001 1.133 -1.842 8
3.2980001 1.17 -1.8430001 9
3.448 1.204 -1.835 8
0 0 0 0
1.498 0.55800003 -0.97399998 5
2.9820001 1.0880001 -1.846 7
3.1229999 1.118 -1.841 8
3.273 1.151 -1.837 8
3.438 1.189 -1.837 8
0 0 0 0
0 0 0 0
2.9719999 1.075 -1.847 8
3.109 1.103 -1.84 7
3.266 1.137 -1.84 9
3.4200001 1.171 -1.835 8
0 0 0 0
0 0 0 0
2.957 1.059 -1.844 7
3.1029999 1.09 -1.8430001 8
3.2520001 1.1210001 -1.839 9
3.4070001 1.154 -1.835 8
0 0 0 0
0 0 0 0
2.957 1.048 -1.85 8
3.0999999 1.077 -1.846 8
3.247 1.108 -1.842 9
3.398 1.1390001 -1.836 9
0 0 0 0
0 0 0 0
2.947 1.034 -1.848 7
3.0829999 1.0599999 -1.841 8
3.24 1.0930001 -1.8430001 9
3.388 1.123 -1.836 8
0 0 0 0
0 0 0 0
2.944 1.021 -1.85 7
3.0799999 1.0470001 -1.844 8
3.2320001 1.0779999 -1.8430001 9
3.3889999 1.11 -1.841 8
0 0 0 0
0 0 0 0
2.9330001 1.006 -1.846 7
3.073 1.0319999 -1.8430001 8
3.2260001 1.063 -1.8430001 8
3.381 1.094 -1.84 8
0 0 0 0
0 0 0 0
2.928 0.99199998 -1.846 7
3.0680001 1.018 -1.8430001 8
3.2219999 1.048 -1.8430001 7
3.3759999 1.079 -1.84 8
0 0 0 0
0 0 0 0
2.927 0.97899997 -1.847 7
3.069 1.005 -1.845 7
3.21 1.031 -1.839 8
3.375 1.064 -1.842 8
0 0 0 0
0 0 0 0
1.478 0.48800001 -0.93300003 0
3.066 0.991 -1.845 7
3.2130001 1.018 -1.842 8
3.3710001 1.049 -1.842 8
0 0 0 0
0 0 0 0
2.924 0.95300001 -1.847 11
3.0669999 0.97799999 -1.846 7
3.2179999 1.006 -1.845 8
3.3729999 1.034 -1.8430001 8
0 0 0 0
1.439 0.47299999 -0.954 8
2.9159999 0.93699998 -1.842 9
3.066 0.96399999 -1.845 7
3.2130001 0.99000001 -1.8430001 8
3.3710001 1.018 -1.842 8
0 0 0 0
1.447 0.46900001 -0.95899999 8
2.915 0.92299998 -1.84 8
3.0669999 0.94999999 -1.845 7
3.2149999 0.97600001 -1.8430001 8
3.3740001 1.0039999 -1.844 8
0 0 0 0
1.451 0.463 -0.96100003 7
2.925 0.912 -1.845 8
3.073 0.93699998 -1.847 7
3.221 0.96200001 -1.845 8
3.3759999 0.98900002 -1.8430001 8
0 0 0 0
1.457 0.458 -0.963 7
2.9319999 0.89999998 -1.847 8
3.0799999 0.92400002 -1.849 7
3.223 0.94700003 -1.844 8
3.3800001 0.97399998 -1.8430001 8
0 0 0 0
1.464 0.45300001 -0.96700001 7
1.5190001 0.458 -0.95499998 0
3.0829999 0.91000003 -1.848 7
3.2279999 0.93300003 -1.845 8
3.382 0.958 -1.842 8
0 0 0 0
1.473 0.44800001 -0.97100002 6
1.598 0.47400001 -1.003 0
3.089 0.89600003 -1.848 7
3.2320001 0.91799998 -1.8430001 8
3.3940001 0.94499999 -1.845 8
0 0 0 0
1.478 0.442 -0.972 5
2.95 0.861 -1.848 7
3.0910001 0.88099998 -1.845 8
3.2409999 0.90499997 -1.844 8
3.4059999 0.93099999 -1.848 8
0 0 0 0
1.493 0.43799999 -0.97899997 4
2.97 0.85100001 -1.855 6
3.1040001 0.86900002 -1.848 7
3.2490001 0.88999999 -1.844 8
3.4130001 0.91600001 -1.847 8
0 0 0 0
1.5 0.43200001 -0.98000002 3
2.9760001 0.83700001 -1.853 6
3.115 0.85600001 -1.849 7
3.2650001 0.87800002 -1.848 8
3.4219999 0.90100002 -1.846 8
0 0 0 0
1.515 0.428 -0.98699999 3
2.99 0.82499999 -1.8559999 6
3.1229999 0.84200001 -1.848 7
3.277 0.86400002 -1.849 8
3.438 0.88800001 -1.849 8
0 0 0 0
1.529 0.42399999 -0.99199998 2
3 0.81199998 -1.855 7
3.135 0.82800001 -1.848 8
3.2920001 0.85100001 -1.85 8
3.4489999 0.87300003 -1.848 8
0 0 0 0
1.536 0.417 -0.99299997 2
3.0079999 0.79699999 -1.852 6
3.1489999 0.815 -1.849 7
3.3 0.83499998 -1.848 8
3.461 0.85699999 -1.847 8
0 0 0 0
1.55 0.41299999 -0.99699998 2
3.0220001 0.78500003 -1.853 7
3.164 0.80199999 -1.85 7
3.313 0.82099998 -1.847 7
3.4690001 0.84100002 -1.8430001 8
0 0 0 0
1.566 0.40799999 -1.002 2
3.036 0.77200001 -1.853 7
3.1800001 0.78899997 -1.851 7
3.332 0.80800003 -1.849 8
3.49 0.82800001 -1.846 9
0 0 0 0
1.595 0.40700001 -1.016 2
3.052 0.759 -1.853 7
3.1960001 0.77600002 -1.851 7
3.346 0.79299998 -1.847 8
3.5009999 0.81199998 -1.842 8
1.4220001 0.36399999 -0.94499999 4
1.729 0.43099999 -1.095 2
3.063 0.745 -1.85 7
3.2119999 0.76200002 -1.85 8
3.3640001 0.77999997 -1.847 8
3.5220001 0.79900002 -1.844 8
1.444 0.36199999 -0.954 3
0 0 0 0
3.0899999 0.73400003 -1.8559999 6
3.2320001 0.74900001 -1.851 6
3.3840001 0.76599997 -1.848 8
3.543 0.78399998 -1.844 8
1.456 0.35600001 -0.95599997 3
2.9549999 0.704 -1.85 8
3.1040001 0.72000003 -1.853 7
3.2520001 0.736 -1.851 8
3.408 0.75300002 -1.85 8
3.5650001 0.76999998 -1.845 8
1.478 0.35299999 -0.96399999 3
2.983 0.69300002 -1.8559999 7
3.1240001 0.70700002 -1.853 8
3.2720001 0.722 -1.851 7
3.4319999 0.73900002 -1.851 8
3.592 0.75599998 -1.847 9
1.498 0.34900001 -0.97100002 3
3.006 0.68099999 -1.858 6
3.1440001 0.69400001 -1.853 7
3.2920001 0.708 -1.85 7
3.4579999 0.72600001 -1.853 9
3.6129999 0.741 -1.845 8
1.53 0.347 -0.98500001 2
3.0239999 0.66799998 -1.8559999 7
3.1689999 0.68099999 -1.854 7
3.3210001 0.69599998 -1.853 7
3.4749999 0.71100003 -1.849 9
3.635 0.72600001 -1.844 8
1.5599999 0.345 -0.99699998 2
3.0510001 0.65600002 -1.859 7
3.1930001 0.66900003 -1.855 8
3.3429999 0.68199998 -1.852 8
3.4990001 0.69599998 -1.848 9
3.6659999 0.713 -1.845 8
1.65 0.35499999 -1.046 2
3.073 0.64399999 -1.858 7
3.217 0.65600002 -1.855 8
3.3740001 0.67000002 -1.855 8
3.5239999 0.68199998 -1.847 9
3.698 0.699 -1.847 8
0 0 0 0
3.098 0.63099998 -1.858 7
3.2360001 0.64099997 -1.851 7
3.3970001 0.65499997 -1.853 8
3.5539999 0.66900003 -1.848 9
3.7290001 0.685 -1.848 8
1.582 0.322 -0.98699999 0
3.118 0.61699998 -1.855 7
3.2739999 0.63 -1.857 7
3.427 0.64200002 -1.854 8
3.582 0.65499997 -1.847 9
3.7520001 0.66900003 -1.844 9
3.0050001 0.59500003 -1.859 7
3.151 0.60600001 -1.859 7
3.2980001 0.61699998 -1.8559999 8
3.457 0.62900001 -1.855 8
3.6159999 0.64099997 -1.849 8
3.783 0.65399998 -1.8430001 9
3.0239999 0.58099997 -1.854 7
3.181 0.59299999 -1.86 7
3.3269999 0.60399997 -1.8559999 7
3.4849999 0.61500001 -1.853 8
3.645 0.62699997 -1.847 8
3.8150001 0.639 -1.842 8
3.062 0.57099998 -1.8609999 7
3.201 0.579 -1.855 7
3.3540001 0.58999997 -1.854 8
3.5150001 0.60100001 -1.852 8
3.677 0.61299998 -1.846 9
3.8540001 0.62599999 -1.8430001 8
3.086 0.55800003 -1.858 7
3.2349999 0.56699997 -1.858 8
3.392 0.57800001 -1.857 8
3.546 0.58700001 -1.85 8
3.72 0.60000002 -1.85 9
3.8859999 0.61000001 -1.841 9
3.1099999 0.54400003 -1.854 7
3.263 0.55400002 -1.8559999 8
3.4219999 0.56400001 -1.855 8
3.5810001 0.574 -1.851 8
3.753 0.58499998 -1.848 9
3.9319999 0.597 -1.844 9
3.1559999 0.53399998 -1.863 7
3.302 0.542 -1.859 9
3.4579999 0.551 -1.8559999 8
3.618 0.56 -1.851 8
3.786 0.56999999 -1.845 9
3.964 0.58099997 -1.839 9
3.181 0.52100003 -1.859 7
3.3369999 0.52899998 -1.86 8
3.497 0.53899997 -1.858 8
3.6600001 0.54799998 -1.853 8
3.825 0.55599999 -1.844 9
4.0110002 0.56800002 -1.841 9
3.2119999 0.50800002 -1.858 7
3.3710001 0.51700002 -1.859 8
3.5339999 0.52499998 -1.858 9
3.691 0.53299999 -1.849 8
3.869 0.54299998 -1.846 10
4.0609999 0.55400002 -1.844 10
3.2409999 0.495 -1.855 7
3.4070001 0.50400001 -1.859 8
3.5639999 0.51099998 -1.853 9
3.7309999 0.51899999 -1.849 9
3.9070001 0.528 -1.8430001 9
4.105 0.53899997 -1.8430001 9
3.2850001 0.48300001 -1.859 7
3.4449999 0.491 -1.859 8
3.6010001 0.49700001 -1.852 9
3.7780001 0.50599998 -1.851 9
3.9530001 0.514 -1.844 10
4.1570001 0.52499998 -1.844 10
3.3210001 0.47099999 -1.859 7
3.4849999 0.47799999 -1.86 8
3.6530001 0.486 -1.857 9
3.819 0.49200001 -1.849 9
4.006 0.50099999 -1.846 9
4.2069998 0.51099998 -1.844 10
3.3629999 0.45899999 -1.86 7
3.533 0.46599999 -1.863 8
3.6930001 0.472 -1.8559999 9
3.865 0.479 -1.849 9
4.0560002 0.48699999 -1.847 10
4.2579999 0.49599999 -1.8430001 10
3.3989999 0.44600001 -1.859 7
3.569 0.45300001 -1.86 9
3.737 0.45899999 -1.855 9
3.911 0.465 -1.849 9
4.1110001 0.47299999 -1.849 10
4.323 0.48300001 -1.848 11
3.441 0.433 -1.859 8
3.612 0.44 -1.86 9
3.786 0.44600001 -1.8559999 9
3.9590001 0.45100001 -1.848 9
4.1589999 0.458 -1.846 9
4.368 0.46700001 -1.842 10
3.4820001 0.41999999 -1.858 8
3.654 0.426 -1.858 9
3.8329999 0.43200001 -1.8559999 9
4.0120001 0.43700001 -1.849 10
4.2179999 0.44499999 -1.847 10
4.4380002 0.45300001 -1.847 10
3.533 0.40900001 -1.8609999 8
3.71 0.414 -1.862 9
3.8699999 0.417 -1.849 9
4.066 0.42399999 -1.848 10
4.2740002 0.43000001 -1.847 11
4.4970002 0.43799999 -1.845 10
3.5799999 0.396 -1.862 8
3.75 0.40000001 -1.858 9
3.9289999 0.405 -1.853 9
4.1240001 0.41 -1.85 10
4.3330002 0.41600001 -1.846 11
4.5539999 0.42300001 -1.842 10
3.6329999 0.384 -1.864 8
3.8 0.38699999 -1.857 10
3.9809999 0.391 -1.852 10
4.184 0.396 -1.85 10
4.3909998 0.40200001 -1.844 10
4.6199999 0.40799999 -1.841 10
3.6730001 0.37 -1.86 8
3.849 0.37400001 -1.8559999 8
4.0349998 0.377 -1.851 9
4.2410002 0.382 -1.849 10
4.4590001 0.38699999 -1.846 11
4.6859999 0.39300001 -1.839 10
3.72 0.35699999 -1.858 8
3.901 0.36000001 -1.854 10
4.1030002 0.36500001 -1.855 10
4.3099999 0.36899999 -1.852 10
4.5320001 0.37400001 -1.848 11
4.7639999 0.37799999 -1.842 11
3.783 0.345 -1.863 9
3.9530001 0.347 -1.853 11
4.1589999 0.35100001 -1.854 10
4.375 0.35499999 -1.852 10
4.592 0.359 -1.844 11
4.8400002 0.36399999 -1.841 11
3.8340001 0.33199999 -1.8609999 9
4.0149999 0.33399999 -1.854 10
4.217 0.33700001 -1.851 10
4.4439998 0.34099999 -1.852 10
4.671 0.345 -1.846 11
4.9219999 0.34900001 -1.842 11
3.882 0.31900001 -1.857 9
4.0770001 0.32100001 -1.855 10
4.2870002 0.324 -1.853 10
4.5100002 0.32699999 -1.851 11
4.737 0.33000001 -1.842 11
5.0159998 0.33500001 -1.846 12
3.9419999 0.30599999 -1.858 9
4.1370001 0.308 -1.854 11
4.3610001 0.31099999 -1.8559999 11
4.5739999 0.31299999 -1.847 11
4.8189998 0.31600001 -1.8430001 12
5.092 0.31900001 -1.842 11
3.9979999 0.29300001 -1.8559999 9
4.2069998 0.29499999 -1.8559999 10
4.4250002 0.29699999 -1.853 11
4.6440001 0.29800001 -1.844 11
4.908 0.30199999 -1.846 11
5.1810002 0.30399999 -1.842 12
4.0570002 0.28 -1.854 9
4.27 0.28200001 -1.854 11
4.5 0.28400001 -1.854 11
4.723 0.285 -1.845 11
4.994 0.287 -1.846 11
5.2800002 0.289 -1.844 12
4.1259999 0.26800001 -1.8559999 10
4.3449998 0.26899999 -1.8559999 11
4.5739999 0.27000001 -1.853 12
4.8080001 0.27000001 -1.846 10
5.0900002 0.273 -1.848 12
5.3720002 0.27399999 -1.841 12
4.1919999 0.255 -1.855 10
4.4229999 0.25600001 -1.858 11
4.6500001 0.25600001 -1.852 12
4.9000001 0.257 -1.848 11
5.1739998 0.25799999 -1.844 12
5.4650002 0.25799999 -1.8380001 12
4.2659998 0.243 -1.857 10
4.4879999 0.242 -1.853 11
4.7270002 0.242 -1.851 11
4.9910002 0.243 -1.848 12
5.27 0.243 -1.844 13
5.573 0.243 -1.8380001 12
