# .PCD v0.7 - Point Cloud Data file format
VERSION 0.7
FIELDS x y z intensity
SIZE 4 4 4 4
TYPE F F F F
COUNT 1 1 1 1
WIDTH 1831
HEIGHT 1
VIEWPOINT 0 0 0 1 0 0 0
POINTS 1831
DATA ascii
0 0 0 0
0 0 0 0
0 0 0 0
0 0 0 0
0 0 0 0
0 0 0 0
0 0 0 0
0 0 0 0
0 0 0 0
0 0 0 0
0 0 0 0
0 0 0 0
0 0 0 0
0 0 0 0
0 0 0 0
0 0 0 0
0 0 0 0
0 0 0 0
0 0 0 0
0 0 0 0
0 0 0 0
0 0 0 0
0 0 0 0
0 0 0 0
0 0 0 0
0 0 0 0
0 0 0 0
0 0 0 0
0 0 0 0
0 0 0 0
0 0 0 0
0 0 0 0
0 0 0 0
0 0 0 0
0 0 0 0
0 0 0 0
0 0 0 0
0 0 0 0
0 0 0 0
0 0 0 0
0 0 0 0
0 0 0 0
0 0 0 0
0 0 0 0
0 0 0 0
0 0 0 0
0 0 0 0
0 0 0 0
0 0 0 0
0 0 0 0
0 0 0 0
0 0 0 0
0 0 0 0
0 0 0 0
0 0 0 0
0 0 0 0
0 0 0 0
0 0 0 0
0 0 0 0
0 0 0 0
0 0 0 0
0 0 0 0
0 0 0 0
0 0 0 0
0 0 0 0
0 0 0 0
0 0 0 0
0 0 0 0
0 0 0 0
0 0 0 0
0 0 0 0
0 0 0 0
0 0 0 0
0 0 0 0
0 0 0 0
0 0 0 0
0 0 0 0
0 0 0 0
0 0 0 0
0 0 0 0
0 0 0 0
40.693001 1.418 9.6110001 5
0 0 0 0
0 0 0 0
0 0 0 0
0 0 0 0
0 0 0 0
40.687 1.467 9.3179998 20
0 0 0 0
0 0 0 0
0 0 0 0
0 0 0 0
0 0 0 0
40.563 1.5089999 8.9969997 32
42.754002 1.554 10.18 31
0 0 0 0
0 0 0 0
0 0 0 0
0 0 0 0
40.706001 1.5549999 8.7370005 43
0 0 0 0
0 0 0 0
0 0 0 0
0 0 0 0
0 0 0 0
41.068001 1.607 8.5170002 63
40.584999 1.556 9.0710001 37
42.679001 1.602 10.238 9
0 0 0 0
0 0 0 0
0 0 0 0
40.903999 1.632 8.1899996 49
0 0 0 0
0 0 0 0
0 0 0 0
0 0 0 0
0 0 0 0
40.688999 1.652 7.8520002 55
41.088001 1.637 8.5839996 64
40.587002 1.586 9.1370001 46
42.576 1.632 10.281 8
0 0 0 0
0 0 0 0
41.126999 1.6950001 7.6420002 54
40.901001 1.655 8.2480001 61
0 0 0 0
42.587002 1.659 9.9680004 65
0 0 0 0
0 0 0 0
40.679001 1.696 7.2670002 61
40.551998 1.66 7.8860002 58
41.016998 1.649 8.6309996 63
40.834 1.6109999 9.2550001 63
42.466 1.6440001 10.32 3
0 0 0 0
40.965 1.723 7.0250001 42
41.099998 1.698 7.6929998 46
41.077999 1.6670001 8.3439999 63
0 0 0 0
42.639999 1.669 10.04 39
0 0 0 0
0 0 0 0
40.66 1.691 7.3189998 61
40.686001 1.6619999 7.9650002 51
41.02 1.646 8.6859999 64
41.165001 1.623 9.3839998 57
42.458 1.6440001 10.373 1
43.238998 1.837 6.796 48
40.98 1.711 7.0809999 52
40.937 1.6799999 7.7189999 61
41.186001 1.661 8.4189997 63
0 0 0 0
42.636002 1.659 10.094 33
43.201 1.837 6.4840002 17
40.944 1.711 6.7800002 7
40.652 1.67 7.368 61
40.751999 1.646 8.0310001 53
40.917 1.625 8.717 46
41.344002 1.614 9.4759998 47
77.954002 3.3099999 11.139 40
43.287998 1.807 6.855 49
41.019001 1.683 7.1370001 62
40.818001 1.647 7.7449999 61
41.087002 1.63 8.4490004 63
0 0 0 0
78.375 3.3150001 10.646 35
43.223 1.798 6.5370002 14
40.952999 1.674 6.8280001 15
40.754002 1.638 7.4349999 36
40.870998 1.615 8.1029997 46
0 0 0 0
76.341003 3.207 9.8280001 19
78.052002 3.2249999 11.244 41
43.365002 1.762 6.9190001 36
40.848 1.632 7.1539998 53
40.820999 1.604 7.7940001 52
41.098999 1.5880001 8.4989996 46
74.253998 3.092 9.0410004 17
78.924004 3.2309999 10.818 42
42.907001 1.728 6.5409999 5
41.094002 1.627 6.9050002 20
40.848999 1.59 7.5009999 27
40.824001 1.563 8.1389999 58
64.045998 2.6340001 7.3470001 12
79.152 3.2019999 10.283 29
78.046997 3.105 11.336 7
43.493 1.702 6.9889998 39
41.066002 1.579 7.237 30
40.897999 1.5470001 7.8520002 48
63.810001 2.585 6.868 34
74.242996 2.9579999 9.1160002 34
79.373001 3.1099999 10.958 47
43.143002 1.6619999 6.6220002 19
0 0 0 0
40.997002 1.528 7.5689998 17
63.842999 2.54 6.421 3
74.355003 2.9089999 8.6049995 41
79.186996 3.0469999 10.369 39
0 0 0 0
43.757 1.628 7.0780001 59
41.083 1.503 7.2839999 21
75.75 2.9530001 7.092 12
74.356003 2.8499999 8.085 33
74.192001 2.7950001 9.1920004 32
79.336998 2.937 11.038 42
43.337002 1.577 6.6950002 11
39.818001 1.425 6.7680001 4
76.297997 2.902 6.6079998 7
74.936996 2.802 7.619 21
74.283997 2.73 8.6750002 44
79.369003 2.865 10.473 39
0 0 0 0
39.695 1.385 6.4569998 3
0 0 0 0
79.058998 2.8729999 7.4819999 10
74.304001 2.6530001 8.1520004 33
74.449997 2.6129999 9.2959995 38
79.456001 2.74 11.137 26
0 0 0 0
0 0 0 0
79.045998 2.7809999 6.928 11
74.466003 2.5739999 7.6479998 10
74.234001 2.52 8.7460003 46
79.25 2.6440001 10.545 42
0 0 0 0
0 0 0 0
0 0 0 0
74.439003 2.4790001 7.1230001 12
74.239998 2.428 8.2220001 34
74.653999 2.3970001 9.3979998 36
79.464996 2.506 11.216 13
79.593002 2.642 4.6960001 22
0 0 0 0
0 0 0 0
74.442001 2.335 7.7280002 20
74.380997 2.29 8.8470001 39
78.894997 2.382 10.576 33
78.906998 2.5020001 4.112 26
79.771004 2.48 5.3439999 37
0 0 0 0
74.436996 2.2260001 7.21 13
74.216003 2.177 8.3079996 27
74.698997 2.148 9.4899998 35
0 0 0 0
79.332001 2.342 4.7719998 25
79.774002 2.3080001 5.9879999 37
0 0 0 0
74.331001 2.063 7.8000002 34
74.429001 2.0239999 8.9300003 34
0 0 0 0
78.147003 2.1730001 4.1659999 17
79.610001 2.1670001 5.4250002 12
0 0 0 0
74.321999 1.938 7.2810001 36
74.461998 1.901 8.415 25
97.553001 2.595 3.0969999 21
0 0 0 0
78.030998 1.984 4.7859998 11
79.649002 1.9809999 6.072 8
74.845001 1.818 6.8179998 11
75.772003 1.8 8.0380001 9
0 0 0 0
0 0 0 0
0 0 0 0
79.063004 1.816 5.4899998 15
79.796997 1.789 6.7270002 27
74.527 1.631 7.3959999 11
0 0 0 0
97.507004 2.1559999 3.237 20
0 0 0 0
0 0 0 0
0 0 0 0
74.535004 1.485 6.8940001 22
52.000999 1.069 0.616 20
97.028999 1.9400001 2.579 21
0 0 0 0
0 0 0 0
77.801003 1.428 5.5120001 14
79.000999 1.408 6.7670002 8
52.009998 0.95300001 0.27500001 2
97.832001 1.739 1.952 15
97.480003 1.677 3.3740001 9
0 0 0 0
0 0 0 0
77.541 1.21 6.1160002 28
58.901001 0.94099998 -0.077 2
98.080002 1.512 1.308 17
96.628998 1.437 2.707 11
0 0 0 0
0 0 0 0
0 0 0 0
49.391998 0.66799998 -0.38699999 7
53.633999 0.69599998 0.36399999 45
98.357002 1.225 2.1140001 20
96.43 1.15 3.4879999 12
0 0 0 0
0 0 0 0
46.966999 0.51499999 -0.671 64
53.610001 0.56 0.02 9
53.571999 0.53299999 0.80699998 18
96.348 0.90799999 2.8640001 18
0 0 0 0
0 0 0 0
46.252998 0.38699999 -0.95300001 45
51.278999 0.40099999 -0.30899999 7
0 0 0 0
97.864998 0.66600001 2.2780001 12
98.432999 0.62 3.7320001 17
0 0 0 0
41.986 0.234 -1.136 12
0 0 0 0
81.636002 0.37200001 0.18000001 8
53.48 0.21600001 0.898 21
97.306999 0.345 3.056 22
0 0 0 0
40.002998 0.108 -1.337 2
46.349998 0.101 -0.87199998 77
51.595001 0.088 -0.215 2
53.425999 0.064000003 0.55699998 23
53.425999 0.037999999 1.337 42
97.632004 0.025 3.8740001 9
33.638 -0.0089999996 -1.337 4
41.969002 -0.032000002 -1.0549999 10
48.078999 -0.059999999 -0.505 16
51.995998 -0.090000004 0.212 13
53.400002 -0.118 0.99699998 14
97.287003 -0.26199999 3.2349999 24
30.829 -0.103 -1.418 6
40.074001 -0.153 -1.257 5
47.134998 -0.20299999 -0.79100001 66
52.021999 -0.248 -0.112 40
53.103001 -0.27700001 0.66100001 29
53.237999 -0.30500001 1.433 6
28.603001 -0.186 -1.492 8
0 0 0 0
45.498001 -0.34 -1.0470001 30
48.789001 -0.38800001 -0.412 3
53.070999 -0.44600001 0.32600001 40
53.254002 -0.472 1.101 7
26.569 -0.26100001 -1.552 11
31.664 -0.32499999 -1.385 6
39.992001 -0.428 -1.165 4
46.632999 -0.51999998 -0.67699999 27
61.050999 -0.70899999 0.001 31
0 0 0 0
24.518 -0.32300001 -1.581 11
29.257999 -0.39899999 -1.46 8
36.616001 -0.51599997 -1.2920001 1
46.075001 -0.671 -0.95499998 60
0 0 0 0
51.73 -0.801 0.42699999 46
22.92 -0.38299999 -1.619 17
27.09 -0.465 -1.518 9
33.165001 -0.58399999 -1.374 5
41.728001 -0.75300002 -1.1210001 11
47.564999 -0.87900001 -0.58399999 15
63.103001 -1.194 0.138 4
21.431999 -0.435 -1.642 15
25.120001 -0.52100003 -1.559 11
30.306 -0.64200002 -1.438 7
39.816002 -0.861 -1.309 3
46.859001 -1.034 -0.86000001 66
51.605 -1.161 -0.2 86
20.141001 -0.484 -1.666 14
23.496 -0.57499999 -1.599 12
28.115999 -0.69999999 -1.503 8
34.542 -0.87400001 -1.344 3
41.721001 -1.074 -1.017 1
46.813 -1.226 -0.463 2
19.106001 -0.53200001 -1.694 13
21.961 -0.62099999 -1.625 15
26.219 -0.75099999 -1.556 11
31.521 -0.91600001 -1.411 5
39.832001 -1.175 -1.207 3
46.486 -1.39 -0.73400003 14
18.121 -0.57499999 -1.7130001 12
20.759001 -0.667 -1.658 15
24.452 -0.796 -1.595 15
29.252001 -0.96399999 -1.482 8
0 0 0 0
42.124001 -1.423 -0.912 42
17.245001 -0.61699998 -1.732 10
19.599001 -0.708 -1.6799999 14
22.834 -0.83399999 -1.623 17
27.018999 -0.99800003 -1.526 8
33.061001 -1.235 -1.387 4
41.541 -1.568 -1.142 11
16.452999 -0.65700001 -1.748 10
18.6 -0.74900001 -1.702 12
21.469999 -0.87300003 -1.65 16
25.326 -1.038 -1.576 11
30.362 -1.258 -1.449 5
39.782001 -1.663 -1.322 4
15.727 -0.69400001 -1.76 9
17.687 -0.78600001 -1.719 11
20.297001 -0.90899998 -1.675 15
23.604 -1.066 -1.603 14
28.546 -1.3 -1.522 8
34.591 -1.59 -1.346 3
15.041 -0.72799999 -1.7690001 9
16.9 -0.82300001 -1.738 10
19.257 -0.94499999 -1.697 13
22.294001 -1.102 -1.6390001 17
26.375999 -1.314 -1.556 10
31.903999 -1.602 -1.421 6
14.411 -0.76099998 -1.775 10
16.143 -0.85799998 -1.751 9
18.299 -0.97899997 -1.716 12
21.063999 -1.1339999 -1.6670001 16
24.771 -1.3430001 -1.599 13
29.558001 -1.612 -1.48 7
13.843 -0.79400003 -1.783 10
15.438 -0.88999999 -1.76 9
17.434999 -1.01 -1.73 11
19.945999 -1.163 -1.688 14
23.207001 -1.3609999 -1.626 13
27.862 -1.6440001 -1.5470001 11
13.345 -0.82599998 -1.7920001 10
14.801 -0.921 -1.768 9
16.711 -1.045 -1.75 10
18.948999 -1.191 -1.707 13
21.881001 -1.383 -1.652 17
25.792999 -1.6390001 -1.573 11
12.835 -0.85500002 -1.794 10
14.211 -0.95099998 -1.775 10
15.977 -1.074 -1.7589999 9
18.065001 -1.22 -1.725 12
20.766001 -1.409 -1.679 15
24.226999 -1.652 -1.607 11
12.414 -0.88700002 -1.802 10
13.7 -0.98199999 -1.785 10
15.324 -1.103 -1.77 10
17.271999 -1.248 -1.7410001 11
19.75 -1.433 -1.701 14
22.860001 -1.6670001 -1.637 16
12.022 -0.917 -1.809 10
13.221 -1.013 -1.7920001 10
14.733 -1.132 -1.778 10
16.575001 -1.278 -1.757 10
18.768999 -1.4529999 -1.715 13
21.589001 -1.678 -1.658 17
11.624 -0.94499999 -1.811 10
12.762 -1.04 -1.796 10
14.176 -1.159 -1.785 11
15.897 -1.304 -1.767 9
17.962 -1.479 -1.733 12
20.555 -1.698 -1.684 15
11.275 -0.97399998 -1.8150001 11
12.348 -1.069 -1.802 10
13.646 -1.1849999 -1.789 11
15.279 -1.33 -1.777 8
17.208 -1.503 -1.748 11
19.584999 -1.716 -1.704 14
10.949 -1.003 -1.819 11
11.964 -1.098 -1.808 10
13.192 -1.2130001 -1.7970001 10
14.697 -1.355 -1.783 11
16.527 -1.528 -1.762 10
18.704 -1.735 -1.721 12
10.67 -1.033 -1.826 10
11.61 -1.126 -1.812 11
12.776 -1.2410001 -1.803 11
14.15 -1.378 -1.7869999 10
15.846 -1.5470001 -1.768 9
17.902 -1.753 -1.7359999 11
10.39 -1.061 -1.831 12
11.269 -1.153 -1.8150001 10
12.377 -1.268 -1.808 10
13.684 -1.405 -1.795 10
15.3 -1.574 -1.781 11
17.165001 -1.77 -1.7460001 10
10.128 -1.09 -1.834 11
10.968 -1.181 -1.821 12
12.014 -1.296 -1.814 10
13.26 -1.432 -1.804 11
14.75 -1.597 -1.788 11
16.555 -1.796 -1.7640001 10
9.8929996 -1.119 -1.84 12
10.681 -1.209 -1.825 12
11.676 -1.323 -1.818 11
12.855 -1.459 -1.809 10
14.237 -1.619 -1.793 10
15.94 -1.816 -1.773 11
9.6599998 -1.147 -1.844 12
10.42 -1.238 -1.83 12
11.342 -1.349 -1.8200001 13
12.443 -1.482 -1.8099999 11
13.784 -1.6440001 -1.8 11
15.397 -1.839 -1.784 10
9.4549999 -1.176 -1.849 11
10.179 -1.267 -1.836 12
11.059 -1.377 -1.826 13
12.116 -1.511 -1.819 11
13.366 -1.668 -1.807 11
14.864 -1.859 -1.79 11
9.2519999 -1.205 -1.853 11
9.9429998 -1.295 -1.839 11
10.795 -1.4069999 -1.832 12
11.778 -1.536 -1.821 11
12.981 -1.696 -1.814 11
14.347 -1.876 -1.7920001 11
9.0670004 -1.234 -1.858 11
9.7220001 -1.323 -1.8430001 10
10.525 -1.433 -1.834 12
11.47 -1.563 -1.825 11
12.59 -1.717 -1.8150001 10
13.927 -1.902 -1.801 11
8.8870001 -1.263 -1.862 11
9.5200005 -1.353 -1.847 10
10.291 -1.4630001 -1.84 12
11.184 -1.59 -1.829 11
12.273 -1.747 -1.823 11
13.538 -1.929 -1.8099999 11
8.7119999 -1.291 -1.864 11
9.3240004 -1.381 -1.851 11
10.068 -1.492 -1.844 11
10.917 -1.617 -1.8329999 12
11.949 -1.772 -1.826 11
13.144 -1.951 -1.813 11
8.5419998 -1.318 -1.865 10
9.1459999 -1.41 -1.855 11
9.8540001 -1.5190001 -1.847 11
10.673 -1.646 -1.8380001 12
11.657 -1.799 -1.831 11
12.809 -1.978 -1.8200001 11
8.3999996 -1.348 -1.8710001 10
8.9849997 -1.441 -1.8609999 11
9.6560001 -1.548 -1.85 11
10.437 -1.673 -1.84 11
11.371 -1.823 -1.832 12
12.483 -2.003 -1.824 11
8.2539997 -1.376 -1.873 10
8.8149996 -1.469 -1.863 10
9.4759998 -1.5779999 -1.855 12
10.235 -1.704 -1.847 11
11.118 -1.852 -1.837 10
12.176 -2.029 -1.8279999 11
8.1199999 -1.406 -1.877 10
8.658 -1.497 -1.865 10
9.302 -1.608 -1.859 11
10.023 -1.732 -1.849 11
10.879 -1.88 -1.841 11
11.897 -2.0569999 -1.8329999 11
7.9860001 -1.434 -1.8789999 10
8.5120001 -1.527 -1.868 10
9.1389999 -1.638 -1.863 11
9.8210001 -1.7589999 -1.85 11
10.658 -1.91 -1.845 12
11.623 -2.0829999 -1.836 11
7.8590002 -1.4630001 -1.881 10
8.3730001 -1.556 -1.8710001 10
8.9790001 -1.6670001 -1.8660001 11
9.6529999 -1.791 -1.8559999 11
10.442 -1.938 -1.847 11
11.358 -2.108 -1.836 9
7.7459998 -1.492 -1.8839999 10
8.2419996 -1.585 -1.874 10
8.8299999 -1.697 -1.869 12
9.4820004 -1.821 -1.859 12
10.25 -1.9680001 -1.851 12
11.137 -2.1389999 -1.842 11
7.6329999 -1.521 -1.887 10
8.125 -1.617 -1.878 10
8.6879997 -1.727 -1.8710001 12
9.3310003 -1.854 -1.864 12
10.052 -1.9960001 -1.853 11
10.926 -2.1700001 -1.847 12
7.5240002 -1.551 -1.8890001 10
7.9959998 -1.645 -1.8789999 10
8.5570002 -1.758 -1.875 11
9.1680002 -1.882 -1.865 12
9.875 -2.026 -1.855 11
10.723 -2.2 -1.849 12
7.4310002 -1.582 -1.893 10
7.8920002 -1.677 -1.8839999 10
8.4230003 -1.7869999 -1.876 11
9.0430002 -1.9170001 -1.8710001 12
9.7189999 -2.0599999 -1.86 11
10.527 -2.23 -1.852 11
7.3340001 -1.612 -1.895 10
7.7839999 -1.707 -1.886 10
8.309 -1.8200001 -1.88 11
8.9049997 -1.948 -1.874 12
9.5769997 -2.0940001 -1.865 12
10.357 -2.2639999 -1.857 12
7.2389998 -1.642 -1.897 10
7.6869998 -1.74 -1.8890001 11
8.2040005 -1.853 -1.8839999 11
8.7819996 -1.982 -1.878 12
9.4359999 -2.1270001 -1.869 11
10.173 -2.293 -1.857 11
7.1459999 -1.671 -1.898 10
7.5840001 -1.7690001 -1.89 10
8.085 -1.883 -1.8839999 11
8.6630001 -2.0150001 -1.88 11
9.3030005 -2.161 -1.873 11
10.029 -2.329 -1.862 11
7.0359998 -1.694 -1.893 11
7.487 -1.799 -1.891 10
8.0019999 -1.919 -1.891 11
8.5380001 -2.0450001 -1.881 11
9.1680002 -2.194 -1.874 11
9.882 -2.3629999 -1.8660001 11
6.9450002 -1.722 -1.892 10
7.4039998 -1.832 -1.895 10
7.9029999 -1.952 -1.893 11
8.4379997 -2.0810001 -1.886 11
9.0500002 -2.2290001 -1.878 12
9.7399998 -2.398 -1.868 11
6.902 -1.761 -1.903 9
7.322 -1.864 -1.897 10
7.796 -1.98 -1.892 10
8.3310003 -2.1129999 -1.887 11
8.9329996 -2.263 -1.88 11
9.6099997 -2.4330001 -1.8710001 11
6.7870002 -1.781 -1.893 11
7.2329998 -1.893 -1.896 10
7.7210002 -2.017 -1.897 11
8.2290001 -2.145 -1.888 11
8.8249998 -2.2969999 -1.883 11
9.4910002 -2.4690001 -1.875 12
6.7199998 -1.812 -1.895 11
7.165 -1.927 -1.9 10
7.6290002 -2.0469999 -1.897 10
8.1450005 -2.1819999 -1.892 11
8.7279997 -2.335 -1.886 11
9.3769999 -2.506 -1.878 11
6.6500001 -1.8430001 -1.895 11
7.1059999 -1.9630001 -1.905 10
7.5419998 -2.079 -1.897 10
8.0500002 -2.214 -1.892 11
8.6339998 -2.372 -1.89 11
9.2729998 -2.5450001 -1.881 11
6.5939999 -1.876 -1.898 11
7.0209999 -1.992 -1.903 9
7.4790001 -2.1170001 -1.902 10
7.9749999 -2.2520001 -1.896 11
8.5419998 -2.4089999 -1.892 11
9.1709995 -2.5829999 -1.8839999 11
6.5310001 -1.9069999 -1.899 10
6.927 -2.016 -1.896 11
7.4089999 -2.151 -1.904 10
7.9000001 -2.289 -1.899 11
8.4449997 -2.444 -1.892 11
9.0740004 -2.622 -1.887 12
6.4689999 -1.937 -1.899 11
6.8639998 -2.049 -1.897 10
7.3369999 -2.1849999 -1.905 10
7.823 -2.325 -1.9 10
8.3660002 -2.4820001 -1.895 11
8.9840002 -2.6619999 -1.8890001 11
6.4130001 -1.969 -1.9 11
6.835 -2.092 -1.9069999 9
7.2740002 -2.22 -1.906 10
7.7480001 -2.3599999 -1.901 10
8.2910004 -2.5209999 -1.897 11
8.901 -2.7030001 -1.892 11
6.3579998 -2.0009999 -1.9 10
6.75 -2.1170001 -1.901 11
7.21 -2.2550001 -1.9069999 10
7.6799998 -2.3970001 -1.902 10
8.2259998 -2.562 -1.901 11
8.8210001 -2.744 -1.895 12
6.3189998 -2.0369999 -1.905 11
6.6950002 -2.151 -1.901 11
7.152 -2.2909999 -1.908 10
7.6149998 -2.4330001 -1.903 10
8.1569996 -2.602 -1.903 11
8.7489996 -2.786 -1.898 12
6.27 -2.069 -1.905 11
6.6389999 -2.1830001 -1.901 10
7.1009998 -2.3280001 -1.911 10
7.5549998 -2.471 -1.905 10
8.0930004 -2.642 -1.905 11
8.684 -2.8310001 -1.901 11
6.23 -2.1040001 -1.908 11
6.5890002 -2.2179999 -1.902 10
7.0479999 -2.365 -1.9119999 10
7.5019999 -2.5109999 -1.9069999 10
8.0270004 -2.681 -1.905 10
8.6099997 -2.8710001 -1.901 11
6.1820002 -2.1359999 -1.9069999 10
6.5349998 -2.25 -1.9 10
7.0079999 -2.405 -1.916 10
7.4549999 -2.552 -1.91 10
7.967 -2.721 -1.906 10
8.5450001 -2.914 -1.902 11
6.1469998 -2.1719999 -1.909 10
6.5029998 -2.289 -1.904 10
6.9499998 -2.438 -1.913 9
7.4050002 -2.5910001 -1.911 10
7.9169998 -2.7639999 -1.909 10
8.493 -2.96 -1.905 10
6.105 -2.2049999 -1.909 11
6.4559999 -2.323 -1.903 10
6.9190001 -2.4809999 -1.918 10
7.3590002 -2.631 -1.9119999 10
7.8639998 -2.8050001 -1.909 11
8.4429998 -3.006 -1.908 11
6.0780001 -2.2420001 -1.9119999 11
6.4169998 -2.358 -1.903 10
6.8730001 -2.517 -1.9170001 9
7.3119998 -2.6700001 -1.9119999 10
7.8260002 -2.8510001 -1.913 10
8.3850002 -3.049 -1.9069999 11
6.0359998 -2.2739999 -1.911 10
6.388 -2.3970001 -1.906 10
6.8330002 -2.5550001 -1.918 9
7.276 -2.7130001 -1.914 10
7.7789998 -2.8929999 -1.913 10
8.349 -3.099 -1.911 11
5.9980001 -2.3069999 -1.909 10
6.3499999 -2.4330001 -1.906 11
6.8049998 -2.5969999 -1.921 9
7.243 -2.756 -1.9170001 10
7.737 -2.937 -1.913 10
8.3030005 -3.145 -1.911 11
5.9710002 -2.3440001 -1.911 10
6.323 -2.4719999 -1.908 11
6.7729998 -2.638 -1.9220001 9
7.1989999 -2.7950001 -1.915 9
7.7129998 -2.987 -1.9170001 10
8.2650003 -3.1949999 -1.913 10
5.947 -2.382 -1.913 10
6.2940001 -2.51 -1.909 10
6.75 -2.6819999 -1.925 10
7.1799998 -2.8440001 -1.92 10
7.677 -3.033 -1.918 10
8.2340002 -3.2449999 -1.915 10
5.9219999 -2.4189999 -1.914 9
6.276 -2.552 -1.9119999 9
6.723 -2.724 -1.926 9
7.1599998 -2.891 -1.923 10
7.6420002 -3.0769999 -1.918 10
8.1999998 -3.2939999 -1.916 10
5.8979998 -2.4549999 -1.914 10
6.2480001 -2.5899999 -1.9119999 10
6.6900001 -2.7620001 -1.924 9
7.1279998 -2.9330001 -1.9220001 10
7.6170001 -3.125 -1.92 10
8.1730003 -3.346 -1.9170001 10
5.8740001 -2.4920001 -1.914 10
6.2719998 -2.6489999 -1.927 8
6.6539998 -2.799 -1.9220001 9
7.0970001 -2.9749999 -1.921 10
7.598 -3.1760001 -1.9220001 9
8.1549997 -3.4000001 -1.919 10
5.862 -2.533 -1.9170001 10
6.2010002 -2.6670001 -1.9119999 11
6.6459999 -2.8469999 -1.926 9
7.0689998 -3.0179999 -1.92 9
7.5739999 -3.223 -1.9220001 10
8.1409998 -3.4560001 -1.9220001 10
5.8460002 -2.572 -1.918 10
6.1989999 -2.714 -1.9170001 11
6.6170001 -2.885 -1.923 9
7.0570002 -3.0669999 -1.923 9
7.5630002 -3.277 -1.925 9
8.1169996 -3.5079999 -1.9220001 9
5.8260002 -2.609 -1.918 10
6.178 -2.7539999 -1.916 9
6.6079998 -2.9330001 -1.926 9
7.052 -3.118 -1.926 9
7.5469999 -3.3269999 -1.925 9
8.1110001 -3.566 -1.925 9
5.8150001 -2.6500001 -1.92 10
6.1659999 -2.796 -1.918 10
6.599 -2.9790001 -1.929 9
7.0359998 -3.165 -1.926 10
7.5419998 -3.382 -1.928 9
8.1009998 -3.6229999 -1.925 10
5.8039999 -2.6900001 -1.92 10
6.1550002 -2.839 -1.919 10
6.5869999 -3.0250001 -1.929 9
7.026 -3.214 -1.927 9
7.5380001 -3.437 -1.9299999 9
8.099 -3.6819999 -1.928 10
5.7979999 -2.733 -1.923 9
6.1490002 -2.8840001 -1.92 10
6.5890002 -3.076 -1.932 9
7.0159998 -3.263 -1.927 9
7.5370002 -3.493 -1.931 9
8.0970001 -3.7420001 -1.929 10
5.7820001 -2.77 -1.921 10
6.1409998 -2.927 -1.921 11
6.5910001 -3.1270001 -1.936 9
7.0209999 -3.3180001 -1.9299999 9
7.5279999 -3.5450001 -1.931 9
8.0959997 -3.802 -1.929 10
5.7870002 -2.8169999 -1.925 10
6.1300001 -2.9679999 -1.92 10
6.579 -3.171 -1.934 9
7.0190001 -3.369 -1.931 9
7.5320001 -3.6029999 -1.933 9
8.1049995 -3.8659999 -1.932 10
5.783 -2.8599999 -1.926 9
6.1259999 -3.013 -1.92 9
6.5669999 -3.214 -1.932 9
7.0159998 -3.4200001 -1.931 8
7.5380001 -3.661 -1.934 10
8.1110001 -3.928 -1.932 10
5.776 -2.9000001 -1.926 9
6.1690001 -3.0799999 -1.9349999 9
6.5700002 -3.2650001 -1.933 8
7.0300002 -3.4779999 -1.934 9
7.546 -3.72 -1.9349999 9
8.1219997 -3.9920001 -1.933 10
5.776 -2.9430001 -1.926 9
6.1830001 -3.1329999 -1.939 9
6.5760002 -3.316 -1.934 9
7.0320001 -3.5309999 -1.934 9
7.5549998 -3.78 -1.9349999 10
8.1359997 -4.0580001 -1.934 10
5.7750001 -2.9860001 -1.926 10
6.1810002 -3.178 -1.938 9
6.5830002 -3.368 -1.9349999 9
7.0450001 -3.5880001 -1.9349999 9
7.5710001 -3.842 -1.937 9
8.1619997 -4.1290002 -1.937 9
5.7800002 -3.0320001 -1.927 9
6.1760001 -3.221 -1.936 9
6.5929999 -3.421 -1.937 9
7.0609999 -3.6470001 -1.938 9
7.5890002 -3.905 -1.938 10
8.184 -4.198 -1.937 9
5.7950001 -3.082 -1.931 10
6.2030001 -3.279 -1.942 9
6.598 -3.471 -1.936 8
7.072 -3.7030001 -1.938 9
7.6129999 -3.971 -1.9400001 9
8.2089996 -4.2680001 -1.938 10
5.7969999 -3.125 -1.9299999 10
6.2010002 -3.323 -1.939 9
6.6100001 -3.5239999 -1.936 9
7.098 -3.767 -1.9400001 9
7.6370001 -4.0370002 -1.942 9
8.2410002 -4.342 -1.939 9
5.809 -3.1730001 -1.932 10
6.2189999 -3.3770001 -1.942 9
6.6360002 -3.5840001 -1.9400001 9
7.1170001 -3.826 -1.941 9
7.6659999 -4.105 -1.943 9
8.2779999 -4.4180002 -1.941 10
5.8150001 -3.2179999 -1.931 9
6.2319999 -3.428 -1.942 9
6.6570001 -3.642 -1.941 9
7.1440001 -3.8900001 -1.942 9
7.698 -4.1739998 -1.944 9
8.3120003 -4.4910002 -1.941 9
5.835 -3.2690001 -1.934 9
6.244 -3.4760001 -1.941 9
6.671 -3.694 -1.9400001 9
7.165 -3.9489999 -1.942 8
7.7220001 -4.2379999 -1.942 8
8.3509998 -4.5669999 -1.941 9
5.8699999 -3.329 -1.941 7
6.2649999 -3.5309999 -1.943 9
6.7030001 -3.757 -1.943 9
7.2030001 -4.0170002 -1.9450001 9
7.7670002 -4.3140001 -1.9450001 9
8.4040003 -4.651 -1.943 8
5.8639998 -3.365 -1.934 9
6.2800002 -3.5810001 -1.941 9
6.7309999 -3.8169999 -1.944 9
7.2389998 -4.0840001 -1.946 9
7.8140001 -4.3899999 -1.947 9
8.4540005 -4.7319999 -1.944 10
5.921 -3.4360001 -1.947 8
6.3109999 -3.6389999 -1.944 9
6.757 -3.8740001 -1.944 8
7.2680001 -4.1459999 -1.9450001 9
7.8470001 -4.4580002 -1.9450001 9
8.5129995 -4.8189998 -1.9450001 8
5.902 -3.4630001 -1.934 9
6.3330002 -3.6930001 -1.943 9
6.7870002 -3.934 -1.943 9
7.3070002 -4.2140002 -1.9450001 9
7.9050002 -4.54 -1.948 9
8.5649996 -4.9000001 -1.9450001 9
5.9320002 -3.5190001 -1.937 9
6.3610001 -3.7490001 -1.944 9
6.8299999 -4.0009999 -1.946 9
7.3499999 -4.2839999 -1.946 9
7.9549999 -4.6160002 -1.948 9
8.6389999 -4.994 -1.947 9
5.9889998 -3.589 -1.948 9
6.3930001 -3.806 -1.944 9
6.868 -4.0650001 -1.947 9
7.4060001 -4.3610001 -1.949 8
8.0159998 -4.698 -1.95 9
8.7189999 -5.0910001 -1.95 9
6.0110002 -3.6389999 -1.946 8
6.4289999 -3.865 -1.9450001 9
6.9120002 -4.131 -1.948 8
7.4549999 -4.4320002 -1.949 8
8.0769997 -4.7810001 -1.95 9
8.8000002 -5.1880002 -1.952 9
6.0419998 -3.6930001 -1.946 8
6.4679999 -3.9260001 -1.946 8
6.9619999 -4.2010002 -1.95 8
7.5209999 -4.5139999 -1.9529999 8
8.1459999 -4.8660002 -1.952 8
8.8879995 -5.289 -1.954 8
6.0770001 -3.7479999 -1.947 8
6.5089998 -3.987 -1.947 8
7.0159998 -4.2719998 -1.952 8
7.5780001 -4.5890002 -1.9529999 8
8.2159996 -4.9530001 -1.9529999 8
8.9829998 -5.3940001 -1.957 8
6.1160002 -3.806 -1.948 8
6.5500002 -4.0479999 -1.947 8
7.0619998 -4.3369999 -1.951 8
7.6389999 -4.6669998 -1.9529999 8
8.3030005 -5.0489998 -1.955 8
9.0780001 -5.4980001 -1.957 8
6.158 -3.865 -1.95 8
6.5960002 -4.1110001 -1.947 8
7.1240001 -4.4120002 -1.9529999 8
7.7140002 -4.7519999 -1.956 8
8.3830004 -5.1399999 -1.956 8
9.1789999 -5.605 -1.959 8
6.1950002 -3.9200001 -1.948 8
6.6560001 -4.1820002 -1.951 8
7.1830001 -4.4850001 -1.9529999 8
7.7870002 -4.835 -1.957 8
8.4720001 -5.2360001 -1.957 8
9.2950001 -5.7210002 -1.961 8
6.2449999 -3.9820001 -1.951 8
6.7069998 -4.2459998 -1.95 8
7.2480001 -4.5599999 -1.954 8
7.8579998 -4.9169998 -1.956 8
8.5790005 -5.342 -1.96 7
9.4090004 -5.8340001 -1.962 8
6.3000002 -4.0469999 -1.9529999 7
6.7750001 -4.3210001 -1.954 8
7.3249998 -4.6420002 -1.957 8
7.948 -5.0089998 -1.959 8
8.6689997 -5.4369998 -1.959 7
9.54 -5.9580002 -1.964 8
6.3520002 -4.1090002 -1.954 8
6.8309999 -4.3870001 -1.9529999 8
7.3959999 -4.7199998 -1.957 8
8.0369997 -5.0999999 -1.96 8
8.7860003 -5.5479999 -1.962 8
9.6750002 -6.0830002 -1.966 8
6.4120002 -4.1750002 -1.956 8
6.9029999 -4.4629998 -1.955 8
7.4819999 -4.8060002 -1.961 9
8.1339998 -5.1950002 -1.962 8
8.8979998 -5.6550002 -1.9630001 8
9.8369999 -6.2249999 -1.972 7
6.474 -4.2420001 -1.957 8
6.9749999 -4.5370002 -1.957 8
7.5650001 -4.8889999 -1.961 9
8.2360001 -5.2919998 -1.9630001 8
9.0450001 -5.783 -1.97 7
9.9940004 -6.362 -1.975 8
6.5370002 -4.3080001 -1.9579999 8
7.0430002 -4.6079998 -1.957 8
7.6539998 -4.9749999 -1.9630001 8
8.335 -5.3860002 -1.962 7
9.1689997 -5.8959999 -1.969 8
10.158 -6.5029998 -1.976 7
6.5999999 -4.3730001 -1.957 8
7.1279998 -4.6880002 -1.9579999 8
7.744 -5.0599999 -1.962 8
8.4469995 -5.4879999 -1.9630001 8
9.3009996 -6.0120001 -1.97 7
10.336 -6.652 -1.979 7
6.6750002 -4.4450002 -1.96 8
7.2150002 -4.7690001 -1.961 8
7.8379998 -5.1479998 -1.961 8
8.5740004 -5.598 -1.966 7
9.4490004 -6.138 -1.971 7
10.517 -6.802 -1.98 7
6.75 -4.5159998 -1.96 7
7.296 -4.8449998 -1.96 8
7.9549999 -5.2480001 -1.966 7
8.7089996 -5.7119999 -1.969 7
9.6029997 -6.2659998 -1.972 7
10.707 -6.9559999 -1.9809999 6
6.8319998 -4.5900002 -1.962 8
7.3930001 -4.9310002 -1.961 8
8.0670004 -5.3439999 -1.967 7
8.8450003 -5.8260002 -1.971 7
9.7950001 -6.4180002 -1.979 7
10.906 -7.1139998 -1.9809999 6
6.9169998 -4.665 -1.964 8
7.4899998 -5.0139999 -1.962 8
8.184 -5.4429998 -1.9680001 7
8.9849997 -5.9400001 -1.971 7
9.9870005 -6.5689998 -1.984 7
11.127 -7.2859998 -1.983 6
7.0089998 -4.744 -1.965 8
7.5970001 -5.1030002 -1.964 8
8.3149996 -5.5479999 -1.971 7
9.1520004 -6.0710001 -1.976 7
10.161 -6.7049999 -1.983 7
11.344 -7.4530001 -1.982 6
7.0939999 -4.816 -1.964 8
7.6989999 -5.1880002 -1.9630001 7
8.4460001 -5.6529999 -1.972 7
9.2959995 -6.1849999 -1.974 7
10.369 -6.8629999 -1.9859999 6
11.571 -7.625 -1.98 6
7.211 -4.9089999 -1.97 8
7.8280001 -5.289 -1.967 8
8.5839996 -5.7610002 -1.972 7
9.4720001 -6.3189998 -1.976 7
10.575 -7.0180001 -1.9859999 5
11.845 -7.8260002 -1.982 7
7.309 -4.987 -1.969 8
7.947 -5.382 -1.967 7
8.7349997 -5.8759999 -1.974 7
9.6689997 -6.4650002 -1.98 7
10.79 -7.177 -1.985 5
12.107 -8.0170002 -1.98 7
7.4159999 -5.0689998 -1.969 7
8.0740004 -5.4780002 -1.967 7
8.8929996 -5.993 -1.975 7
9.8760004 -6.6160002 -1.985 7
11.011 -7.3369999 -1.984 6
12.398 -8.224 -1.98 7
7.5300002 -5.1550002 -1.97 8
8.2119999 -5.5799999 -1.9680001 7
9.0670004 -6.119 -1.979 8
10.095 -6.7729998 -1.989 7
11.287 -7.533 -1.989 6
12.727 -8.4549999 -1.983 7
7.6490002 -5.2420001 -1.97 8
8.3509998 -5.6810002 -1.9680001 7
9.2320004 -6.2379999 -1.978 7
10.299 -6.9169998 -1.989 5
11.538 -7.7080002 -1.988 6
13.06 -8.6850004 -1.984 8
7.7750001 -5.3319998 -1.97 7
8.5129995 -5.7950001 -1.972 7
9.4160004 -6.3660002 -1.979 7
10.527 -7.0749998 -1.99 5
11.781 -7.8759999 -1.982 7
13.414 -8.927 -1.983 8
7.9109998 -5.427 -1.972 7
8.6719999 -5.9050002 -1.973 7
9.6239996 -6.5089998 -1.983 7
10.761 -7.2340002 -1.99 6
12.097 -8.0900002 -1.9859999 7
13.823 -9.2019997 -1.987 9
8.052 -5.5240002 -1.973 7
8.8579998 -6.0310001 -1.977 7
9.8529997 -6.6630001 -1.988 7
11.001 -7.3959999 -1.988 6
12.414 -8.3009996 -1.9859999 8
14.261 -9.4940004 -1.9910001 10
8.1969995 -5.6209998 -1.973 7
9.0310001 -6.1459999 -1.977 7
10.066 -6.8039999 -1.988 7
11.275 -7.5770001 -1.99 6
12.738 -8.5150003 -1.984 8
14.751 -9.816 -1.9960001 10
8.3570004 -5.7249999 -1.974 7
9.2200003 -6.27 -1.978 7
10.3 -6.9569998 -1.99 7
11.536 -7.7459998 -1.987 7
13.123 -8.7650003 -1.988 8
15.438 -10.265 -2.0239999 25
8.5290003 -5.836 -1.977 7
9.4219999 -6.3990002 -1.98 7
10.541 -7.1110001 -1.99 5
11.848 -7.9460001 -1.988 7
13.514 -9.0159998 -1.988 9
15.714 -10.437 -1.992 39
8.7060003 -5.947 -1.978 7
9.6350002 -6.533 -1.9809999 7
10.789 -7.2670002 -1.989 6
12.15 -8.1359997 -1.9859999 7
13.963 -9.3009996 -1.993 10
16.271999 -10.791 -1.992 14
8.8979998 -6.0669999 -1.9809999 7
9.8699999 -6.6799998 -1.985 6
11.059 -7.4349999 -1.989 6
12.492 -8.349 -1.985 8
14.373 -9.5559998 -1.989 10
17.112 -11.326 -2.0190001 10
9.0930004 -6.1849999 -1.982 7
10.11 -6.8260002 -1.9859999 6
11.34 -7.6059999 -1.988 6
12.855 -8.5719995 -1.985 8
14.998 -9.9490004 -2.007 11
17.809999 -11.762 -2.0220001 9
9.2919998 -6.3039999 -1.982 7
10.365 -6.98 -1.988 4
11.658 -7.7989998 -1.99 7
13.233 -8.8000002 -1.984 9
15.647 -10.352 -2.0239999 37
18.568001 -12.231 -2.0250001 9
9.5080004 -6.4299998 -1.982 7
10.614 -7.125 -1.9859999 6
11.948 -7.9679999 -1.985 7
13.66 -9.0570002 -1.985 7
15.893 -10.484 -1.983 39
19.5 -12.806 -2.0380001 11
9.7440004 -6.566 -1.985 7
10.884 -7.2820001 -1.985 6
12.301 -8.1759996 -1.985 7
14.151 -9.3500004 -1.9910001 9
16.716999 -10.99 -2.0109999 13
20.016001 -13.101 -2.003 12
10.001 -6.7140002 -1.989 7
11.171 -7.4450002 -1.985 6
12.66 -8.3830004 -1.984 8
14.626 -9.6289997 -1.99 9
17.459 -11.436 -2.02 11
20.233999 -13.195 -1.932 13
10.252 -6.8540001 -1.99 7
11.473 -7.6149998 -1.984 6
13.031 -8.5930004 -1.9809999 8
15.264 -10.009 -2.007 12
18.162001 -11.849 -2.0179999 7
20.646 -13.411 -1.88 21
10.52 -7.0019999 -1.992 5
11.77 -7.7779999 -1.98 7
13.451 -8.8319998 -1.983 9
15.94 -10.405 -2.0220001 31
18.978001 -12.327 -2.023 8
21.174 -13.693 -1.832 24
10.788 -7.145 -1.989 6
12.111 -7.9640002 -1.979 7
13.924 -9.0979996 -1.9859999 10
16.25 -10.558 -1.985 42
20.018 -12.94 -2.0409999 11
21.625 -13.919 -1.772 19
11.073 -7.2950001 -1.988 6
12.45 -8.1450005 -1.974 8
14.427 -9.3780003 -1.989 9
16.966 -10.967 -1.994 14
20.566999 -13.228 -2.0020001 15
21.74 -13.922 -1.681 3
11.382 -7.4569998 -1.987 6
12.846 -8.3570004 -1.975 8
14.961 -9.6719999 -1.993 11
17.839001 -11.467 -2.013 8
20.813 -13.313 -1.929 16
22.896 -14.583 -1.666 21
11.694 -7.6160002 -1.984 7
13.286 -8.592 -1.978 9
15.581 -10.013 -2 12
18.674 -11.934 -2.0190001 8
21.232 -13.502 -1.869 22
22.856001 -14.473 -1.558 34
12.043 -7.7940001 -1.984 7
13.731 -8.8249998 -1.979 9
16.423 -10.489 -2.03 24
19.43 -12.341 -2.01 5
0 0 0 0
22.903999 -14.415 -1.4579999 56
12.395 -7.9689999 -1.9809999 7
14.22 -9.0799999 -1.98 9
16.785999 -10.652 -1.9960001 42
20.631001 -13.02 -2.0380001 8
22.916 -14.391 -1.807 47
22.952999 -14.355 -1.357 50
12.765 -8.151 -1.978 8
14.741 -9.3479996 -1.982 10
17.136999 -10.801 -1.9579999 15
21.306999 -13.355 -2.0079999 14
22.993 -14.343 -1.709 35
28.101999 -17.457001 -1.536 8
13.191 -8.3620005 -1.98 8
15.318 -9.6440001 -1.9859999 10
18.285 -11.443 -2.0020001 8
21.68 -13.493 -1.9400001 15
27.541 -17.056999 -1.921 23
28.382999 -17.507 -1.423 5
13.618 -8.5670004 -1.978 8
15.934 -9.9569998 -1.99 10
19.096001 -11.86 -2.0009999 7
22.139 -13.676 -1.88 16
27.841 -17.115999 -1.8150001 33
28.038 -17.166 -1.279 80
14.116 -8.8100004 -1.9809999 10
16.851999 -10.448 -2.0250001 15
20.007 -12.329 -2.0039999 5
23.256001 -14.254 -1.868 6
27.966 -17.059999 -1.698 58
28.042999 -17.035999 -1.155 91
14.642 -9.0640001 -1.984 10
17.436001 -10.722 -2.0109999 35
21.059 -12.872 -2.0109999 6
24.43 -14.854 -1.85 4
28.101 -17.003 -1.579 76
28.158001 -16.968 -1.035 66
15.186 -9.3199997 -1.985 11
17.825001 -10.867 -1.973 41
22.281 -13.504 -2.0239999 13
27.459999 -16.554001 -1.954 9
28.282 -16.971001 -1.462 64
66.707001 -39.862999 -2.161 6
15.81 -9.6169996 -1.9910001 9
18.284 -11.049 -1.938 16
22.792 -13.692 -1.965 13
27.957001 -16.705999 -1.863 31
0 0 0 0
64.696999 -38.327999 -1.8099999 4
16.481001 -9.9329996 -1.997 10
19.547001 -11.705 -1.982 4
23.292 -13.865 -1.903 13
28.232 -16.718 -1.756 38
46.884998 -27.635 -2.0090001 1
72.169998 -42.370998 -1.71 7
17.108999 -10.214 -1.993 8
20.487 -12.152 -1.982 4
23.959 -14.13 -1.849 6
28.451 -16.691 -1.6440001 17
0 0 0 0
81.542999 -47.426998 -1.581 17
17.955 -10.615 -2.0079999 15
21.5 -12.629 -1.982 5
25.216999 -14.727 -1.834 4
36.333 -21.110001 -1.941 3
63.043999 -36.463001 -2.158 3
81.966003 -47.221001 -1.2460001 11
18.767 -10.983 -2.0120001 32
22.719 -13.211 -1.993 5
27.950001 -16.16 -1.91 18
0 0 0 0
62.776001 -35.946999 -1.8839999 5
71.737 -40.916 -0.78899997 25
19.275 -11.163 -1.979 43
24.084999 -13.862 -2.0050001 10
28.069 -16.062 -1.795 1
0 0 0 0
63.123001 -35.776001 -1.631 5
62.844002 -35.48 -0.43700001 5
19.677999 -11.276 -1.933 23
24.917 -14.188 -1.965 13
32.632 -18.476999 -1.948 3
45.75 -25.774 -1.859 1
62.990002 -35.327 -1.365 75
63.009998 -35.200001 -0.177 8
20.540001 -11.641 -1.926 6
25.687 -14.466 -1.915 10
35.613998 -19.945 -1.974 13
61.282001 -34.146 -2.233 2
52.022999 -28.857 -0.91299999 8
93.612999 -51.726002 0.115 30
22.240999 -12.462 -1.987 4
29.41 -16.377001 -2.0639999 41
28.674999 -15.877 -1.4680001 8
52.09 -28.695999 -1.6799999 21
52.176998 -28.618 -0.704 40
93.999001 -51.356998 0.48899999 21
23.228001 -12.862 -1.973 5
28.441999 -15.654 -1.875 24
0 0 0 0
28.785999 -15.677 -0.81400001 62
72.530998 -39.326 -0.69300002 27
0 0 0 0
24.552 -13.435 -1.983 5
31.6 -17.186001 -1.9529999 8
28.823999 -15.591 -1.239 25
28.735001 -15.467 -0.69800001 27
29.02 -15.551 -0.164 2
89.356003 -47.701 1.151 13
25.655001 -13.868 -1.964 4
28.669001 -15.405 -1.655 37
28.823999 -15.403 -1.123 24
28.889999 -15.361 -0.588 31
0 0 0 0
89.065002 -46.967999 1.485 28
28.794001 -15.371 -2.086 15
29.055 -15.417 -1.559 23
28.983999 -15.294 -1.013 36
75.623001 -39.708 -1.247 31
0 0 0 0
89.123001 -46.417 1.814 22
0 0 0 0
28.931 -15.155 -1.439 17
28.879999 -15.046 -0.89999998 86
75.654999 -39.223 -0.95999998 13
0 0 0 0
59.599998 -30.65 1.431 46
30.025999 -15.616 -1.932 4
28.797001 -14.887 -1.319 5
28.833 -14.826 -0.78899997 87
59.608002 -30.500999 -0.53600001 50
59.787998 -30.462 0.55500001 17
59.876999 -30.392 1.649 23
28.948 -14.854 -1.75 2
29.014999 -14.801 -1.219 43
29.063 -14.746 -0.68699998 31
136.819 -69.081001 -0.73000002 17
0 0 0 0
89.413002 -44.778999 2.773 20
33.313 -16.860001 -1.887 3
29.004 -14.592 -1.11 109
29.141001 -14.582 -0.58200002 7
139.59599 -69.521004 -0.25 32
89.703003 -44.480999 1.469 17
84.522003 -41.752998 2.915 26
29.219999 -14.581 -1.544 61
29.174999 -14.471 -1.0089999 107
29.285999 -14.448 -0.479 2
107.817 -52.936001 0.189 10
86.82 -42.446999 1.719 12
84.640999 -41.228001 3.1989999 28
29.290001 -14.406 -1.4400001 58
29.318001 -14.335 -0.90799999 98
63.102001 -30.693001 -0.815 14
0 0 0 0
87.008003 -41.931999 2.0109999 12
84.289001 -40.466999 3.4619999 28
29.325001 -14.212 -1.3380001 101
29.43 -14.179 -0.81 35
63.404999 -30.386 -0.60100001 11
0 0 0 0
83.101997 -39.472 2.1889999 14
82.783997 -39.172001 3.6619999 29
29.441 -14.056 -1.239 17
62.907001 -29.856001 -1.518 34
70.323997 -33.199001 -0.43399999 37
0 0 0 0
83.501999 -39.066002 2.4660001 26
56.443001 -26.309 2.6700001 18
47.073002 -22.129999 -1.821 2
63.223999 -29.554001 -1.316 34
70.488998 -32.775002 -0.208 25
84.125 -38.928001 1.25 11
56.414001 -25.995001 1.839 9
83.473999 -38.319 4.2030001 27
52.349998 -24.229 -1.85 1
56.070999 -25.801001 -0.986 2
56.175999 -25.709999 0.012 44
56.247002 -25.622 1.007 26
0 0 0 0
83.697998 -37.821999 4.4580002 36
55.743 -25.388 -1.79 16
56.248001 -25.469999 -0.80900002 53
76.271004 -34.358002 0.249 7
86.963997 -38.979 1.8200001 12
56.418999 -25.181999 2.1730001 21
83.773003 -37.248001 4.7010002 27
56.132 -25.146 -1.625 29
62.255001 -27.728001 -0.70300001 38
86.889 -38.5 0.54400003 5
86.606003 -38.186001 2.062 16
84.475998 -37.087002 3.494 24
51.685001 -22.604 3.0439999 6
62.578999 -27.565001 -1.619 27
62.508999 -27.379 -0.52200001 28
106.631 -46.457001 0.97799999 17
85.322998 -36.994999 2.276 6
54.492001 -23.527 2.404 74
51.938999 -22.339001 3.1989999 44
61.511002 -26.634001 -1.41 21
54.48 -23.454 -0.29699999 9
54.547001 -23.358 0.65399998 45
85.329002 -36.368999 2.507 22
85.471001 -36.276001 3.9960001 21
85.018997 -35.945 5.454 32
61.307999 -26.091999 -1.23 31
73.376999 -31.048 -0.19599999 37
94.032997 -39.574001 1.3839999 7
52.546001 -22.01 1.683 62
52.604 -21.941 2.595 17
85.628998 -35.573002 5.7049999 29
61.580002 -25.740999 -1.064 29
0 0 0 0
52.769001 -21.819 0.91000003 56
52.880001 -21.757 1.827 68
52.924999 -21.683001 2.7409999 10
52.942001 -21.606001 3.655 39
60.026001 -24.643 -0.87699997 38
0 0 0 0
52.977001 -21.509001 1.05 59
53.115002 -21.462999 1.965 71
87.069 -35.026001 4.7140002 22
0 0 0 0
53.105 -21.4 -0.63999999 7
53.198002 -21.311001 0.27200001 12
53.432999 -21.294001 1.188 67
53.546001 -21.235001 2.1070001 77
89.387001 -35.297001 5.046 22
0 0 0 0
57.957001 -22.913 -0.55299997 17
103.335 -40.625 0.77700001 16
52.223 -20.419001 1.281 7
60.638 -23.593 2.5220001 35
60.993 -23.629 3.575 38
61.438 -23.707001 4.6490002 13
52.327 -20.291 -0.37400001 68
52.334999 -20.176001 0.51499999 20
52.332001 -20.066999 1.404 46
52.132999 -19.895 2.2820001 27
60.551998 -23.004999 3.6789999 42
61.304001 -23.197001 4.763 47
35.866001 -13.635 -0.175 16
60.594002 -22.900999 0.72899997 10
60.724998 -22.827 1.757 28
60.752998 -22.726999 2.7839999 42
51.764999 -19.278 3.2479999 21
50.641998 -18.785999 4.033 5
55.219002 -20.570999 -0.146 17
97.82 -36.231998 1.3839999 14
60.401001 -22.252001 1.868 28
60.243999 -22.083 2.878 42
60.959 -22.243999 3.9389999 33
61.460999 -22.339001 5.007 31
62.618 -22.851999 -0.037999999 8
61.417 -22.278999 0.99299997 10
60.356998 -21.778 1.9859999 42
60.516998 -21.73 3.0050001 48
61.078999 -21.830999 4.059 46
61.640999 -21.944 5.1300001 7
88.288002 -31.549999 0.121 14
61.349998 -21.791 1.1059999 48
60.52 -21.378 2.102 40
60.727001 -21.346001 3.122 30
62.284 -21.792999 4.244 41
0 0 0 0
0 0 0 0
61.563 -21.395 1.221 47
61.903999 -21.398001 2.256 38
62.101002 -21.357 3.2969999 33
62.402 -21.360001 4.3530002 12
0 0 0 0
68.671997 -23.487 0.34400001 6
61.632999 -20.955999 1.327 12
57.245998 -19.356001 2.181 2
55.294998 -18.601 3.0239999 3
112.145 -37.542 7.9899998 30
47.417999 -15.806 4.1659999 10
69.190002 -23.131001 0.46200001 5
57.210999 -19.014 1.324 24
56.542 -18.686001 2.2409999 53
55.077999 -18.108 3.0929999 3
112.186 -36.702999 8.151 18
47.202999 -15.376 4.211 8
69.405998 -22.673 0.56999999 9
55.852001 -18.134001 1.376 38
48.243999 -15.575 1.9809999 4
47.944 -15.397 2.7579999 24
47.688999 -15.244 3.5280001 39
47.415001 -15.089 4.29 3
48.627998 -15.514 0.472 36
48.720001 -15.45 1.2690001 46
56.902 -17.945 2.4119999 38
48.852001 -15.324 2.872 7
115.001 -35.893002 8.6450005 48
0 0 0 0
56.546001 -17.611 0.62300003 8
56.061001 -17.351999 1.531 60
55.201 -16.99 2.4070001 3
54.523998 -16.691 3.2679999 23
114.642 -34.921001 8.7469997 19
49.241001 -14.933 4.5619998 13
56.904999 -17.291 0.699 42
56.055 -16.924 1.596 43
55.333 -16.611 2.474 34
61.342999 -18.315001 3.7409999 20
82.735001 -24.577999 6.3940001 7
51.362999 -15.188 4.8080001 4
60.977001 -18.063999 0.81699997 29
56.317001 -16.577999 1.665 39
61.054001 -17.868999 2.7920001 69
61.745998 -17.972 3.825 31
0 0 0 0
0 0 0 0
61.806 -17.84 0.88999999 27
57.796001 -16.575001 1.763 15
61.424999 -17.511 2.865 37
61.527 -17.445 3.8629999 7
82.511002 -23.273001 6.5170002 17
51.702 -14.513 4.9219999 14
62.515999 -17.566999 0.958 25
61.348999 -17.132999 1.926 49
61.108002 -16.962 2.901 59
69.773003 -19.254 4.4330001 40
70.57 -19.374001 5.6220002 4
82.819 -22.625999 7.9369998 7
62.726002 -17.149 1.0140001 40
61.480999 -16.702 1.976 27
61.290001 -16.547001 2.9519999 39
61.403 -16.48 3.941 17
72.146004 -19.261999 5.79 38
0 0 0 0
62.859001 -16.709999 1.059 13
63.597 -16.794001 2.085 8
61.243 -16.073999 2.9849999 12
61.321999 -16.003 3.9690001 3
71.649002 -18.596001 5.7859998 39
0 0 0 0
71.681999 -18.521 1.25 4
69.449997 -17.823 2.3139999 51
55.662998 -14.197 2.74 3
69.906998 -17.723 4.5560002 37
70.827003 -17.853001 5.7459998 42
46.096001 -11.561 4.4770002 21
70.174004 -17.603001 1.257 9
55.823002 -13.907 1.883 6
55.903 -13.836 2.773 43
70.042999 -17.233999 4.5869999 44
45.987 -11.253 3.744 14
72.352997 -17.607 7.0469999 32
69.57 -16.929001 1.271 13
0 0 0 0
56.172001 -13.483 2.8010001 29
45.735001 -10.912 3.0050001 13
71.128998 -16.872 5.803 38
44.992001 -10.614 4.3870001 34
57.214001 -13.493 1.061 10
56.244999 -13.168 1.927 59
69.599998 -16.184999 3.4820001 44
45.028999 -10.404 2.964 31
44.981998 -10.334 3.6730001 1
76.955002 -17.58 7.506 4
45.308998 -10.344 0.847 50
45.264999 -10.262 1.556 58
69.413002 -15.628 3.477 32
70.121002 -15.685 4.618 51
70.778999 -15.736 5.776 32
0 0 0 0
58.556 -12.933 1.096 19
56.567001 -12.401 1.944 67
56.553001 -12.311 2.8299999 5
46.514 -10.056 3.0569999 12
84.957001 -18.257 6.921 19
77.398003 -16.534 7.527 26
57.738998 -12.32 1.077 27
56.748001 -12.021 1.943 46
56.466999 -11.876 2.816 55
56.325001 -11.765 3.691 44
46.801998 -9.7150002 3.802 18
76.971001 -15.88 7.4650002 23
57.800999 -11.911 1.068 12
58.448002 -11.95 1.987 55
56.999001 -11.568 2.826 6
56.492001 -11.388 3.684 11
77.063004 -15.431 6.2329998 9
47.027 -9.3599997 4.5419998 14
0 0 0 0
58.415001 -11.516 1.9680001 54
72.470001 -14.176 3.5680001 31
0 0 0 0
77.808998 -15.009 6.257 4
77.024002 -14.765 7.4000001 6
48.541 -9.2860003 0.86199999 3
128.57401 -24.399 4.2729998 31
0 0 0 0
82.081001 -15.342 5.277 5
76.940002 -14.284 6.1459999 39
38.442001 -7.0869999 3.6700001 13
43.445999 -7.994 0.74900001 35
124.566 -22.73 4.0700002 34
126.634 -22.924 6.0970001 34
78.93 -14.18 5.0240002 30
76.980003 -13.729 6.0970001 8
38.636002 -6.8449998 3.6619999 12
43.200001 -7.6360002 0.71799999 46
100.072 -17.538 3.2049999 52
125.548 -21.823 5.9590001 32
79.995003 -13.799 5.0339999 24
81.858002 -14.012 6.4190001 16
70.683998 -12.012 6.6420002 8
79.371002 -13.45 1.261 31
87.606003 -14.719 2.737 19
92.263 -15.371 4.3039999 39
80.043999 -13.227 4.9699998 11
0 0 0 0
77.208 -12.569 7.1869998 20
100.035 -16.238001 1.506 27
88.165001 -14.182 2.6789999 53
79.206001 -12.634 3.6240001 10
68.085999 -10.769 4.164 3
68.288002 -10.717 5.2309999 38
77.416 -12.06 7.1290002 11
99.894997 -15.506 1.41 26
86.683998 -13.334 2.55 45
68.370003 -10.42 3.0580001 7
79.661003 -12.035 4.7870002 12
81.758003 -12.253 6.1739998 16
77.608002 -11.537 7.059 6
99.872002 -14.788 1.302 19
68.746002 -10.081 1.946 33
87.141998 -12.659 3.8 44
88.452003 -12.731 5.2119999 24
68.345001 -9.7539997 5.079 28
42.231998 -5.9770002 3.789 15
68.963997 -9.7209997 0.81699997 20
87.346001 -12.189 2.3659999 34
86.973999 -12.019 3.6849999 37
68.346001 -9.3559999 3.9419999 10
0 0 0 0
42.185001 -5.671 3.7290001 19
111.206 -14.877 1.173 22
87.263 -11.553 2.2479999 34
69.345001 -9.0880003 2.8440001 8
88.587997 -11.5 4.9879999 18
68.183998 -8.7670002 4.8839998 3
42.519001 -5.4190001 3.6989999 4
110.507 -14.006 1.01 33
87.484001 -10.968 2.128 18
91.18 -11.311 3.6059999 28
69.723 -8.5600004 3.822 9
41.959999 -5.1020002 2.9419999 39
69.867996 -8.4139996 5.9699998 31
77.227997 -9.2460003 0.58999997 12
122.221 -14.468 2.7869999 11
52.925999 -6.1939998 2.01 18
92.390999 -10.701 4.9169998 41
42.317001 -4.8499999 2.898 39
42.349998 -4.8060002 3.549 17
95.613998 -10.782 0.57499999 6
53.833 -5.9990001 1.1390001 5
42.271 -4.6560001 1.536 10
42.255001 -4.6009998 2.178 36
93.152 -10.033 6.2199998 31
92.342003 -9.8380003 7.5780001 40
42.153999 -4.46 0.17900001 78
42.172001 -4.408 0.81800002 93
42.200001 -4.3569999 1.4579999 52
53.248001 -5.4349999 2.6489999 35
90.726997 -9.1520004 5.895 48
91.665001 -9.1379995 7.3530002 47
95.181 -9.4200001 0.23 6
53.944 -5.2680001 0.94499999 46
53.577999 -5.165 1.75 53
53.229 -5.0669999 2.546 54
53.077 -4.9920001 3.3469999 45
91.287003 -8.4809999 7.1469998 36
85.582001 -7.8839998 0.041000001 5
0 0 0 0
53.896 -4.8340001 1.655 31
53.488998 -4.7329998 2.4530001 66
53.18 -4.6430001 3.247 25
52.945 -4.5599999 4.0370002 9
0 0 0 0
118.879 -10 1.604 8
0 0 0 0
53.588001 -4.3800001 2.3440001 20
54.062 -4.3559999 3.1849999 54
53.868999 -4.2820001 3.993 3
83.027 -6.5320001 -0.30899999 7
0 0 0 0
93.293999 -7.1139998 2.4660001 19
93.334999 -7.007 3.8789999 34
91.299004 -6.7529998 5.1789999 24
54.015999 -3.9330001 3.8829999 38
44.478001 -3.201 -0.26699999 10
0 0 0 0
98.288002 -6.835 2.3710001 7
113.554 -7.7649999 4.4549999 17
91.816002 -6.178 4.993 14
91.083 -6.027 6.3340001 31
44.526001 -2.908 -0.37400001 43
0 0 0 0
96.914001 -6.098 2.1040001 27
92.708 -5.7270002 3.4119999 15
92.190002 -5.5900002 4.7870002 24
91.349998 -5.4390001 6.1279998 28
44.696999 -2.6240001 -0.48699999 62
46.212002 -2.6570001 0.191 21
65.388 -3.687 1.256 22
65.422997 -3.612 2.2420001 38
66.515999 -3.598 3.2850001 9
92.496002 -4.902 5.9679999 28
44.657001 -2.326 -0.60299999 56
45.872002 -2.336 0.068999998 73
65.286003 -3.253 1.082 7
64.900002 -3.158 2.053 40
65.556999 -3.1170001 3.0639999 23
92.777 -4.3150001 5.7410002 38
46.148998 -2.1040001 -0.74900001 76
45.786999 -2.036 -0.054000001 74
83.624001 -3.6210001 1.1569999 9
64.958 -2.743 1.8789999 42
42.945 -1.766 1.89 1
42.341 -1.696 2.503 88
46.401001 -1.814 -0.88499999 34
42.248001 -1.605 -0.17 2
42.105 -1.553 0.463 94
42.087002 -1.508 1.098 101
42.110001 -1.4630001 1.734 30
41.775002 -1.408 2.352 12
42.124001 -1.38 -0.92500001 28
46.341 -1.4680001 -0.32100001 22
51.441002 -1.573 0.417 36
51.414001 -1.517 1.192 33
65.496002 -1.86 2.5039999 40
65.640999 -1.794 3.5009999 23
41.868 -1.104 -1.048 1
48.994999 -1.238 -0.49000001 3
51.542 -1.249 0.26100001 72
51.549 -1.194 1.0369999 94
65.745003 -1.4529999 2.3139999 30
65.751999 -1.387 3.3080001 9
41.671001 -0.83600003 -1.174 12
47.469002 -0.90100002 -0.62300003 32
63.084 -1.131 0.12 5
51.683998 -0.87400001 0.87800002 89
112.699 -1.788 3.6140001 29
115.161 -1.711 5.4320002 28
39.972 -0.55400002 -1.255 6
46.650002 -0.597 -0.76300001 38
61.001999 -0.71899998 -0.078000002 56
52.188999 -0.56099999 0.71899998 37
113.235 -1.096 3.2639999 32
113.763 -0.98799998 4.9980001 17
37.893002 -0.29100001 -1.317 1
46.098999 -0.30700001 -0.90700001 77
51.915001 -0.29300001 -0.23999999 54
53.098 -0.24699999 0.55500001 50
53.353001 -0.19499999 1.363 22
115.096 -0.30500001 4.677 17
0 0 0 0
43.067001 -0.027000001 -0.99400002 5
49.512001 0.016000001 -0.396 9
53.408001 0.071999997 0.377 13
53.445999 0.126 1.183 9
97.488998 0.32499999 3.632 20
32.618 0.14399999 -1.3609999 4
41.914001 0.227 -1.117 14
48.723999 0.31 -0.56199998 40
82.139 0.60299999 0.292 8
0 0 0 0
0 0 0 0
30.972 0.31999999 -1.404 6
40.193001 0.456 -1.216 6
46.823002 0.57700002 -0.70999998 52
53.574001 0.713 -0.003 16
98.153 1.403 1.474 22
96.100998 1.465 2.895 12
29.450001 0.48100001 -1.447 7
0 0 0 0
46.395 0.84600002 -0.87699997 76
51.861 0.99599999 -0.197 2
51.98 1.049 0.58700001 48
97.704002 2.0680001 2.5780001 12
27.955999 0.62099999 -1.4809999 8
33.762001 0.78200001 -1.278 4
43.062 1.04 -0.98000002 4
49.320999 1.238 -0.377 20
0 0 0 0
52.082001 1.405 1.176 38
26.691999 0.74900001 -1.52 10
31.997 0.92699999 -1.3380001 6
42.104 1.26 -1.123 15
46.939999 1.446 -0.54000002 18
79.513 2.5250001 0.28600001 13
52.195 1.709 0.97500002 48
25.348 0.85900003 -1.548 10
30.18 1.049 -1.3839999 6
40.299999 1.437 -1.238 4
46.917999 1.716 -0.73000002 50
52.327 1.961 -0.021 61
52.312 2.0090001 0.76899999 55
24.052 0.95099998 -1.568 13
28.559 1.154 -1.428 7
0 0 0 0
45.853001 1.934 -0.89999998 59
52.467999 2.2609999 -0.235 12
52.415001 2.3069999 0.55800003 4
22.905001 1.035 -1.591 17
27.136999 1.25 -1.472 9
33.076 1.552 -1.2920001 5
42.667999 2.04 -1.018 11
46.438999 2.26 -0.40200001 13
52.562 2.6059999 0.34 2
21.698 1.101 -1.602 16
25.698 1.326 -1.506 10
31.297001 1.64 -1.3559999 6
40.483002 2.158 -1.1390001 3
43.224998 2.3429999 -0.55900002 3
52.644001 2.9000001 0.116 4
20.747999 1.168 -1.626 15
24.441 1.396 -1.541 11
29.409 1.704 -1.405 7
36.851002 2.1659999 -1.199 1
43.034 2.5650001 -0.74400002 66
43.049999 2.608 -0.093000002 90
19.792999 1.223 -1.642 14
23.08 1.444 -1.5599999 14
27.716999 1.756 -1.449 7
33.574001 2.1559999 -1.244 3
42.668999 2.7750001 -0.93000001 38
43.120998 2.842 -0.28400001 30
18.923 1.272 -1.659 13
21.913 1.49 -1.584 16
26.253 1.8049999 -1.495 8
31.697001 2.2049999 -1.3200001 6
40.699001 2.865 -1.073 5
43.305 3.085 -0.48300001 3
18.148001 1.317 -1.678 12
20.84 1.528 -1.6059999 15
24.823 1.84 -1.5319999 11
29.735001 2.227 -1.3789999 6
0 0 0 0
46.355 3.5469999 -0.73299998 53
17.306999 1.348 -1.6849999 11
19.813999 1.557 -1.623 14
23.360001 1.854 -1.554 11
27.886 2.234 -1.426 6
0 0 0 0
42.664001 3.487 -0.87699997 1
16.556 1.376 -1.6950001 10
18.889 1.5829999 -1.641 13
22.128 1.87 -1.58 17
26.291 2.2420001 -1.473 7
31.816 2.7379999 -1.294 5
40.825001 3.546 -1.036 4
15.882 1.402 -1.707 11
18.091 1.609 -1.663 12
20.924999 1.875 -1.599 15
24.830999 2.244 -1.515 9
29.834 2.7190001 -1.3609999 6
0 0 0 0
15.26 1.424 -1.719 11
17.246 1.6210001 -1.674 11
19.912001 1.885 -1.623 14
23.400999 2.2320001 -1.546 12
27.865 2.678 -1.41 6
34.124001 3.306 -1.2029999 3
14.599 1.4349999 -1.722 12
16.466999 1.6289999 -1.684 10
18.931999 1.886 -1.641 13
22.076 2.214 -1.571 15
26.379 2.6659999 -1.471 7
31.792999 3.2360001 -1.2819999 6
14.012 1.447 -1.728 13
15.774 1.638 -1.697 12
18.049999 1.886 -1.66 12
20.900999 2.197 -1.596 16
