# .PCD v0.7 - Point Cloud Data file format
VERSION 0.7
FIELDS x y z intensity
SIZE 4 4 4 4
TYPE F F F F
COUNT 1 1 1 1
WIDTH 1712
HEIGHT 1
VIEWPOINT 0 0 0 1 0 0 0
POINTS 1712
DATA ascii
3.483 -0.69199997 -1.878 9
3.6489999 -0.72000003 -1.867 9
3.836 -0.75300002 -1.862 8
4.0539999 -0.792 -1.865 10
3.178 -0.64399999 -1.874 7
3.348 -0.67299998 -1.874 8
3.527 -0.70499998 -1.875 9
3.7079999 -0.736 -1.87 9
3.8959999 -0.76899999 -1.863 9
4.1149998 -0.80900002 -1.864 10
3.2249999 -0.65700001 -1.875 7
3.398 -0.68699998 -1.876 9
3.573 -0.71700001 -1.872 9
3.7550001 -0.74900001 -1.8660001 9
3.9560001 -0.78500003 -1.864 10
4.1739998 -0.82499999 -1.862 9
3.2720001 -0.66900003 -1.875 7
3.45 -0.69999999 -1.877 8
3.6340001 -0.73199999 -1.876 9
3.8139999 -0.76499999 -1.867 9
4.0250001 -0.80299997 -1.867 10
4.25 -0.84399998 -1.867 10
3.316 -0.68000001 -1.873 8
3.5039999 -0.71399999 -1.878 9
3.678 -0.74400002 -1.8710001 9
3.8599999 -0.77700001 -1.8609999 9
4.085 -0.81800002 -1.8660001 10
4.3109999 -0.86000001 -1.863 10
3.3740001 -0.69499999 -1.877 8
3.546 -0.72500002 -1.873 10
3.7360001 -0.759 -1.8710001 9
3.928 -0.79299998 -1.864 9
4.152 -0.83399999 -1.8660001 10
4.3850002 -0.87800002 -1.864 10
3.4200001 -0.70599997 -1.874 8
3.602 -0.73799998 -1.873 10
3.789 -0.77200001 -1.868 8
3.9990001 -0.81 -1.868 10
4.2189999 -0.85100001 -1.8660001 10
4.4559999 -0.89499998 -1.863 10
3.47 -0.71799999 -1.873 8
3.6589999 -0.75199997 -1.873 10
3.8510001 -0.78600001 -1.869 10
4.0650001 -0.82599998 -1.868 10
4.289 -0.86699998 -1.865 10
4.5310001 -0.912 -1.8609999 9
3.527 -0.73100001 -1.874 8
3.7190001 -0.76499999 -1.874 9
3.9130001 -0.80000001 -1.868 10
4.1290002 -0.83999997 -1.8660001 10
4.3629999 -0.884 -1.865 10
4.612 -0.93099999 -1.862 10
3.595 -0.74599999 -1.88 9
3.779 -0.77899998 -1.873 10
3.9760001 -0.81400001 -1.867 10
4.2080002 -0.85799998 -1.869 10
4.4349999 -0.89999998 -1.862 10
4.6939998 -0.949 -1.86 11
3.6429999 -0.75700003 -1.874 9
3.8380001 -0.792 -1.8710001 10
4.0489998 -0.82999998 -1.869 10
4.2789998 -0.87300003 -1.868 10
4.5180001 -0.91799998 -1.863 11
4.7789998 -0.96700001 -1.859 11
3.711 -0.77100003 -1.877 8
3.902 -0.80500001 -1.87 10
4.1240001 -0.84600002 -1.87 10
4.3579998 -0.88999999 -1.869 10
4.599 -0.935 -1.862 11
4.8699999 -0.986 -1.859 11
3.7650001 -0.78200001 -1.872 9
3.9660001 -0.81800002 -1.868 10
4.1999998 -0.86199999 -1.8710001 10
4.4380002 -0.90600002 -1.869 10
4.6820002 -0.95200002 -1.86 11
4.9749999 -1.008 -1.862 11
3.8340001 -0.796 -1.874 9
4.0380001 -0.833 -1.868 10
4.2729998 -0.87599999 -1.87 10
4.5079999 -0.92000002 -1.863 10
4.7740002 -0.97100002 -1.8609999 11
5.0580001 -1.025 -1.8559999 11
3.901 -0.80900002 -1.873 9
4.1160002 -0.84799999 -1.8710001 10
4.3520002 -0.89200002 -1.869 10
4.5960002 -0.93699998 -1.864 10
4.8720002 -0.98900002 -1.862 12
5.1659999 -1.046 -1.857 11
3.964 -0.81999999 -1.87 9
4.1929998 -0.86299998 -1.8710001 10
4.4359999 -0.90799999 -1.87 11
4.6820002 -0.954 -1.862 10
4.9720001 -1.0089999 -1.863 11
5.27 -1.066 -1.8559999 11
4.0320001 -0.833 -1.868 9
4.2729998 -0.87800002 -1.872 10
4.5190001 -0.92299998 -1.87 10
4.776 -0.97100002 -1.863 11
5.0630002 -1.025 -1.859 11
5.3720002 -1.084 -1.853 10
4.1149998 -0.84799999 -1.8710001 9
4.3520002 -0.89200002 -1.8710001 10
4.6090002 -0.93900001 -1.87 11
4.8730001 -0.98900002 -1.863 12
5.1820002 -1.0470001 -1.863 11
5.48 -1.104 -1.849 11
4.1950002 -0.86199999 -1.872 9
4.434 -0.90600002 -1.869 11
4.691 -0.95300001 -1.8660001 11
4.9840002 -1.008 -1.8660001 11
5.2800002 -1.064 -1.859 11
5.5960002 -1.124 -1.847 11
4.276 -0.87599999 -1.872 10
4.52 -0.92000002 -1.868 11
4.7779999 -0.96799999 -1.862 12
5.079 -1.024 -1.863 11
5.3699999 -1.079 -1.849 10
5.7490001 -1.151 -1.855 10
4.3610001 -0.889 -1.872 10
4.605 -0.93400002 -1.8660001 11
4.8850002 -0.986 -1.865 12
5.1859999 -1.0420001 -1.862 11
5.5120001 -1.104 -1.857 11
5.881 -1.174 -1.854 11
4.4429998 -0.90200001 -1.8710001 10
4.6960001 -0.94800001 -1.865 11
4.9959998 -1.0039999 -1.868 11
5.2930002 -1.059 -1.859 10
5.6459999 -1.126 -1.859 11
6.0190001 -1.196 -1.853 9
4.5339999 -0.91600001 -1.8710001 9
4.7909999 -0.963 -1.864 11
5.0879998 -1.018 -1.862 12
5.4050002 -1.076 -1.857 11
5.7740002 -1.146 -1.858 10
6.164 -1.219 -1.852 10
4.625 -0.93000001 -1.87 10
4.895 -0.97899997 -1.865 12
5.204 -1.036 -1.864 11
5.5310001 -1.096 -1.858 10
5.9200001 -1.169 -1.86 10
6.3169999 -1.243 -1.851 11
4.7119999 -0.94099998 -1.8660001 10
5.007 -0.995 -1.867 11
5.303 -1.049 -1.857 11
5.665 -1.1160001 -1.859 11
6.0500002 -1.188 -1.8559999 11
6.4759998 -1.267 -1.851 10
4.8039999 -0.954 -1.863 10
5.1059999 -1.0089999 -1.863 11
5.4330001 -1.068 -1.86 11
5.802 -1.136 -1.86 11
6.1919999 -1.2079999 -1.853 11
6.645 -1.2920001 -1.85 10
4.9060001 -0.96799999 -1.862 10
5.2160001 -1.023 -1.8609999 11
5.5609999 -1.086 -1.8609999 11
5.9369998 -1.155 -1.858 11
6.3569999 -1.232 -1.855 10
6.816 -1.317 -1.848 10
5.026 -0.98400003 -1.8660001 10
5.3330002 -1.039 -1.86 10
5.6890001 -1.103 -1.86 11
6.0840001 -1.175 -1.858 10
6.5089998 -1.252 -1.851 11
6.9920001 -1.341 -1.845 11
5.1199999 -0.995 -1.86 10
5.4530001 -1.054 -1.859 11
5.8260002 -1.1210001 -1.859 10
6.2329998 -1.194 -1.8559999 10
6.6750002 -1.274 -1.849 11
7.1729999 -1.365 -1.841 11
5.2529998 -1.012 -1.8660001 10
5.5830002 -1.0700001 -1.859 11
5.9650002 -1.138 -1.858 10
6.4000001 -1.216 -1.858 11
6.8590002 -1.298 -1.849 10
7.3990002 -1.396 -1.845 10
5.3660002 -1.024 -1.862 10
5.7179999 -1.086 -1.859 10
6.1160002 -1.156 -1.858 10
6.5599999 -1.235 -1.855 11
7.04 -1.321 -1.846 12
7.6040001 -1.4220001 -1.841 10
5.4809999 -1.036 -1.859 11
5.8449998 -1.1 -1.855 11
6.2659998 -1.174 -1.8559999 10
6.7210002 -1.253 -1.851 11
7.237 -1.345 -1.845 12
7.8060002 -1.446 -1.834 10
5.6199999 -1.052 -1.8609999 10
5.9899998 -1.1160001 -1.855 11
6.4289999 -1.192 -1.855 11
6.895 -1.273 -1.847 12
7.4530001 -1.3710001 -1.846 10
8.0240002 -1.471 -1.8279999 10
5.75 -1.0650001 -1.859 10
6.1420002 -1.132 -1.855 11
6.5910001 -1.209 -1.853 11
7.0910001 -1.295 -1.847 12
7.6409998 -1.391 -1.8380001 10
8.2629995 -1.499 -1.824 11
5.8920002 -1.079 -1.859 11
6.2940001 -1.146 -1.852 11
6.763 -1.226 -1.85 10
7.2919998 -1.317 -1.847 10
7.8600001 -1.414 -1.834 10
8.5010004 -1.525 -1.816 11
6.0440001 -1.0930001 -1.86 10
6.4549999 -1.1619999 -1.851 11
6.9359999 -1.243 -1.846 11
7.4829998 -1.335 -1.841 10
8.0780001 -1.436 -1.827 10
8.7700005 -1.5549999 -1.813 11
6.1890001 -1.105 -1.857 11
6.625 -1.177 -1.849 12
7.138 -1.263 -1.847 11
7.6929998 -1.355 -1.837 10
8.3190002 -1.46 -1.823 11
9.0509996 -1.584 -1.808 11
6.348 -1.119 -1.8559999 10
6.777 -1.189 -1.842 12
7.3330002 -1.28 -1.844 10
7.9060001 -1.375 -1.831 10
8.5600004 -1.483 -1.8150001 11
9.3389997 -1.612 -1.8 11
6.5110002 -1.132 -1.854 11
6.9770002 -1.207 -1.8430001 11
7.5339999 -1.2970001 -1.84 10
8.125 -1.393 -1.823 11
8.8319998 -1.508 -1.8099999 11
9.6759996 -1.647 -1.798 10
6.6830001 -1.145 -1.853 11
7.151 -1.219 -1.837 11
7.7350001 -1.312 -1.8329999 10
8.3629999 -1.413 -1.818 11
9.1110001 -1.533 -1.804 11
9.9980001 -1.677 -1.79 12
6.8439999 -1.155 -1.847 10
7.3530002 -1.234 -1.836 11
7.9590001 -1.33 -1.829 11
8.6210003 -1.434 -1.813 11
9.4189997 -1.561 -1.801 10
10.383 -1.714 -1.789 11
7.027 -1.166 -1.844 10
7.5819998 -1.252 -1.8380001 10
8.1870003 -1.345 -1.823 11
8.8900003 -1.455 -1.808 11
9.7290001 -1.586 -1.793 11
10.765 -1.748 -1.781 12
7.2540002 -1.184 -1.85 10
7.7820001 -1.263 -1.831 10
8.4160004 -1.36 -1.816 11
9.1800003 -1.476 -1.804 12
10.087 -1.6160001 -1.791 11
11.171 -1.783 -1.774 11
7.4400001 -1.193 -1.844 10
8.0039997 -1.276 -1.826 11
8.6870003 -1.378 -1.813 11
9.4829998 -1.498 -1.798 12
10.45 -1.6440001 -1.784 12
11.624 -1.822 -1.7690001 11
7.6490002 -1.2029999 -1.84 10
8.2290001 -1.288 -1.819 11
8.9440002 -1.393 -1.8049999 9
9.8030005 -1.5190001 -1.7920001 11
10.84 -1.673 -1.779 12
12.084 -1.858 -1.7589999 12
7.8530002 -1.212 -1.834 11
8.4759998 -1.301 -1.8150001 11
9.2379999 -1.411 -1.802 12
10.149 -1.5420001 -1.788 12
11.244 -1.701 -1.771 12
12.585 -1.896 -1.75 11
8.066 -1.219 -1.826 11
8.7150002 -1.3099999 -1.806 9
9.5369997 -1.426 -1.795 12
10.522 -1.566 -1.783 12
11.706 -1.734 -1.766 11
13.129 -1.937 -1.7410001 11
8.3000002 -1.227 -1.822 11
9 -1.324 -1.804 11
9.8640003 -1.443 -1.79 12
10.903 -1.587 -1.775 11
12.15 -1.761 -1.7539999 11
13.722 -1.98 -1.7309999 11
8.5249996 -1.232 -1.812 11
9.2840004 -1.334 -1.7970001 12
10.218 -1.461 -1.786 12
11.326 -1.6109999 -1.77 11
12.675 -1.794 -1.749 11
14.353 -2.023 -1.72 11
8.8039999 -1.243 -1.812 12
9.5860004 -1.345 -1.7920001 11
10.58 -1.477 -1.78 12
11.767 -1.6339999 -1.763 11
13.219 -1.827 -1.74 11
15.007 -2.0639999 -1.704 12
9.066 -1.248 -1.8049999 12
9.9169998 -1.357 -1.788 12
10.975 -1.493 -1.775 13
12.228 -1.655 -1.7539999 11
13.785 -1.857 -1.728 10
15.718 -2.108 -1.688 11
9.3400002 -1.253 -1.798 11
10.237 -1.365 -1.779 12
11.372 -1.507 -1.767 11
12.711 -1.676 -1.743 11
14.429 -1.892 -1.719 11
16.51 -2.154 -1.671 10
9.6429996 -1.258 -1.7920001 11
10.601 -1.375 -1.774 12
11.815 -1.523 -1.76 11
13.264 -1.7 -1.7359999 11
15.084 -1.923 -1.7029999 11
17.413 -2.2079999 -1.656 11
9.9619999 -1.263 -1.786 11
10.994 -1.3839999 -1.7690001 12
12.266 -1.535 -1.75 12
13.839 -1.722 -1.726 10
15.793 -1.954 -1.687 11
18.309 -2.253 -1.631 12
10.31 -1.268 -1.7819999 11
11.392 -1.391 -1.762 12
12.743 -1.546 -1.739 11
14.459 -1.743 -1.714 11
16.568001 -1.9859999 -1.669 10
19.334999 -2.3050001 -1.6059999 13
10.662 -1.2690001 -1.776 12
11.827 -1.398 -1.755 12
13.304 -1.562 -1.734 11
15.124 -1.7640001 -1.701 10
17.433001 -2.0220001 -1.652 11
20.419001 -2.3540001 -1.577 15
11.046 -1.271 -1.77 12
12.264 -1.401 -1.743 11
13.878 -1.574 -1.724 11
15.828 -1.783 -1.6849999 11
18.322001 -2.0510001 -1.628 12
21.712 -2.4159999 -1.55 17
11.434 -1.2690001 -1.762 11
12.75 -1.404 -1.735 11
14.464 -1.581 -1.71 11
16.552 -1.7970001 -1.664 10
19.337999 -2.085 -1.6059999 14
23.243 -2.4909999 -1.526 19
11.866 -1.268 -1.756 11
13.279 -1.408 -1.728 12
15.11 -1.59 -1.698 11
17.385 -1.8150001 -1.647 11
20.396 -2.1140001 -1.576 15
24.764999 -2.55 -1.484 19
12.298 -1.262 -1.7460001 12
13.848 -1.409 -1.719 11
15.766 -1.592 -1.6799999 10
18.287001 -1.832 -1.628 12
21.649 -2.1530001 -1.55 18
26.490999 -2.6159999 -1.4400001 10
12.766 -1.256 -1.737 11
14.43 -1.4069999 -1.7079999 11
16.514 -1.596 -1.665 10
19.214001 -1.842 -1.601 13
22.955999 -2.1830001 -1.515 16
28.466999 -2.687 -1.3890001 10
13.29 -1.248 -1.73 12
15.05 -1.4 -1.694 12
17.309 -1.596 -1.646 11
20.209 -1.847 -1.5700001 15
24.549 -2.2249999 -1.483 15
30.472 -2.74 -1.318 7
13.839 -1.238 -1.721 12
15.689 -1.3890001 -1.676 11
18.173 -1.594 -1.625 12
21.375 -1.858 -1.543 16
26.212 -2.2579999 -1.441 12
33.027 -2.8210001 -1.253 5
14.397 -1.222 -1.709 12
16.379 -1.376 -1.659 9
19.083 -1.587 -1.602 13
22.774 -1.876 -1.521 18
28.103001 -2.293 -1.396 13
35.827 -2.895 -1.168 1
14.998 -1.204 -1.696 12
17.143999 -1.3609999 -1.642 10
20.045 -1.574 -1.575 14
24.166 -1.878 -1.484 15
29.645 -2.2809999 -1.316 7
38.102001 -2.904 -1.045 1
15.613 -1.181 -1.681 11
17.921 -1.34 -1.6210001 11
21.111 -1.5599999 -1.5470001 16
25.795 -1.886 -1.451 15
32.199001 -2.3269999 -1.263 5
40.505001 -2.895 -0.903 40
16.263 -1.152 -1.664 9
18.795 -1.3150001 -1.6 13
22.372999 -1.546 -1.522 18
27.500999 -1.877 -1.403 12
35.096001 -2.368 -1.197 7
45.291 -3.02 -0.77999997 33
16.99 -1.1210001 -1.647 10
19.684 -1.281 -1.572 14
23.697001 -1.521 -1.489 20
29.165001 -1.849 -1.339 9
37.689999 -2.359 -1.096 0
47.639 -2.9430001 -0.58399999 13
17.731001 -1.0829999 -1.627 11
20.690001 -1.245 -1.5470001 15
25.139999 -1.4910001 -1.4529999 16
31.229 -1.826 -1.278 5
40.077999 -2.3110001 -0.96799999 9
50.421001 -2.865 -0.37099999 4
18.57 -1.0420001 -1.609 12
21.806 -1.2029999 -1.52 17
26.834999 -1.457 -1.4170001 16
33.674999 -1.799 -1.212 6
44.491001 -2.3399999 -0.85500002 71
56.671001 -2.9349999 -0.14300001 6
19.434 -0.991 -1.586 13
23.014 -1.153 -1.489 19
28.368 -1.395 -1.359 11
36.106998 -1.7460001 -1.125 4
43.168999 -2.05 -0.62300003 118
43.183998 -2.0139999 0.096000001 17
20.341999 -0.93199998 -1.559 15
24.268999 -1.09 -1.452 17
29.982 -1.3200001 -1.2920001 6
39.986 -1.724 -1.054 16
43.195 -1.826 -0.41999999 150
84.613998 -3.5039999 0.583 29
21.332001 -0.86699998 -1.5319999 16
25.804001 -1.025 -1.421 16
32.092999 -1.2460001 -1.232 5
40.23 -1.524 -0.87300003 2
43.278 -1.601 -0.22 150
47.584 -1.719 0.546 27
22.434 -0.79299998 -1.505 18
27.327 -0.94 -1.377 14
34.827 -1.166 -1.175 4
43.244999 -1.4069999 -0.74000001 60
44.09 -1.395 -0.023 68
47.595001 -1.4630001 0.76099998 3
23.667999 -0.708 -1.476 20
28.797001 -0.83399999 -1.317 10
38.252998 -1.071 -1.114 6
43.277 -1.174 -0.54500002 52
44.438999 -1.165 0.17399999 65
96.875 -2.4519999 1.977 35
24.948 -0.61000001 -1.442 19
30.422001 -0.71600002 -1.255 7
40.130001 -0.90700001 -0.99199998 14
44.498001 -0.963 -0.36399999 70
44.581001 -0.92400002 0.36899999 64
63.726002 -1.262 1.576 29
26.504 -0.50099999 -1.413 18
32.506001 -0.58499998 -1.197 5
40.370998 -0.68900001 -0.82200003 1
44.432999 -0.71600002 -0.17299999 70
44.769001 -0.67799997 0.56199998 18
40.904999 -0.583 1.184 1
27.796 -0.37099999 -1.3609999 13
34.708 -0.43200001 -1.1289999 4
40.794998 -0.46900001 -0.65700001 35
40.737999 -0.42899999 0.012 121
40.731998 -0.39199999 0.67799997 96
61.195999 -0.53100002 2.0220001 6
29.228001 -0.228 -1.309 8
38.437 -0.26300001 -1.09 5
45.097 -0.26499999 -0.54000002 24
69.209999 -0.34299999 0.301 26
50.075001 -0.2 1.0369999 42
64.491997 -0.198 2.388 35
30.913 -0.066 -1.256 6
40.235001 -0.046 -0.97600001 20
45.615002 -0.0089999996 -0.36300001 4
50.167 0.037 0.419 89
50.188 0.086000003 1.238 68
64.239998 0.17 2.632 28
32.640999 0.117 -1.194 5
40.400002 0.183 -0.82099998 4
50.145 0.27599999 -0.20100001 56
50.257999 0.32600001 0.616 38
50.278 0.37799999 1.436 73
65.074997 0.55299997 2.918 29
0 0 0 0
44.470001 0.463 -0.72799999 77
50.138 0.57099998 -0.0060000001 4
50.355 0.62300003 0.81099999 87
51.75 0.69400001 1.676 12
112.687 1.625 5.48 24
0 0 0 0
45.576 0.74599999 -0.57099998 73
51.839001 0.898 0.189 48
50.498001 0.926 1.003 5
96.333 1.863 3.4760001 12
115.138 2.3399999 6.0190001 9
38.707001 0.82599998 -0.96700001 4
46.479 1.038 -0.41 51
50.577 1.1799999 0.37099999 75
51.966999 1.263 1.221 16
95.658997 2.4189999 3.7939999 24
113.258 2.977 6.323 30
40.688999 1.11 -0.87 12
0 0 0 0
52.039001 1.522 0.56400001 5
0 0 0 0
96.768997 3.029 4.1750002 12
0 0 0 0
41.763 1.395 -0.74299997 4
49.644001 1.706 -0.086000003 14
52.120998 1.842 0.74599999 4
94.696999 3.444 2.882 6
113.647 4.2519999 5.2919998 13
0 0 0 0
44.929001 1.773 -0.64700001 73
57.348999 2.3210001 0.093999997 17
96.559998 4.0029998 1.707 12
94.987 4.0370002 3.207 12
0 0 0 0
0 0 0 0
45.550999 2.0799999 -0.50300002 73
50.582001 2.359 0.249 32
50.638 2.414 1.061 4
95.916 4.6729999 3.55 21
0 0 0 0
76.463997 3.8870001 5.2880001 17
45.485001 2.3599999 -0.35600001 32
53.490002 2.8269999 0.43399999 3
50.625999 2.7279999 1.221 49
95.741997 5.2620001 3.8429999 9
76.633003 4.2909999 4.3039999 13
78.163002 4.4629998 5.6469998 47
44.541 2.589 -0.211 2
78.064003 4.6139998 0.87300003 11
50.726002 3.0510001 1.377 37
78.027 4.7789998 3.369 13
76.57 4.7729998 4.533 7
0 0 0 0
46.297001 2.9860001 -0.078000002 5
50.896 3.335 0.72299999 39
50.889999 3.385 1.533 23
76.700996 5.1849999 3.5369999 32
76.405998 5.2459998 4.744 9
75.523003 5.2709999 5.901 13
50.992001 3.6159999 0.061999999 20
50.959999 3.6659999 0.87199998 10
50.936001 3.7190001 1.682 75
76.448997 5.6609998 3.744 42
76.393997 5.7420001 4.9619999 28
76.536003 5.8369999 6.1960001 37
51.030998 3.948 0.206 17
51.067001 4.0050001 1.017 92
53.917 4.2859998 1.931 3
76.577003 6.1719999 3.9619999 33
76.559998 6.2529998 5.1830001 23
76.528 6.3390002 6.4050002 4
51.195 4.2979999 0.347 13
51.173 4.349 1.1569999 40
41.619999 3.5810001 1.601 19
77.436996 6.7519999 4.2140002 39
75.313004 6.6490002 5.2979999 39
74.858002 6.6960001 6.4629998 20
41.573002 3.7639999 0.38999999 85
41.588001 3.8099999 1.049 42
41.514 3.846 1.704 38
41.462002 3.8870001 2.3610001 40
41.450001 3.9319999 3.02 23
75.750999 7.2729998 6.7290001 29
57.028 5.54 0.67799997 45
48.571999 4.7670002 1.344 1
100.808 10.003 4.3850002 25
87.827003 8.816 5.217 21
89.556999 9.0889997 6.744 10
89.102997 9.1499996 8.132 11
48.053001 4.9899998 0.68699998 11
47.525002 4.9819999 1.428 9
100.676 10.665 4.618 33
76.140999 8.151 4.6999998 49
86.563004 9.3640003 6.7189999 7
89.222 9.7600002 8.349 16
46.924999 5.1869998 0.778 58
47.327 5.2789998 1.529 10
66.563004 7.4949999 3.2019999 8
76.18 8.6669998 4.8740001 4
87.907997 10.105 7.0209999 27
62.292 7.2360001 5.9679999 4
46.442001 5.447 0.87199998 60
47.348999 5.6040001 1.633 19
66.522003 7.9429998 3.3440001 33
88.667 10.688 5.8610001 20
87.242996 10.616 7.152 11
62.223999 7.6479998 6.092 30
46.428001 5.7600002 0.96700001 73
46.660999 5.8379998 1.705 27
66.158997 8.3520002 3.4630001 32
88.781998 11.31 6.052 8
62.355 8.0150003 5.2389998 5
66.249001 8.5979996 6.6220002 19
46.478001 6.0879998 1.061 78
47.026001 6.2069998 1.811 2
66.363998 8.8339996 3.602 28
100.014 13.423 7.0089998 20
64.473999 8.7340002 5.5419998 4
66.105003 9.0349998 6.7340002 12
46.689999 6.4400001 1.154 69
46.146999 6.4120002 1.864 1
66.385002 9.2969999 3.727 31
62.458 8.8170004 4.493 8
63.609001 9.0530005 5.5840001 15
62.984001 9.0439997 6.5320001 10
46.494999 6.7340002 1.23 39
66.108002 9.6440001 2.7850001 28
62.347 9.1619997 3.6070001 24
87.526001 12.964 6.447 10
0 0 0 0
65.541 9.8710003 6.9089999 7
46.474998 7.0560002 1.306 50
45.902 7.0190001 2.01 5
85.875999 13.223 5.1110001 10
62.514999 9.6990004 4.7080002 10
61.522999 9.618 5.6079998 7
64.825996 10.218 6.9400001 3
46.709 7.421 1.385 35
62.193001 9.9469995 2.819 45
62.224998 10.022 3.7980001 34
88.365997 14.332 6.789 26
61.459999 10.041 5.6950002 11
64.601997 10.641 7.0159998 9
46.563999 7.73 1.449 27
46.464001 7.7600002 2.1730001 2
98.500999 16.561001 6.1550002 22
98.839996 16.733999 7.7360001 26
101.386 17.285999 9.5419998 28
61.617001 10.586 6.7789998 6
105.285 18.226999 3.415 24
98.162003 17.106001 4.724 32
99.435997 17.434 6.3470001 7
62.744999 11.072 4.9949999 23
102.511 18.218 9.7849998 26
61.470001 11.002 6.8449998 7
0 0 0 0
96 17.410999 4.7350001 49
100.784 18.391001 6.5549998 34
98.242996 18.039 7.9400001 20
63.619999 11.762 6.1500001 3
62.984001 11.73 7.092 12
0 0 0 0
95.478996 18.007 4.8179998 56
96.898003 18.382999 6.4120002 46
97.054001 18.523001 7.954 40
64.288002 12.351 6.2870002 3
65.100998 12.594 7.4029999 18
73.554001 14.33 2.6340001 27
96.876999 18.971001 4.9850001 55
96.278999 18.965 6.4699998 28
97.516998 19.325001 8.092 38
64.653999 12.894 6.3899999 13
60.881001 12.221 6.987 15
72.309998 14.612 2.6559999 11
97.251999 19.754 5.0939999 10
95.934998 19.594 6.533 32
97.610001 20.052999 8.1879997 23
63.990002 13.227 6.382 16
60.827999 12.653 7.0359998 16
96.447998 20.200001 3.618 20
97.171997 20.447001 5.1659999 33
100.601 21.285 6.9330001 25
101.18 21.523001 8.5710001 23
64.140999 13.726 6.4510002 7
43.511002 9.3699999 5.0689998 22
55.314999 11.993 2.1140001 11
42.735001 9.3070002 2.302 42
98.050003 21.464001 6.8239999 18
42.412998 9.3330002 3.622 15
42.262001 9.3540001 4.2800002 30
41.845001 9.3170004 4.9050002 1
42.576 9.5419998 1.651 41
43.041 9.6890001 2.3429999 41
43.161999 9.7650003 3.03 37
43.280998 9.8439999 3.723 42
99.799004 22.823 10.17 24
43.782001 10.072 5.1599998 10
55.109001 12.759 2.165 29
83.741997 19.473 4.6009998 40
97.566002 22.796 6.8969998 43
98.532997 23.139 8.5229998 28
99.553001 23.507 10.193 25
0 0 0 0
54.005001 12.909 2.141 2
84.082001 20.179001 4.6529999 17
97.078003 23.4 6.902 36
98.874001 23.952 8.5939999 23
98.683998 24.033001 10.147 25
0 0 0 0
73.82 18.195999 2.9449999 4
73.998001 18.311001 4.1139998 7
96.705002 24.035999 6.9000001 13
100.178 25.021999 8.7379999 8
0 0 0 0
0 0 0 0
73.615997 18.708 2.948 5
73.288002 18.693001 4.086 5
96.745003 24.785999 6.9229999 44
96.961998 24.957001 8.4759998 32
0 0 0 0
0 0 0 0
53.929001 14.112 2.1630001 4
83.391998 21.903999 4.6550002 43
96.578003 25.472 6.915 26
97.434998 25.809 8.5240002 39
0 0 0 0
0 0 0 0
53.703999 14.46 2.151 23
83.338997 22.516001 4.6500001 45
96.602997 26.209 6.9159999 50
96.749001 26.358 8.4630003 36
0 0 0 0
0 0 0 0
53.905998 14.922 2.1489999 32
81.008003 22.504999 4.5079999 7
95.650002 26.674999 6.836 35
95.856003 26.841 8.375 20
97.250999 27.357 10.051 21
0 0 0 0
69.167 19.674 2.74 20
80.669998 23.021999 4.467 33
96.525002 27.643999 6.875 22
95.473999 27.455 8.3190002 21
95.400002 27.556999 9.8380003 16
0 0 0 0
68.405998 19.983 2.6830001 35
80.765999 23.666 4.4439998 33
96.079002 28.253 6.8099999 22
95.039001 28.052999 8.2519999 33
94.782997 28.1 9.7469997 13
98.023003 29.198 11.657 10
67.853996 20.339001 2.6270001 18
97.260002 29.247 5.3060002 17
95.058998 28.684 6.6950002 45
49.444 14.974 4.2719998 13
95.632004 29.084999 9.7959995 27
0 0 0 0
67.980003 20.899 2.5929999 24
97.092003 29.937 5.2389998 13
49.303001 15.252 3.444 2
0 0 0 0
48.026001 14.976 4.895 2
0 0 0 0
65.718002 20.712 2.46 4
65.466003 20.691 3.4879999 17
49.071999 15.556 3.3970001 28
48.388 15.395 4.1230001 22
48.006001 15.332 4.8629999 6
0 0 0 0
81.555 26.332001 2.9890001 27
48.862 15.819 2.566 6
48.125 15.626 3.296 48
48.889999 15.929 4.131 34
92.013 30.096001 9.257 19
0 0 0 0
64.396004 21.290001 2.2980001 14
48.636002 16.122999 2.5109999 35
22.912001 7.6170001 1.549 0
48.547001 16.195 4.0609999 33
55.405998 18.552999 5.5279999 9
92.077003 30.955999 10.68 12
23.153 7.8340001 0.80199999 3
23.153 7.8530002 1.171 16
23.153 7.8759999 1.543 0
48.185001 16.444 3.9860001 39
47.035 16.108 4.652 39
64.065002 22.030001 7.375 24
70.357002 24.351999 2.3610001 13
48.130001 16.697001 2.3829999 37
49.443001 17.200001 3.2409999 43
48.321999 16.863001 3.9449999 19
48.369999 16.937 4.7329998 20
42.980999 15.111 4.9060001 24
43.269001 15.313 1.399 42
43.219002 15.327 2.089 56
43.201 15.361 2.7820001 37
43.206001 15.409 3.4790001 14
43.131001 15.433 4.1729999 11
63.52 22.816999 7.1799998 28
0 0 0 0
48.949001 17.74 2.302 12
48.553001 17.639999 3.0650001 62
48.507999 17.676001 3.846 25
43.160999 15.777 4.1240001 24
51.011002 18.716999 5.7059999 3
92.106003 34.021 2.723 12
52.271999 19.346001 2.385 19
48.521999 17.997999 2.997 31
48.949001 18.208 3.816 34
51.188999 19.101999 4.823 3
43.075001 16.135 4.7639999 8
52.348999 19.740999 1.4680001 27
52.484001 19.829 2.316 13
49.041 18.568001 2.9579999 4
48.596001 18.448999 3.72 34
49.018002 18.667999 4.5510001 18
50.990002 19.488001 5.5679998 23
25.198999 9.698 0.66399997 3
62.861 24.235001 2.675 24
51.832001 20.025999 3.0450001 10
48.221001 18.679001 3.6170001 17
48.882 18.99 4.4660001 6
53.084999 20.694 5.7199998 11
25.365 9.9580002 0.625 20
62.465 24.561001 2.5510001 3
62.625 24.674999 3.5739999 25
74.310997 29.348 5.4530001 12
52.289001 20.711 4.6929998 27
52.529999 20.879 5.5799999 32
25.535 10.223 0.58200002 1
67.82 27.191999 2.6470001 28
62.896 25.267 3.4779999 25
73.658997 29.662001 5.276 6
73.219002 29.563999 6.447 14
0 0 0 0
25.764 10.514 0.53799999 18
76.567001 31.292 2.8429999 15
62.757999 25.691999 3.355 14
76.760002 31.496 5.3600001 9
73.163002 30.101999 6.3109999 15
0 0 0 0
63.366001 26.351999 1.193 3
151.83 63.223999 5.3330002 27
76.589996 31.948999 3.9419999 7
0 0 0 0
0 0 0 0
0 0 0 0
26.150999 11.077 0.43599999 14
0 0 0 0
59.685001 25.355 2.9489999 12
0 0 0 0
0 0 0 0
0 0 0 0
26.289 11.337 0.37900001 5
156.745 67.661003 4.8340001 29
59.306 25.639 2.803 25
59.289001 25.681999 3.78 21
0 0 0 0
0 0 0 0
26.457001 11.61 0.31999999 16
26.509001 11.642 0.75700003 1
58.869999 25.893999 2.654 25
58.803001 25.913 3.6229999 27
0 0 0 0
0 0 0 0
48.75 21.766001 0.472 35
48.439999 21.643999 1.268 52
58.782001 26.299999 2.51 22
58.825001 26.370001 3.487 25
0 0 0 0
0 0 0 0
26.740999 12.144 0.191 0
26.778999 12.17 0.63300002 3
59.853001 27.235001 2.408 7
59.094002 26.936001 3.3610001 15
59.490002 27.174 4.375 8
98.521004 45.113998 8.8959999 23
26.892 12.418 0.121 23
26.954 12.454 0.56800002 24
106.805 49.400002 4.0310001 10
59.050999 27.354 3.2119999 21
97.634003 45.318001 6.9419999 15
98.011002 45.602001 8.6140003 31
26.985001 12.664 0.048999999 30
27.087 12.719 0.5 40
92.533997 43.493 3.25 7
44.549 20.966999 2.3099999 1
44.646999 21.052999 3.063 26
44.498001 21.031 3.802 14
27.167999 12.953 -0.026000001 13
27.221001 12.982 0.428 15
44.528 21.254999 1.444 46
44.52 21.278999 2.1900001 37
96.639999 46.278999 6.381 30
96.967003 46.536999 8.0389996 27
27.254 13.199 -0.105 2
58.049999 28.118 0.74800003 10
67.352997 32.650002 1.997 22
114.573 55.608002 5.3210001 21
96.727997 47.021999 6.1240001 21
96.929001 47.223 7.7729998 28
26.297001 12.928 -0.17900001 5
50.514999 24.841 0.505 10
66.688004 32.814999 1.788 33
0 0 0 0
102.09 50.368 6.184 7
96.442001 47.68 7.473 28
22.677999 11.317 -0.22400001 6
49.249001 24.576 0.34299999 17
66.263 33.084999 1.579 36
60.749001 30.365 2.477 9
0 0 0 0
96.103996 48.200001 7.1789999 11
13.954 7.066 -0.18099999 1
48.139999 24.375 0.186 18
62.688999 31.752001 1.306 33
60.651001 30.747999 2.2909999 34
97.874001 49.692001 5.3629999 32
98.077003 49.889 7.0419998 26
13.803 7.0900002 -0.223 37
44.145 22.67 0.032000002 8
59.006001 30.311001 1.044 3
60.390999 31.045 2.0969999 19
97.906998 50.400002 5.0630002 9
98.053001 50.561001 6.7459998 21
13.66 7.1139998 -0.26699999 36
42.195 21.966 -0.105 1
0 0 0 0
65.530998 34.147999 2.072 23
86.598999 45.183998 4.2119999 12
45.599998 23.83 2.9990001 31
13.548 7.1529999 -0.31 40
13.835 7.3010001 -0.081 18
51.195 27.018999 0.57499999 4
51.285999 27.084999 1.455 18
85.972 45.452 3.9119999 31
45.212002 23.940001 2.832 11
13.489 7.217 -0.35600001 37
13.666 7.3080001 -0.126 37
45 24.063999 0.354 34
44.937 24.041 1.124 76
44.917 24.052 1.897 80
44.877998 24.066 2.6659999 11
13.432 7.2820001 -0.40200001 31
13.574 7.3540001 -0.17299999 42
48.162998 26.087999 0.213 13
50.786999 27.517 1.101 52
54.398998 29.499001 2.1159999 12
96.552002 52.438 5.4190001 20
13.318 7.3119998 -0.44800001 40
13.452 7.3800001 -0.219 35
44.414001 24.358999 0.041999999 6
50.876999 27.912001 0.92400002 27
52.803001 28.988001 1.873 26
0 0 0 0
13.284 7.3839998 -0.495 36
13.327 7.401 -0.266 40
13.84 7.6830001 -0.035999998 1
52.591999 29.202 0.77200001 45
52.410999 29.118 1.6799999 41
107.427 59.751999 5.3039999 11
13.265 7.4640002 -0.54500002 39
13.282 7.4650002 -0.31400001 45
13.696 7.6929998 -0.085000001 8
50.055 28.115999 0.55699998 2
52.183998 29.326 1.489 42
59.877998 33.681999 2.7520001 3
13.296 7.5679998 -0.59600002 38
13.253 7.5349998 -0.36300001 49
13.463 7.6479998 -0.133 27
48.867001 27.76 0.36700001 10
49.907001 28.365 1.2460001 51
59.477001 33.834999 2.5209999 19
13.369 7.697 -0.65100002 41
13.265 7.6279998 -0.41299999 43
13.427 7.7150002 -0.183 39
37.681 21.643999 0.14399999 24
38.143002 21.917999 0.81 28
54.139 31.136999 2.098 10
13.564 7.8979998 -0.71399999 12
13.258 7.7090001 -0.465 51
13.43 7.8010001 -0.234 39
14.296 8.3009996 0 0
37.876999 21.997999 0.66500002 80
53.692001 31.205999 1.883 25
14.745 8.6780005 -0.83600003 38
13.307 7.8189998 -0.51899999 37
13.4 7.8660002 -0.28600001 47
14.144 8.2989998 -0.052999999 34
37.873001 22.225 0.523 47
53.362 31.333 1.674 29
14.614 8.6920004 -0.88800001 37
13.795 8.191 -0.59299999 35
13.691 8.1199999 -0.347 41
13.994 8.2939997 -0.107 38
38 22.521999 0.37799999 24
53.131001 31.504 1.466 31
13.905 8.3549995 -0.90200001 33
14.484 8.6879997 -0.68199998 15
13.84 8.29 -0.405 36
13.846 8.2880001 -0.16 42
14.19 8.4919996 0.086999997 9
45.474998 27.225 1.082 63
13.539 8.2159996 -0.935 31
0 0 0 0
13.714 8.2939997 -0.45699999 50
13.711 8.2849998 -0.213 39
13.944 8.4239998 0.028999999 41
47.514 28.712999 0.94400001 65
13.176 8.073 -0.96499997 33
14.757 9.0229998 -0.81599998 40
13.633 8.3219995 -0.50999999 44
13.62 8.3059998 -0.26699999 45
13.778 8.3990002 -0.025 43
58.327 35.562 0.92799997 4
12.913 7.9850001 -1.002 36
13.855 8.5480003 -0.82499999 43
13.662 8.4160004 -0.56900001 34
13.544 8.3330002 -0.32100001 43
13.675 8.4099998 -0.079000004 41
13.951 8.5799999 0.16599999 9
12.739 7.948 -1.043 23
13.748 8.5570002 -0.87699997 37
13.92 8.6490002 -0.63599998 35
13.494 8.3739996 -0.375 44
13.562 8.4099998 -0.134 44
13.859 8.5939999 0.11 32
12.543 7.8930001 -1.082 15
13.445 8.4399996 -0.91600001 33
13.964 8.7489996 -0.69700003 38
13.424 8.3999996 -0.42899999 44
13.494 8.4370003 -0.189 38
13.706 8.5670004 0.052999999 40
12.558 7.9689999 -1.138 17
13.125 8.3070002 -0.94999999 35
13.767 8.6949997 -0.74699998 41
13.396 8.448 -0.484 49
13.433 8.4630003 -0.243 50
13.585 8.5559998 -0.0020000001 43
12.572 8.0419998 -1.1950001 19
12.899 8.2279997 -0.98900002 34
13.788 8.7749996 -0.80599999 39
13.46 8.5530005 -0.54299998 37
13.372 8.4879999 -0.29899999 44
13.507 8.5699997 -0.059 48
8.1890001 5.2779999 -0.815 2
12.734 8.184 -1.033 19
13.831 8.8690004 -0.87 41
13.519 8.6540003 -0.60500002 29
13.364 8.5450001 -0.35600001 43
13.455 8.5979996 -0.115 41
8.0559998 5.2309999 -0.838 12
12.593 8.1520004 -1.0779999 19
13.572 8.7639999 -0.91299999 30
13.504 8.7040005 -0.66100001 24
13.335 8.5839996 -0.41100001 39
13.377 8.6049995 -0.17 43
7.9829998 5.2199998 -0.866 35
12.601 8.2130003 -1.1339999 17
13.223 8.5959997 -0.94700003 36
13.627 8.8409996 -0.727 33
13.317 8.6280003 -0.46700001 41
13.297 8.6079998 -0.226 45
7.763 5.1100001 -0.87800002 34
12.622 8.2799997 -1.193 13
12.946 8.4689999 -0.98400003 35
13.704 8.9469995 -0.79000002 35
13.269 8.6490002 -0.52200001 54
13.26 8.6350002 -0.28 48
7.4910002 4.9619999 -0.88099998 36
8.2049999 5.4159999 -0.81199998 2
12.779 8.4110003 -1.028 18
13.734 9.0190001 -0.852 33
13.263 8.6960001 -0.579 40
13.234 8.6680002 -0.33700001 46
7.3299999 4.8850002 -0.89499998 31
8.0939999 5.3740001 -0.83700001 25
12.61 8.3470001 -1.0700001 13
13.51 8.9209995 -0.89700001 33
13.282 8.7550001 -0.63700002 38
13.242 8.7180004 -0.39399999 49
7.1220002 4.7729998 -0.903 35
8.0109997 5.348 -0.86400002 35
12.617 8.3959999 -1.127 11
13.172 8.743 -0.93199998 31
13.551 8.9779997 -0.70899999 11
13.219 8.7469997 -0.44999999 46
6.8909998 4.6420002 -0.90499997 34
7.7350001 5.1900001 -0.87 39
12.629 8.4469995 -1.183 13
12.96 8.6450005 -0.97399998 34
14.134 9.4090004 -0.80199999 41
13.251 8.8079996 -0.50800002 38
6.7690001 4.5819998 -0.92000002 29
7.5190001 5.0700002 -0.87900001 37
8.1700001 5.4899998 -0.801 7
12.792 8.5719995 -1.017 20
13.882 9.2810001 -0.847 37
13.253 8.8470001 -0.565 51
6.7160001 4.5669999 -0.94300002 29
7.316 4.954 -0.88800001 39
8.1129999 5.4749999 -0.83200002 28
12.635 8.5010004 -1.0599999 12
13.628 9.1490002 -0.89099997 35
13.257 8.8850002 -0.62300003 40
6.5370002 4.4640002 -0.94800001 29
7.1739998 4.8779998 -0.903 36
7.9429998 5.381 -0.85000002 43
12.642 8.5380001 -1.1160001 11
13.338 8.9860001 -0.93000001 32
13.369 8.9910002 -0.68599999 18
6.3309999 4.3400002 -0.94599998 31
6.98 4.7639999 -0.91000003 37
7.756 5.2729998 -0.86500001 46
12.652 8.5749998 -1.173 13
13.034 8.8109999 -0.96600002 32
13.481 9.0950003 -0.74900001 36
6.243 4.2950001 -0.96200001 26
6.7989998 4.6560001 -0.917 39
7.5580001 5.1550002 -0.87599999 44
8.2329998 5.5970001 -0.79900002 0
12.838 8.7040005 -1.006 23
13.824 9.3529997 -0.82700002 34
6.2540002 4.316 -0.991 24
6.7290001 4.6220002 -0.93699998 36
7.4130001 5.0700002 -0.89099997 39
8.1260004 5.539 -0.82300001 16
12.656 8.6020002 -1.046 13
13.776 9.3430004 -0.88300002 30
6.3000002 4.3600001 -1.027 24
6.625 4.5619998 -0.95200002 34
7.1890001 4.9289999 -0.89600003 42
7.9710002 5.4460001 -0.84200001 40
12.648 8.6160002 -1.1 14
13.276 9.0220003 -0.90799999 25
6.2550001 4.3390002 -1.0470001 24
6.3400002 4.375 -0.93900001 37
7.0700002 4.8579998 -0.91100001 41
7.8140001 5.349 -0.85900003 41
12.654 8.6359997 -1.154 15
13.054 8.8870001 -0.94800001 35
6.256 4.348 -1.075 25
6.2319999 4.309 -0.94999999 32
6.915 4.7600002 -0.921 38
7.645 5.2420001 -0.87300003 40
12.658 8.651 -1.2079999 14
12.922 8.809 -0.99299997 25
6.3249998 4.4029999 -1.115 28
6.2399998 4.3210001 -0.97799999 32
6.783 4.6750002 -0.93300003 35
7.4349999 5.1040001 -0.88099998 38
8.1540003 5.579 -0.81300002 11
12.711 8.6730003 -1.029 13
6.355 4.4289999 -1.147 27
6.2919998 4.3610001 -1.013 32
6.6729999 4.6040001 -0.94599998 35
7.2350001 4.9710002 -0.88700002 39
8.0129995 5.4860001 -0.83200002 31
12.652 8.6379995 -1.077 13
6.2719998 4.375 -1.159 26
6.276 4.3540001 -1.0369999 30
6.4780002 4.4720001 -0.94599998 41
7.1209998 4.895 -0.903 40
7.8769999 5.395 -0.85000002 41
12.656 8.6429996 -1.13 14
6.191 4.3210001 -1.17 28
6.2290001 4.323 -1.0549999 32
6.2589998 4.3210001 -0.93900001 35
6.973 4.7940001 -0.91299999 36
7.7360001 5.2979999 -0.86699998 39
12.65 8.6379995 -1.181 14
6.224 4.3439999 -1.202 27
6.3000002 4.3709998 -1.0930001 35
6.2280002 4.2989998 -0.95999998 35
6.8559999 4.7119999 -0.926 34
7.5409999 5.1630001 -0.875 40
8.1190004 5.5409999 -0.79100001 1
6.2140002 4.336 -1.226 26
6.3470001 4.402 -1.128 33
6.2490001 4.3109999 -0.98900002 30
6.7140002 4.6110001 -0.93300003 36
7.3979998 5.0609999 -0.889 35
8.1169996 5.5339999 -0.82200003 19
6.2329998 4.3460002 -1.255 26
6.2290001 4.3169999 -1.132 36
6.277 4.3270001 -1.018 29
6.651 4.5630002 -0.95099998 33
7.2199998 4.9330001 -0.89600003 31
8.0270004 5.4660001 -0.84500003 32
6.2649999 4.3629999 -1.2869999 30
6.2249999 4.309 -1.156 37
6.2620001 4.3109999 -1.041 34
6.4260001 4.402 -0.94400001 36
7.0910001 4.8369999 -0.90700001 33
7.849 5.336 -0.85699999 40
6.3400002 4.4099998 -1.327 30
6.4299998 4.4429998 -1.219 41
6.323 4.3449998 -1.075 33
6.349 4.342 -0.958 33
6.9039998 4.7010002 -0.91000003 37
7.6890001 5.2160001 -0.86900002 33
6.3239999 4.3899999 -1.348 25
6.6160002 4.5630002 -1.279 27
6.3039999 4.323 -1.096 31
6.256 4.2690001 -0.96700001 36
6.783 4.6079998 -0.92000002 34
7.5019999 5.0770001 -0.87699997 33
6.2719998 4.3439999 -1.3609999 30
6.4349999 4.428 -1.268 31
6.296 4.3070002 -1.118 37
6.256 4.2579999 -0.991 29
6.6810002 4.526 -0.93099999 37
7.3569999 4.9650002 -0.88700002 32
6.277 4.336 -1.385 35
6.2919998 4.3179998 -1.2640001 36
6.2540002 4.2659998 -1.1339999 37
6.276 4.2579999 -1.017 31
6.6290002 4.4770002 -0.94700003 37
7.2030001 4.8460002 -0.89399999 31
6.494 4.4720001 -1.456 36
6.323 4.3249998 -1.2920001 34
6.2779999 4.2680001 -1.16 42
6.3340001 4.2839999 -1.048 31
6.3969998 4.3060002 -0.93699998 32
7.0310001 4.7129998 -0.898 38
6.3889999 4.3850002 -1.456 25
6.3470001 4.3260002 -1.3200001 37
6.4530001 4.3709998 -1.216 33
6.3639998 4.2870002 -1.076 29
6.362 4.2659998 -0.954 32
6.9239998 4.6230001 -0.90899998 35
6.6129999 4.5209999 -1.529 30
6.362 4.3189998 -1.345 30
6.427 4.336 -1.232 27
6.5580001 4.4000001 -1.131 32
6.3800001 4.2589998 -0.97899997 29
6.8280001 4.539 -0.92000002 33
6.52 4.4390001 -1.53 33
6.4029999 4.329 -1.375 34
6.401 4.3000002 -1.249 35
6.3930001 4.27 -1.124 32
6.3590002 4.2259998 -0.99699998 28
6.8600001 4.539 -0.94700003 32
6.4829998 4.3940001 -1.5420001 33
6.3379998 4.2649999 -1.382 36
6.3649998 4.2550001 -1.263 40
6.3730001 4.2360001 -1.142 37
6.323 4.1810002 -1.012 32
6.6389999 4.3699999 -0.93900001 33
6.4660001 4.3600001 -1.559 32
6.3870001 4.276 -1.413 38
6.408 4.2620001 -1.2920001 37
6.381 4.2189999 -1.164 34
6.3249998 4.1599998 -1.033 35
6.4809999 4.243 -0.93699998 34
6.513 4.369 -1.59 29
6.3959999 4.2579999 -1.434 38
6.3979998 4.2319999 -1.3099999 41
6.4330001 4.23 -1.193 36
6.3860002 4.1760001 -1.063 31
6.4439998 4.1939998 -0.95200002 33
6.4850001 4.3249998 -1.603 25
6.4260001 4.2529998 -1.461 35
6.4229999 4.223 -1.334 36
6.4619999 4.223 -1.2180001 31
6.3850002 4.1500001 -1.082 36
6.3959999 4.1370001 -0.96399999 33
6.467 4.2859998 -1.618 14
6.448 4.2410002 -1.485 33
6.4549999 4.2179999 -1.36 35
6.4629998 4.197 -1.237 34
6.434 4.1550002 -1.11 34
6.4590001 4.151 -0.99299997 31
6.4310002 4.2350001 -1.626 9
6.5910001 4.3070002 -1.536 32
6.474 4.2020001 -1.382 38
6.5619998 4.2319999 -1.275 33
6.474 4.152 -1.135 31
6.4790001 4.1350002 -1.015 29
6.4239998 4.2010002 -1.642 14
6.6659999 4.3260002 -1.572 32
6.507 4.1939998 -1.4069999 34
6.6269999 4.244 -1.3049999 36
6.4899998 4.1329999 -1.156 38
6.4949999 4.1149998 -1.035 32
6.4520001 4.1890001 -1.666 20
6.6539998 4.2870002 -1.586 28
6.5609999 4.197 -1.436 34
6.6370001 4.2189999 -1.325 38
6.5910001 4.165 -1.191 30
6.5190001 4.099 -1.057 31
6.4759998 4.1729999 -1.688 14
6.671 4.2649999 -1.607 22
6.7189999 4.2649999 -1.488 32
6.6209998 4.1750002 -1.339 37
6.6030002 4.1399999 -1.21 39
6.6030002 4.118 -1.0880001 31
6.5380001 4.1789999 -1.72 10
6.6750002 4.2329998 -1.624 11
6.8720002 4.3270001 -1.538 31
6.658 4.164 -1.363 29
6.6350002 4.125 -1.233 31
6.6700001 4.1259999 -1.1160001 28
6.553 4.1539998 -1.739 9
6.6129999 4.1589999 -1.624 7
6.8959999 4.3049998 -1.5599999 33
6.6739998 4.1389999 -1.381 33
6.665 4.1079998 -1.2539999 36
6.6560001 4.0809999 -1.1289999 31
6.5370002 4.1079998 -1.749 12
6.6290002 4.132 -1.643 7
6.8759999 4.2550001 -1.5700001 32
6.7119999 4.125 -1.405 34
6.7680001 4.1350002 -1.29 37
6.6859999 4.0619998 -1.15 33
6.4970002 4.0450001 -1.752 13
6.665 4.1170001 -1.666 8
6.8889999 4.223 -1.5880001 33
6.8460002 4.1690001 -1.448 39
6.7600002 4.0910001 -1.303 35
6.7280002 4.0489998 -1.1720001 31
6.4720001 3.9920001 -1.758 11
6.7150002 4.1079998 -1.691 9
6.8800001 4.177 -1.6 31
6.8979998 4.1589999 -1.473 31
6.8109999 4.0819998 -1.327 31
6.9109998 4.119 -1.219 30
6.4289999 3.9260001 -1.758 10
6.743 4.085 -1.712 8
6.8870001 4.1399999 -1.615 23
7.0079999 4.184 -1.51 38
7.2610002 4.309 -1.429 47
6.8610001 4.0479999 -1.224 26
6.3629999 3.8469999 -1.751 10
6.7859998 4.0689998 -1.735 10
6.8600001 4.0819998 -1.6210001 10
7.0149999 4.145 -1.525 26
6.9899998 4.105 -1.3890001 27
6.9120002 4.0349998 -1.247 31
6.3169999 3.779 -1.749 9
6.7870002 4.026 -1.7460001 11
6.888 4.0549998 -1.64 11
7.0300002 4.1100001 -1.541 31
7.0650001 4.1040001 -1.4170001 37
7.0339999 4.0619998 -1.2819999 36
6.2930002 3.724 -1.752 9
6.7309999 3.95 -1.742 13
6.9200001 4.0289998 -1.659 10
7.0710001 4.0890002 -1.561 35
7.0279999 4.0380001 -1.4220001 35
6.9840002 3.9879999 -1.285 30
6.2449999 3.654 -1.748 10
6.6999998 3.888 -1.744 13
6.9689999 4.0120001 -1.681 10
7.1560001 4.0900002 -1.591 27
7.0489998 4.0040002 -1.437 33
7.1170001 4.0180001 -1.321 34
6.2280002 3.602 -1.751 10
6.6479998 3.813 -1.74 14
7.0190001 3.994 -1.7029999 10
7.2030001 4.0700002 -1.612 23
7.1560001 4.0159998 -1.47 37
7.1240001 3.9749999 -1.334 34
6.2030001 3.546 -1.752 10
6.6009998 3.7409999 -1.7359999 11
7.0749998 3.9779999 -1.726 11
7.1919999 4.0149999 -1.619 12
7.3930001 4.0999999 -1.528 25
7.3629999 4.059 -1.3890001 32
6.171 3.484 -1.749 11
6.6059999 3.698 -1.745 10
7.0879998 3.937 -1.738 11
7.164 3.95 -1.622 9
7.3639998 4.033 -1.5319999 26
7.3210001 3.9849999 -1.391 32
6.1690001 3.4389999 -1.755 12
6.5830002 3.6389999 -1.7460001 10
7.0760002 3.881 -1.742 13
7.211 3.9260001 -1.641 11
7.5580001 4.0869999 -1.581 31
7.2610002 3.902 -1.388 28
6.1529999 3.3870001 -1.756 10
6.5619998 3.5810001 -1.747 10
7.0500002 3.816 -1.743 14
7.2589998 3.901 -1.659 10
7.5050001 4.006 -1.5779999 32
7.316 3.8800001 -1.4069999 31
6.1300001 3.3299999 -1.7539999 11
6.5289998 3.516 -1.743 12
7.026 3.753 -1.743 14
7.3210001 3.882 -1.681 10
7.5229998 3.9619999 -1.59 28
7.4070001 3.8759999 -1.432 22
6.1220002 3.2809999 -1.756 11
6.5240002 3.4660001 -1.747 12
7.0040002 3.691 -1.743 13
7.381 3.8610001 -1.7 9
7.5609999 3.928 -1.604 17
7.5190001 3.881 -1.461 12
6.119 3.234 -1.7589999 9
6.5450001 3.4289999 -1.756 10
6.9629998 3.619 -1.738 12
7.4400001 3.8369999 -1.72 11
7.5469999 3.8659999 -1.607 12
7.921 4.0310001 -1.546 19
6.1170001 3.187 -1.761 9
6.5440001 3.3800001 -1.7589999 10
6.9250002 3.5480001 -1.732 12
7.4749999 3.8 -1.732 12
7.5689998 3.8210001 -1.617 12
8.0900002 4.0580001 -1.584 14
6.1539998 3.1600001 -1.774 9
6.4780002 3.2969999 -1.745 10
6.9250002 3.4960001 -1.7359999 12
7.4759998 3.7449999 -1.737 14
7.6100001 3.786 -1.631 9
8.4390001 4.171 -1.658 14
6.1059999 3.089 -1.762 10
6.5279999 3.273 -1.76 10
6.9239998 3.4430001 -1.738 12
7.4640002 3.684 -1.737 14
7.6719999 3.7590001 -1.648 9
8.4860001 4.131 -1.6720001 15
6.105 3.0409999 -1.762 10
6.5180001 3.2179999 -1.7589999 9
6.9229999 3.3900001 -1.74 12
7.467 3.6289999 -1.74 14
7.75 3.7390001 -1.6670001 10
8.4879999 4.0679998 -1.676 14
6.105 2.994 -1.763 10
6.4920001 3.1559999 -1.753 11
6.9229999 3.3380001 -1.7410001 12
7.461 3.569 -1.7410001 13
7.8239999 3.7160001 -1.6849999 16
8.5010004 4.0110002 -1.682 14
6.1199999 2.9549999 -1.767 10
6.4910002 3.1059999 -1.752 11
6.941 3.293 -1.7460001 10
7.4239998 3.494 -1.733 13
7.927 3.7049999 -1.709 23
8.5139999 3.9519999 -1.686 13
6.1230001 2.908 -1.767 10
6.4819999 3.0510001 -1.75 10
6.9330001 3.2360001 -1.744 11
7.4190001 3.4349999 -1.732 12
7.98 3.668 -1.721 13
8.5159998 3.888 -1.688 13
6.1399999 2.8670001 -1.771 10
6.5019999 3.0090001 -1.7539999 10
6.9380002 3.184 -1.744 12
7.4050002 3.372 -1.728 13
7.9970002 3.6140001 -1.724 16
8.5310001 3.8299999 -1.6900001 12
6.1420002 2.8199999 -1.7690001 10
6.5110002 2.9630001 -1.7539999 10
6.9450002 3.1329999 -1.745 11
7.4330001 3.3269999 -1.734 12
7.9889998 3.55 -1.722 16
8.5360003 3.766 -1.691 12
6.152 2.776 -1.7690001 10
6.527 2.918 -1.756 11
6.96 3.086 -1.7460001 11
7.4330001 3.2690001 -1.732 11
8.0050001 3.4949999 -1.724 16
8.5550003 3.7090001 -1.694 12
6.171 2.7360001 -1.772 9
6.5879998 2.8940001 -1.77 10
6.9660001 3.0339999 -1.744 12
7.4590001 3.2219999 -1.735 12
8.0039997 3.4319999 -1.721 15
8.5710001 3.6489999 -1.694 11
6.1869998 2.6930001 -1.772 10
6.552 2.826 -1.756 10
6.9759998 2.983 -1.743 11
7.473 3.1700001 -1.734 12
8.0340004 3.382 -1.724 13
8.5970001 3.5940001 -1.696 11
6.1999998 2.6500001 -1.771 10
6.572 2.783 -1.757 10
7.0419998 2.9560001 -1.756 11
7.4809999 3.115 -1.732 11
8.0369997 3.322 -1.721 13
8.6210003 3.5369999 -1.697 11
6.2249999 2.6110001 -1.773 10
6.5939999 2.7409999 -1.758 10
7.0419998 2.901 -1.751 11
7.5209999 3.0739999 -1.7359999 12
8.0179996 3.2520001 -1.711 12
8.6420002 3.4790001 -1.696 13
6.2509999 2.572 -1.775 11
6.625 2.701 -1.761 11
7.0500002 2.849 -1.747 12
7.5419998 3.023 -1.735 11
8.0500002 3.2019999 -1.712 15
8.6890001 3.431 -1.7 18
6.2589998 2.526 -1.771 9
6.6389999 2.654 -1.757 11
7.0819998 2.8069999 -1.748 11
7.5650001 2.973 -1.735 11
8.0690002 3.1470001 -1.71 14
8.7279997 3.378 -1.7 15
6.29 2.4879999 -1.772 11
6.6719999 2.615 -1.7589999 11
7.1100001 2.7609999 -1.748 11
7.5970001 2.9260001 -1.735 11
8.1199999 3.1029999 -1.714 12
8.7639999 3.325 -1.7 15
6.3210001 2.45 -1.774 11
6.7049999 2.575 -1.76 11
7.1539998 2.723 -1.751 12
7.6360002 2.882 -1.735 11
8.1470003 3.05 -1.711 12
8.8050003 3.2720001 -1.7 15
6.3540001 2.4130001 -1.774 11
6.7319999 2.5320001 -1.7589999 10
7.184 2.678 -1.75 11
7.6869998 2.842 -1.738 12
8.1940002 3.0050001 -1.712 12
8.8459997 3.2190001 -1.698 16
6.3860002 2.3740001 -1.774 10
6.7729998 2.4949999 -1.76 10
7.224 2.6370001 -1.75 12
7.7350001 2.799 -1.739 12
8.257 2.964 -1.715 12
8.8900003 3.1670001 -1.696 15
6.4219999 2.3369999 -1.775 10
6.8509998 2.4690001 -1.771 10
7.283 2.602 -1.7539999 11
7.7579999 2.7479999 -1.734 13
8.3000002 2.9159999 -1.7130001 13
8.9399996 3.1170001 -1.6950001 14
6.4559999 2.299 -1.774 11
6.849 2.415 -1.76 10
7.3330002 2.563 -1.756 11
7.8119998 2.707 -1.735 12
8.3430004 2.8670001 -1.711 12
8.9969997 3.0680001 -1.694 14
6.494 2.2620001 -1.774 10
6.927 2.3889999 -1.7690001 10
7.3569999 2.5150001 -1.75 12
7.855 2.661 -1.732 12
8.401 2.823 -1.71 12
9.052 3.0179999 -1.691 14
6.5339999 2.224 -1.773 10
6.9330001 2.3369999 -1.758 11
7.4070001 2.4749999 -1.75 12
7.921 2.6229999 -1.735 12
8.4820004 2.7850001 -1.7130001 13
9.1160002 2.97 -1.689 13
6.5749998 2.188 -1.772 11
7.0229998 2.3139999 -1.7690001 10
7.4860001 2.444 -1.755 11
7.9720001 2.579 -1.732 12
8.5410004 2.74 -1.711 13
9.2010002 2.928 -1.6900001 13
6.6300001 2.154 -1.774 11
7.0799999 2.277 -1.77 10
7.526 2.398 -1.75 13
8.0430002 2.5409999 -1.733 12
8.6070004 2.6960001 -1.709 12
9.2749996 2.882 -1.687 13
6.6729999 2.1170001 -1.772 11
7.1240001 2.2379999 -1.766 10
7.592 2.362 -1.751 12
8.1120005 2.5020001 -1.733 12
8.691 2.6570001 -1.71 13
9.368 2.842 -1.687 13
6.7309999 2.0840001 -1.773 11
7.1810002 2.201 -1.766 10
7.6669998 2.3280001 -1.753 11
8.1809998 2.4619999 -1.7309999 12
8.7679996 2.6159999 -1.7079999 13
9.4630003 2.8 -1.686 14
6.7810001 2.0480001 -1.771 10
7.2360001 2.1630001 -1.7640001 10
7.7309999 2.29 -1.751 11
8.2600002 2.424 -1.7309999 12
8.8520002 2.575 -1.706 13
9.5559998 2.756 -1.683 13
6.8400002 2.0139999 -1.771 10
7.2950001 2.1259999 -1.762 10
7.8039999 2.2520001 -1.75 12
8.3559999 2.3889999 -1.733 13
8.9530001 2.5369999 -1.706 13
9.6689997 2.717 -1.683 14
6.9450002 1.992 -1.781 9
7.3720002 2.092 -1.763 10
7.8759999 2.214 -1.748 12
8.434 2.349 -1.729 13
9.0389996 2.4949999 -1.7029999 13
9.7919998 2.6800001 -1.683 13
6.9819999 1.95 -1.774 10
7.4299998 2.0539999 -1.7589999 10
7.9549999 2.178 -1.747 12
8.5279999 2.313 -1.729 13
9.1540003 2.46 -1.7029999 13
9.9069996 2.6400001 -1.6799999 13
7.079 1.925 -1.78 10
7.5120001 2.0209999 -1.7589999 10
8.0369997 2.141 -1.745 12
8.625 2.276 -1.728 14
9.2679996 2.424 -1.702 13
10.037 2.6029999 -1.679 14
7.1490002 1.891 -1.779 10
7.5809999 1.985 -1.756 10
8.1140003 2.1029999 -1.7410001 11
8.7220001 2.2390001 -1.725 13
9.3970003 2.3900001 -1.702 13
10.18 2.5669999 -1.677 13
7.2280002 1.859 -1.779 10
7.6680002 1.952 -1.755 10
8.2110004 2.069 -1.74 12
8.8269997 2.2019999 -1.723 13
9.5100002 2.3510001 -1.698 13
10.34 2.5339999 -1.677 14
7.2709999 1.817 -1.7690001 11
7.7649999 1.92 -1.756 11
8.3030005 2.0320001 -1.737 12
8.9329996 2.165 -1.719 13
9.6549997 2.3180001 -1.698 14
10.485 2.4949999 -1.673 15
7.3740001 1.79 -1.773 10
7.848 1.8839999 -1.752 10
8.4209995 2.0009999 -1.738 12
9.0450001 2.128 -1.716 13
9.8050003 2.2850001 -1.697 15
10.652 2.4590001 -1.67 15
7.4759998 1.761 -1.775 10
7.9489999 1.852 -1.751 10
8.5299997 1.966 -1.735 12
9.1820002 2.095 -1.715 12
9.9499998 2.2490001 -1.694 15
10.844 2.428 -1.67 15
7.5599999 1.727 -1.772 10
8.0530005 1.819 -1.75 11
8.6479998 1.933 -1.733 12
9.3330002 2.0650001 -1.715 12
10.108 2.2149999 -1.692 14
11.04 2.3959999 -1.668 14
7.6500001 1.693 -1.7690001 10
8.1719999 1.789 -1.75 11
8.757 1.896 -1.729 12
9.4700003 2.03 -1.712 12
10.29 2.184 -1.691 14
11.238 2.362 -1.664 14
7.7550001 1.6619999 -1.768 11
8.2740002 1.7539999 -1.7460001 11
8.9020004 1.867 -1.729 12
9.6289997 1.998 -1.71 13
10.468 2.151 -1.688 14
11.475 2.335 -1.664 14
7.8579998 1.63 -1.765 11
8.3920002 1.721 -1.743 11
9.0380001 1.834 -1.726 12
9.7849998 1.964 -1.706 14
10.665 2.119 -1.6849999 14
11.714 2.3050001 -1.661 13
7.9629998 1.597 -1.762 11
8.5249996 1.6900001 -1.742 11
9.1940002 1.802 -1.725 13
9.9549999 1.931 -1.7029999 14
10.869 2.0869999 -1.682 13
11.984 2.2780001 -1.66 11
8.0819998 1.566 -1.76 11
8.6569996 1.658 -1.739 11
9.3579998 1.772 -1.724 12
10.156 1.902 -1.7029999 13
11.108 2.0580001 -1.681 14
12.269 2.2509999 -1.658 13
8.2030001 1.534 -1.757 11
8.7959995 1.626 -1.7359999 12
9.5190001 1.739 -1.72 13
10.343 1.869 -1.698 13
11.334 2.026 -1.676 14
12.571 2.224 -1.655 15
8.3380003 1.503 -1.755 11
8.9530001 1.594 -1.734 12
9.698 1.7079999 -1.717 14
10.553 1.8380001 -1.6950001 13
11.604 1.999 -1.674 13
12.899 2.198 -1.653 14
8.4720001 1.471 -1.752 12
9.1059999 1.562 -1.73 12
9.8889999 1.676 -1.714 13
10.792 1.809 -1.694 13
11.881 1.97 -1.671 14
13.257 2.174 -1.65 13
8.625 1.441 -1.751 11
9.2860003 1.533 -1.73 11
10.092 1.647 -1.712 13
11.019 1.777 -1.688 13
12.174 1.941 -1.6670001 15
13.618 2.148 -1.645 13
8.7799997 1.411 -1.748 11
9.4700003 1.503 -1.727 12
10.304 1.615 -1.709 14
11.303 1.751 -1.689 14
12.502 1.915 -1.664 14
14.005 2.122 -1.638 13
8.9350004 1.378 -1.744 12
9.6610003 1.472 -1.724 13
10.523 1.584 -1.704 13
11.584 1.723 -1.6849999 13
12.862 1.89 -1.6619999 15
14.399 2.092 -1.6289999 14
9.1020002 1.347 -1.74 12
9.849 1.439 -1.7180001 12
10.771 1.554 -1.701 13
11.874 1.693 -1.6799999 15
13.234 1.865 -1.658 14
14.825 2.0650001 -1.618 13
9.2930002 1.317 -1.738 12
10.075 1.41 -1.717 11
11.033 1.525 -1.698 12
12.165 1.66 -1.673 14
13.641 1.84 -1.654 12
15.298 2.04 -1.609 13
9.4849997 1.288 -1.735 12
10.304 1.38 -1.7130001 12
11.325 1.497 -1.696 13
12.545 1.637 -1.673 16
14.065 1.813 -1.647 12
15.834 2.016 -1.599 12
9.6929998 1.257 -1.732 13
10.548 1.349 -1.709 11
11.621 1.467 -1.691 13
12.898 1.608 -1.6670001 13
