# .PCD v0.7 - Point Cloud Data file format
VERSION 0.7
FIELDS x y z intensity
SIZE 4 4 4 4
TYPE F F F F
COUNT 1 1 1 1
WIDTH 1844
HEIGHT 1
VIEWPOINT 0 0 0 1 0 0 0
POINTS 1844
DATA ascii
7.0279999 -1.038 -1.847 12
7.618 -1.122 -1.851 12
8.25 -1.211 -1.842 11
8.9940004 -1.318 -1.835 11
9.8789997 -1.444 -1.8279999 10
6.7309999 -0.98400003 -1.854 12
7.2420001 -1.0549999 -1.85 13
7.8579998 -1.141 -1.852 11
8.5170002 -1.233 -1.841 11
9.3070002 -1.344 -1.834 11
10.234 -1.475 -1.823 11
6.9190001 -0.99599999 -1.854 12
7.4499998 -1.069 -1.848 12
8.0830002 -1.156 -1.846 11
8.79 -1.253 -1.8380001 11
9.6309996 -1.37 -1.83 11
10.62 -1.507 -1.819 12
7.105 -1.007 -1.851 12
7.697 -1.087 -1.853 11
8.3190002 -1.17 -1.84 11
9.0810003 -1.274 -1.834 10
9.9770002 -1.396 -1.826 11
11.013 -1.5369999 -1.8099999 12
7.3200002 -1.02 -1.853 12
7.9109998 -1.098 -1.847 11
8.5939999 -1.189 -1.84 11
9.3940001 -1.296 -1.832 11
10.345 -1.423 -1.823 12
11.449 -1.571 -1.8049999 11
7.5170002 -1.03 -1.848 12
8.1490002 -1.1109999 -1.844 11
8.8640003 -1.204 -1.835 11
9.7270002 -1.318 -1.83 11
10.73 -1.449 -1.817 12
11.898 -1.603 -1.795 12
7.7659998 -1.044 -1.853 11
8.3879995 -1.123 -1.839 11
9.1669998 -1.223 -1.834 10
10.071 -1.339 -1.825 11
11.126 -1.474 -1.809 12
12.402 -1.6390001 -1.789 13
7.9829998 -1.052 -1.847 11
8.6590004 -1.136 -1.836 11
9.4919996 -1.2410001 -1.8329999 11
10.438 -1.36 -1.8200001 12
11.555 -1.5 -1.801 12
12.924 -1.673 -1.778 12
8.2270002 -1.062 -1.844 11
8.9350004 -1.148 -1.832 10
9.8219995 -1.257 -1.829 11
10.831 -1.381 -1.814 12
12.029 -1.528 -1.793 12
13.523 -1.7130001 -1.771 11
8.474 -1.0700001 -1.84 11
9.2390003 -1.161 -1.831 11
10.171 -1.273 -1.825 12
11.222 -1.399 -1.8049999 13
12.524 -1.556 -1.786 12
14.177 -1.756 -1.7640001 11
8.7449999 -1.079 -1.8380001 11
9.5509996 -1.173 -1.827 11
10.525 -1.2869999 -1.817 12
11.659 -1.419 -1.798 12
13.071 -1.586 -1.778 11
14.889 -1.8 -1.756 10
9.04 -1.0880001 -1.837 11
9.8739996 -1.183 -1.821 11
10.919 -1.302 -1.811 13
12.123 -1.4400001 -1.789 12
13.646 -1.614 -1.767 10
15.667 -1.847 -1.748 11
9.3360004 -1.095 -1.8329999 11
10.233 -1.194 -1.818 12
11.327 -1.316 -1.804 13
12.637 -1.461 -1.7819999 11
14.317 -1.649 -1.76 11
16.497999 -1.893 -1.734 10
9.6490002 -1.101 -1.8279999 11
10.603 -1.2029999 -1.812 13
11.762 -1.3279999 -1.795 12
13.182 -1.482 -1.773 11
15.041 -1.684 -1.753 11
17.447001 -1.9450001 -1.723 11
9.9870005 -1.107 -1.825 11
10.987 -1.211 -1.806 14
12.228 -1.341 -1.7869999 12
13.769 -1.503 -1.7640001 11
15.813 -1.7180001 -1.743 9
18.452 -1.9960001 -1.707 12
10.342 -1.112 -1.821 11
11.398 -1.2180001 -1.799 12
12.735 -1.354 -1.779 11
14.45 -1.528 -1.7589999 11
16.655001 -1.753 -1.732 10
19.514999 -2.0450001 -1.6849999 14
10.699 -1.114 -1.814 13
11.829 -1.223 -1.789 13
13.279 -1.365 -1.77 11
15.158 -1.55 -1.75 10
17.6 -1.791 -1.721 11
20.676001 -2.0940001 -1.658 15
11.081 -1.114 -1.806 13
12.294 -1.228 -1.781 12
13.893 -1.38 -1.765 11
15.941 -1.574 -1.7410001 9
18.620001 -1.8279999 -1.705 13
22.006001 -2.1489999 -1.63 17
11.485 -1.113 -1.798 12
12.798 -1.232 -1.774 12
14.521 -1.3890001 -1.7539999 11
16.75 -1.5930001 -1.727 10
19.629 -1.8559999 -1.679 14
23.461 -2.2060001 -1.598 17
11.937 -1.113 -1.793 11
13.354 -1.2359999 -1.767 11
15.272 -1.404 -1.75 11
17.701 -1.617 -1.717 11
20.809999 -1.89 -1.656 15
25.094 -2.2650001 -1.561 12
12.394 -1.109 -1.784 10
13.917 -1.2359999 -1.756 11
15.983 -1.409 -1.734 9
18.660999 -1.6339999 -1.698 13
22.17 -1.927 -1.63 18
26.973 -2.329 -1.517 9
12.897 -1.104 -1.776 11
14.561 -1.2359999 -1.748 11
16.830999 -1.418 -1.725 10
19.719 -1.649 -1.677 14
23.566999 -1.957 -1.596 20
29.083 -2.3989999 -1.469 8
13.429 -1.096 -1.768 11
15.248 -1.235 -1.739 11
17.756001 -1.425 -1.715 11
20.870001 -1.6619999 -1.652 16
25.094 -1.982 -1.553 11
31.563 -2.4749999 -1.4119999 7
14.004 -1.087 -1.7589999 11
16.002001 -1.23 -1.729 11
18.709 -1.425 -1.6950001 13
22.110001 -1.67 -1.622 17
26.931999 -2.017 -1.512 11
34.199001 -2.5409999 -1.336 6
14.638 -1.075 -1.751 11
16.802999 -1.222 -1.717 10
19.709999 -1.42 -1.673 14
23.565001 -1.682 -1.594 18
29.181 -2.0650001 -1.475 9
0 0 0 0
15.322 -1.061 -1.743 11
17.688 -1.212 -1.705 11
20.857 -1.415 -1.652 15
25.115999 -1.686 -1.558 12
31.361 -2.085 -1.41 8
42.147999 -2.7750001 -1.178 5
16.037001 -1.0420001 -1.7309999 11
18.621 -1.196 -1.689 12
22.094999 -1.403 -1.625 17
26.84 -1.687 -1.516 10
33.967999 -2.1099999 -1.34 5
43.883999 -2.697 -0.98699999 6
16.854 -1.021 -1.724 10
19.577999 -1.171 -1.666 14
23.445999 -1.386 -1.5930001 18
28.893 -1.687 -1.472 10
36.442001 -2.1010001 -1.237 2
48.465 -2.7620001 -0.82800001 67
17.693001 -0.99299997 -1.71 11
20.709 -1.146 -1.646 15
25 -1.365 -1.561 13
31.048 -1.6720001 -1.4119999 7
0 0 0 0
49.966999 -2.6199999 -0.58700001 45
18.591 -0.958 -1.693 13
21.857 -1.109 -1.618 17
26.610001 -1.33 -1.518 9
33.247002 -1.638 -1.335 6
44.091 -2.1400001 -1.028 12
51.832001 -2.4779999 -0.338 13
19.525 -0.91500002 -1.671 14
23.121 -1.066 -1.587 18
28.593 -1.2970001 -1.479 8
36.014 -1.607 -1.258 4
45.411999 -1.993 -0.82499999 1
55.655998 -2.401 -0.079000004 11
20.538 -0.86799997 -1.65 15
24.493 -1.016 -1.554 14
30.358 -1.235 -1.414 8
0 0 0 0
49.019001 -1.921 -0.64300001 68
55.827999 -2.1459999 0.2 12
21.638 -0.81199998 -1.625 17
26.247 -0.963 -1.528 9
32.542 -1.168 -1.349 7
44.127998 -1.55 -1.092 15
50.002998 -1.717 -0.40200001 3
0 0 0 0
22.892 -0.74900001 -1.602 17
27.881001 -0.889 -1.483 9
34.700001 -1.0779999 -1.265 4
45.602001 -1.38 -0.90100002 5
53.886002 -1.589 -0.17 5
54.208 -1.5549999 0.72899997 52
24.25 -0.67400002 -1.573 18
29.645 -0.80000001 -1.429 9
0 0 0 0
48.226002 -1.221 -0.71799999 63
54.382999 -1.332 0.093000002 2
54.311001 -1.285 0.99299997 36
25.716 -0.58600003 -1.541 15
31.551001 -0.69300002 -1.365 7
42.624001 -0.89899999 -1.135 7
49.389 -1.002 -0.498 17
84.226997 -1.6390001 0.54500002 7
54.410999 -1.013 1.252 53
27.313 -0.48300001 -1.501 9
33.741001 -0.56800002 -1.296 6
44.401001 -0.70999998 -0.97000003 7
49.908001 -0.755 -0.264 1
54.549 -0.77999997 0.61000001 12
54.502998 -0.73299998 1.508 38
29.049 -0.36500001 -1.4579999 8
35.841 -0.41800001 -1.206 4
48.158001 -0.52200001 -0.82599998 55
54.650002 -0.542 -0.034000002 9
54.662998 -0.49599999 0.86400002 37
81.447998 -0.66799998 2.628 12
30.896999 -0.226 -1.405 8
39.243 -0.25299999 -1.138 2
48.859001 -0.27200001 -0.61199999 59
79.216003 -0.37099999 0.30899999 8
54.765999 -0.207 1.114 54
80.305 -0.229 2.9549999 52
32.523998 -0.064000003 -1.327 6
42.794998 -0.046 -1.043 4
49.352001 -0.0099999998 -0.39300001 13
80.685997 0.056000002 0.68000001 18
57.591999 0.092 1.429 2
80.582001 0.206 3.3239999 36
34.790001 0.119 -1.261 6
45.034 0.19400001 -0.89499998 59
0 0 0 0
45.516998 0.28 0.58499998 1
45.362999 0.31999999 1.324 40
81.362 0.64999998 3.7060001 46
0 0 0 0
45.236 0.44100001 -0.70200002 72
45.339001 0.48300001 0.035 109
45.390999 0.52600002 0.77600002 39
45.313999 0.56599998 1.5140001 40
45.275002 0.61199999 2.2550001 41
39.457001 0.56599998 -1.085 1
45.414001 0.69400001 -0.509 41
60.243999 0.97600001 0.30399999 3
52.514 0.89899999 1.119 2
92.973 1.682 3.497 8
92.421997 1.762 4.9829998 16
43.080002 0.85799998 -1.003 3
49.728001 1.038 -0.34900001 2
51.599998 1.125 0.47400001 5
51.917999 1.182 1.321 12
95.800003 2.279 3.9990001 12
80.139999 1.983 4.6469998 4
44.894001 1.149 -0.85799998 4
0 0 0 0
50.75 1.395 0.67299998 51
50.976002 1.45 1.502 5
90.82 2.671 4.1479998 8
80.200996 2.4400001 4.967 47
48.772999 1.525 -0.73699999 68
55.749001 1.7970001 0.057999998 55
50.532001 1.679 0.87 57
51.235001 1.756 1.7130001 3
71.704002 2.527 3.559 28
92.656998 3.362 6.1020002 18
50.166 1.86 -0.55800003 21
52.147999 1.985 0.259 32
50.798 1.984 1.073 70
50.646 2.0280001 1.887 4
71.249001 2.927 3.8069999 9
91.337997 3.849 6.3610001 21
51.981998 2.2309999 -0.37900001 19
50.93 2.237 0.447 25
50.652 2.2780001 1.262 43
70.128998 3.2260001 2.8789999 28
70.747002 3.329 4.0469999 8
66.436996 3.198 4.8759999 6
51.095001 2.5009999 -0.177 15
50.610001 2.53 0.63700002 39
50.872002 2.5929999 1.4579999 21
70.262001 3.6559999 3.145 29
91.526001 4.8600001 5.573 6
68.532997 3.7119999 5.2789998 6
54.995998 3.0220001 0.0099999998 59
50.686001 2.835 0.81999999 69
50.383999 2.869 1.623 5
70.545998 4.092 3.4070001 30
66.441002 3.9260001 4.2789998 4
67.779999 4.0780001 5.4580002 8
55.018002 3.352 0.20299999 55
50.469002 3.1270001 0.99299997 58
70.518997 4.4429998 2.5179999 29
66.464996 4.2620001 3.4419999 13
67.092003 4.3759999 4.5539999 6
65.324997 4.3330002 5.4860001 3
50.830002 3.411 0.366 1
50.629002 3.448 1.171 46
70.802002 4.8979998 2.7709999 13
90.918999 6.3850002 5.0139999 17
92.402 6.5929999 6.5799999 25
66.902 4.848 5.8400002 3
50.776001 3.7179999 0.53500003 5
50.846001 3.777 1.345 15
66.392998 5.0040002 2.8169999 41
66.401001 5.0799999 3.882 28
65.816002 5.1079998 4.9029999 7
92.342003 7.2750001 8.3660002 8
50.973 4.052 0.704 8
50.709 4.085 1.507 9
93.277 7.6170001 4.2600002 6
66.762001 5.527 4.1160002 8
106.605 8.9440002 8.2799997 29
65.670998 5.5879998 6.1560001 23
0 0 0 0
103.862 9.026 3.415 39
101.945 8.9720001 4.9749999 28
66.917 5.9629998 4.3330002 20
106.106 9.5790005 8.5699997 32
65.936996 6.033 6.3850002 4
110.028 10.148 2.2079999 22
102.131 9.5299997 3.6689999 7
105.258 9.9350004 5.454 35
105.716 10.096 7.1620002 30
67.667999 6.5450001 5.6690001 9
69.661003 6.8239999 6.9549999 10
0 0 0 0
100.727 10.045 3.915 28
105.462 10.632 5.7729998 45
101.334 10.334 7.1620002 13
69.696999 7.1919999 6.04 17
65.847 6.8769999 6.763 3
78.127998 8.2119999 2.023 14
100.253 10.648 4.1810002 45
101.512 10.898 5.8439999 49
101.799 11.052 7.4840002 50
68.865997 7.5580001 6.1620002 6
65.472 7.2690001 6.908 20
78.634003 8.7819996 2.2539999 31
101.667 11.467 4.52 46
101.181 11.529 6.1030002 48
102.526 11.8 7.8130002 14
69.017998 8.0290003 6.362 12
65.261002 7.678 7.0630002 22
76.697998 9.073 2.405 26
103.471 12.357 4.8759999 11
46.705002 5.632 2.9400001 13
67.843002 8.2600002 5.349 9
65.183998 8.0179996 6.1799998 5
46.574001 5.79 5.1609998 29
47.036999 5.881 1.595 2
46.901001 5.9169998 2.3310001 41
46.639 5.9380002 3.056 7
106.553 13.698 8.6739998 37
46.325001 6.0120001 4.5089998 5
45.799999 6.0040002 5.1919999 36
46.991001 6.1919999 1.71 41
47.324001 6.2870002 2.467 41
47.473999 6.3639998 3.2249999 51
47.675999 6.4510002 3.997 14
47.952999 6.5510001 4.7849998 23
67.261002 9.2790003 7.789 7
88.450996 12.256 3.4289999 63
89.242996 12.468 4.8639998 14
102.706 14.471 7.2199998 19
104.996 14.925 9.0469999 36
0 0 0 0
48 6.9510002 5.671 5
88.357002 12.852 3.6259999 51
102.574 15.033 5.822 29
102.618 15.163 7.4450002 40
104.376 15.554 9.2279997 30
0 0 0 0
0 0 0 0
88.968002 13.547 3.8399999 31
78.709 12.075 4.6339998 6
104.251 16.121 7.7839999 34
104.315 16.259001 9.4420004 33
0 0 0 0
0 0 0 0
78.777 12.542 3.563 11
102.063 16.368 6.2189999 42
104.723 16.917999 8.033 21
105.107 17.115 9.7290001 25
0 0 0 0
0 0 0 0
88.556999 14.715 4.1760001 45
102.067 17.087999 6.4190001 54
102.247 17.243999 8.0439997 21
0 0 0 0
0 0 0 0
0 0 0 0
78.887001 13.668 3.8670001 4
101.688 17.743 6.5809999 57
102.568 18.018999 8.2550001 36
0 0 0 0
0 0 0 0
0 0 0 0
88.725998 16.006001 4.5050001 50
102.152 18.548 6.789 46
103.181 18.864 8.4849997 24
0 0 0 0
0 0 0 0
0 0 0 0
88.862999 16.665001 4.658 27
101.297 19.115999 6.8990002 33
101.827 19.339001 8.5410004 14
0 0 0 0
0 0 0 0
0 0 0 0
101.301 19.721001 5.4629998 36
100.834 19.75 7.02 41
101.129 19.938999 8.6389999 39
102.765 20.4 10.408 20
0 0 0 0
46.469002 9.3579998 6.1919999 3
100.296 20.254999 5.553 39
54.055 10.978 3.8410001 10
101.054 20.652 8.7749996 39
102.793 21.146 10.556 40
0 0 0 0
47.193001 9.849 6.3579998 12
100.601 21.048 5.704 47
53.866001 11.334 3.8989999 37
52.569 11.128 4.6350002 5
102.964 21.937 10.713 11
0 0 0 0
47.884998 10.342 6.5149999 18
27.4 5.9320002 1.586 1
52.853001 11.503 3.8889999 24
52.700001 11.537 4.71 5
102.978 22.688999 10.843 14
0 0 0 0
47.021 10.501 6.4569998 43
52.703999 11.797 3.1099999 66
54.358002 12.23 4.0619998 31
102.925 23.290001 9.316 11
0 0 0 0
46.963001 10.76 5.7470002 19
47.532001 10.962 6.5809999 18
52.820999 12.213 3.171 39
52.846001 12.283 4.0029998 28
70.486 16.469999 6.4530001 5
0 0 0 0
45.987999 10.877 5.6760001 79
45.318001 10.788 6.323 14
52.645 12.562 3.207 32
52.841999 12.67 4.0500002 37
51.736 12.471 4.783 6
47.416 11.496 5.138 20
45.793999 11.173 5.6960001 60
45.145 11.088 6.342 32
52.808998 12.998 3.2590001 61
52.789001 13.056 4.0879998 25
47.931999 11.917 4.4710002 24
47.664001 11.917 5.204 11
47.098999 11.846 5.8990002 47
43.722 11.067 6.1799998 4
47.77 12.118 2.9820001 39
47.868999 12.2 3.7409999 13
68.68 17.594 6.4559999 42
70.434998 18.139 7.743 4
47 12.175 5.9200001 3
44.651001 11.636 6.3439999 41
53.542 13.985 3.3740001 55
53.445999 14.024 4.21 9
47.880001 12.626 4.5300002 44
47.854 12.684 5.2909999 33
50.493 13.46 6.3930001 18
44.316002 11.884 6.3270001 65
53.474998 14.37 3.395 69
53.951 14.56 4.276 10
56.030998 15.197 5.329 43
47.393002 12.923 5.2659998 1
45.002998 12.34 5.723 44
44.469002 12.264 6.3740001 76
53.092999 14.673 3.391 20
53.522999 14.853 4.263 18
56.07 15.633 5.3569999 15
0 0 0 0
44.950001 12.669 5.7360001 49
45.217999 12.817 6.5029998 50
57.369999 16.295 3.6800001 40
56.140999 16.01 4.4879999 8
57.995998 16.611 5.559 9
50.916 14.656 5.6950002 5
0 0 0 0
44.912998 13.07 6.474 47
79.996002 23.322001 5.145 15
57.432999 16.812 4.6020002 6
57.863998 17.014 5.5570002 10
50.784 15.004 5.6900001 58
46.407001 13.784 5.9499998 4
44.443001 13.273 6.4190001 50
79.240997 23.712999 5.1020002 16
80.182999 24.09 6.4320002 25
0 0 0 0
52.286999 15.854 5.8649998 3
45.717999 13.931 5.8660002 29
44.252998 13.561 6.3990002 53
0 0 0 0
78.890999 24.308001 6.3280001 5
0 0 0 0
53.118999 16.511999 5.961 32
45.602001 14.244 5.855 20
44.376999 13.936 6.4190001 55
0 0 0 0
78.602997 24.826 6.2919998 5
0 0 0 0
52.814999 16.827 5.9229999 13
45.416 14.538 5.829 44
45.039001 14.494 6.5139999 39
0 0 0 0
0 0 0 0
0 0 0 0
49.653 16.195999 5.5599999 5
45.316002 14.852 5.8080001 48
45.301998 14.925 6.546 14
0 0 0 0
0 0 0 0
0 0 0 0
49.429001 16.507999 5.5209999 4
49.638 16.658001 6.349 18
46.018002 15.52 6.6389999 38
0 0 0 0
0 0 0 0
49.473 16.836 4.7059999 20
49.671001 16.976 5.5300002 38
46.164001 15.85 5.8899999 1
45.426998 15.673 6.54 42
65.018997 22.475 4.0689998 9
49.82 17.277 3.914 2
48.945999 17.037001 4.632 13
48.539001 16.962 5.3800001 25
46.438 16.299999 5.9029999 17
45.495998 16.046 6.5300002 4
49.459 17.48 3.062 28
49.326 17.485001 3.8440001 30
50.384998 17.924 4.7379999 7
49.791 17.784 5.4889998 19
47.959 17.202 6.0700002 15
44.610001 16.08 6.381 28
104.692 37.817001 6.4029999 16
104.928 38.013 8.1020002 34
48.805 17.739 4.5570002 4
49.271999 17.979 5.401 26
48.925999 17.929001 6.1620002 15
44.541 16.4 6.342 39
103.362 38.139999 6.23 28
103.643 38.351002 7.914 23
105.03 38.999001 9.7229996 22
0 0 0 0
44.868 16.794001 5.618 27
45.52 17.117001 6.4489999 32
103.395 38.966 6.132 33
103.615 39.153999 7.8150001 36
105.574 40.025002 9.6730003 24
106.774 40.623001 11.526 17
44.935001 17.167999 5.5890002 29
47.761002 18.330999 6.7290001 8
103.304 39.738998 6.0180001 23
104.165 40.174 7.7509999 16
104.936 40.595001 9.5139999 33
105.35 40.901001 11.272 24
45.085999 17.575001 5.5650001 24
46.566002 18.23 6.5190001 2
103.992 40.806999 5.9369998 33
51.073002 20.094 3.7409999 33
104.326 41.166 9.342 26
0 0 0 0
45.186001 17.962999 5.5289998 5
46.401001 18.528999 6.4489999 35
50.598999 20.253 2.8239999 33
50.499001 20.261999 3.638 6
50.470001 20.309999 4.4590001 29
50.226002 20.281 5.2610002 76
0 0 0 0
46.354 18.868 6.3909998 43
49.981998 20.396999 2.723 33
49.827999 20.382999 3.523 36
49.705002 20.389 4.3280001 14
110.088 45.307999 11.395 28
0 0 0 0
54.244999 22.5 7.415 30
104.586 43.492001 5.5419998 39
0 0 0 0
105.144 43.942001 9.007 30
105.172 44.095001 10.741 13
0 0 0 0
52.088001 22.007999 7.0549998 5
103.517 43.854 5.3249998 30
104.38 44.318001 7.073 31
103.971 44.257999 8.7539997 29
105.637 45.102001 10.641 13
0 0 0 0
52.110001 22.415001 6.9860001 10
104.061 44.883999 5.1810002 23
104.223 45.049999 6.8940001 24
103.358 44.785999 8.54 27
103.911 45.162998 10.304 9
54.452999 23.749001 6.3060002 14
52.534 23.002001 6.967 24
103.963 45.648998 4.9959998 9
103.693 45.623001 6.6830001 34
102.897 45.386002 8.3290005 24
0 0 0 0
51.743999 22.965 5.9109998 3
0 0 0 0
104.704 46.780998 4.835 23
104.308 46.688999 6.5349998 13
0 0 0 0
0 0 0 0
52.102001 23.523001 5.8649998 6
51.743 23.448999 6.6939998 4
104.494 47.493999 4.6240001 13
0 0 0 0
104.196 47.555 8.0559998 24
51.504002 23.568001 4.8410001 20
50.228001 23.058001 5.5630002 3
52.652 24.26 6.7179999 21
51.049999 23.598 2.154 43
50.944 23.587 2.994 22
51.276001 23.792999 3.865 20
50.900002 23.681999 4.6869998 3
0 0 0 0
0 0 0 0
107.299 50.411999 4.3000002 18
107.08 50.397999 6.0630002 18
50.387001 23.761999 3.694 10
51.084 24.15 4.6020002 19
0 0 0 0
49.412998 23.511 6.1209998 5
105.662 50.450001 4.0019999 18
107.516 51.414001 5.8600001 14
107.367 51.445999 7.645 14
49.963001 24 4.3959999 7
50.895 24.517 5.3379998 7
49.053001 23.709999 5.9770002 24
107.957 52.367001 3.8329999 10
105.893 51.438 5.5339999 18
106.915 52.034 7.3779998 18
110.399 53.852001 9.4799995 18
49.490002 24.209999 5.086 6
49.139 24.121 5.8839998 9
110.932 54.653999 3.6700001 15
104.775 51.694 5.223 27
106.935 52.848999 7.131 18
167.03 82.738998 13.956 26
56.382999 28.007 5.6669998 5
49.299999 24.568001 5.7950001 25
129.39 64.725998 3.9560001 12
104.501 52.34 4.947 31
105.428 52.898998 6.7719998 14
105.952 53.272999 8.6020002 18
56.070999 28.268 5.5050001 13
48.988998 24.775999 5.6469998 3
114.63 58.198002 3.211 17
104.168 52.945999 4.6700001 30
104.271 53.084 6.4359999 14
105.645 53.890999 8.316 18
0 0 0 0
55.817001 28.636999 6.3039999 35
105.822 54.514999 2.6800001 8
104.059 53.655998 4.395 14
104.585 54.004002 6.1929998 10
104.765 54.205002 7.9850001 35
73.330002 38.032001 6.8449998 7
55.723 28.987 6.1570001 31
0 0 0 0
103.3 54.015999 4.0809999 10
105.734 55.369999 5.9790001 18
105.153 55.171001 7.7389998 10
73.445999 38.624001 6.6659999 13
56.02 29.546 6.0479999 27
93.848 49.716 1.851 150
116.085 61.541 4.2659998 17
0 0 0 0
95.774002 50.928001 6.7919998 12
74.030998 39.456001 6.5209999 19
55.764999 29.805 5.8740001 41
85.763 46.053001 1.444 151
122.038 65.571999 4.1370001 11
104.057 55.978001 5.3060002 10
96.042 51.755001 6.5440001 8
73.888 39.901001 6.309 7
66.939003 36.247002 6.8730001 22
0 0 0 0
89.408997 48.674999 2.7609999 39
113.201 61.701 5.4419999 39
106.422 58.098999 6.9460001 15
90.083 49.284 7.4349999 25
66.505997 36.477001 6.6440001 10
0 0 0 0
88.941002 49.044998 2.48 67
121.686 67.174004 5.48 14
65.529999 36.226002 4.0830002 140
57.116001 31.641001 4.5510001 17
56.186001 31.202 5.4549999 7
56.943001 31.785 0.43099999 12
61.167999 34.157001 1.515 11
60.917 34.047001 2.559 19
56.881001 31.836 3.3729999 7
56.523998 31.698999 4.335 7
60.433998 33.972 5.6900001 44
56.675999 32.029999 0.245 17
56.841999 32.134998 1.223 60
56.823002 32.146999 2.2079999 8
56.759998 32.153 3.1900001 8
56.401001 32.007999 4.151 12
66.309998 37.720001 6.0440001 24
33.629002 19.235001 0.030999999 7
69.939003 40.007999 1.283 51
85.878998 49.16 3.0650001 65
64.977997 37.240002 3.4489999 126
56.556999 32.466999 3.99 7
55.498001 31.931 4.8870001 7
29.719999 17.198 -0.071000002 2
82.567001 47.782001 1.234 16
0 0 0 0
64.760002 37.541 3.227 48
64.839996 37.646 4.368 5
85.190002 49.568001 7.2329998 19
29.601 17.326 -0.17399999 28
0 0 0 0
0 0 0 0
0 0 0 0
0 0 0 0
56.214001 33.067001 4.5910001 10
29.671 17.559999 -0.278 49
0 0 0 0
103.089 61.02 2.6389999 45
0 0 0 0
0 0 0 0
84.475998 50.214001 6.6209998 20
29.674 17.752001 -0.38499999 58
0 0 0 0
0 0 0 0
0 0 0 0
0 0 0 0
84.581001 50.791 6.3499999 19
29.341 17.736 -0.48800001 42
29.591 17.879 0.027000001 0
0 0 0 0
0 0 0 0
0 0 0 0
0 0 0 0
28.794001 17.580999 -0.58499998 26
29.677 18.111 -0.079000004 22
0 0 0 0
0 0 0 0
0 0 0 0
171.713 105.122 11.721 30
25.596001 15.78 -0.616 3
29.421 18.127001 -0.18700001 43
0 0 0 0
0 0 0 0
0 0 0 0
0 0 0 0
23.646 14.716 -0.65799999 3
28.656 17.819 -0.28799999 40
0 0 0 0
0 0 0 0
0 0 0 0
142.479 88.82 8.7069998 16
11.892 7.4679999 -0.377 25
28.455 17.854 -0.39500001 35
28.552 17.908001 0.112 40
0 0 0 0
0 0 0 0
149.093 93.737999 8.5810003 18
11.531 7.3060002 -0.41100001 42
11.778 7.4549999 -0.20900001 21
28.247 17.868999 0.0040000002 39
28.271999 17.888 0.509 39
0 0 0 0
0 0 0 0
11.402 7.2859998 -0.45199999 40
11.522 7.3540001 -0.249 32
11.767 7.506 -0.044 0
27.936001 17.820999 0.39399999 38
28.462999 18.167 0.91299999 18
0 0 0 0
11.297 7.2779999 -0.493 40
11.402 7.336 -0.292 31
11.675 7.506 -0.089000002 29
27.709 17.813999 0.28600001 38
28.018999 18.021 0.79299998 36
0 0 0 0
11.212 7.2789998 -0.53500003 41
11.349 7.3590002 -0.336 32
11.435 7.408 -0.133 37
11.774 7.6259999 0.074000001 4
27.68 17.933001 0.676 31
28.302999 18.354 1.201 10
11.108 7.2659998 -0.57599998 42
11.2 7.3150001 -0.377 43
11.268 7.3530002 -0.175 45
11.585 7.5560002 0.028999999 34
27.466999 17.92 0.56400001 38
27.945999 18.247 1.08 39
11.029 7.2659998 -0.61699998 47
11.074 7.283 -0.417 44
11.146 7.323 -0.21799999 45
11.393 7.4809999 -0.016000001 45
27.278 17.914 0.45300001 46
27.613001 18.148001 0.95999998 45
11.03 7.316 -0.662 38
11.102 7.3509998 -0.46399999 39
11.068 7.3200002 -0.26199999 46
11.238 7.428 -0.061000001 42
11.613 7.6750002 0.146 28
27.365 18.097 0.84100002 49
11.033 7.3660002 -0.70999998 42
10.994 7.3249998 -0.50599998 39
11.073 7.369 -0.30700001 35
11.142 7.4089999 -0.105 37
11.459 7.619 0.098999999 39
27.167 18.072001 0.72799999 43
10.946 7.3520002 -0.74900001 44
10.959 7.3460002 -0.54900002 42
11.019 7.375 -0.34999999 42
11.054 7.3920002 -0.149 41
11.297 7.553 0.052000001 38
11.612 7.7659998 0.26499999 0
10.907 7.368 -0.79299998 41
10.878 7.3319998 -0.59100002 42
10.908 7.3400002 -0.39199999 43
10.985 7.3850002 -0.19400001 40
11.14 7.487 0.0060000001 40
11.484 7.7199998 0.21600001 21
10.86 7.3759999 -0.83499998 45
10.864 7.3610001 -0.63499999 42
10.911 7.381 -0.43700001 43
10.979 7.4190001 -0.23800001 35
11.029 7.4489999 -0.037999999 39
11.314 7.6430001 0.16599999 43
10.726 7.3210001 -0.87199998 40
10.854 7.3909998 -0.68099999 36
10.832 7.3629999 -0.479 45
10.901 7.401 -0.28200001 37
10.949 7.4289999 -0.082000002 42
11.186 7.5900002 0.12 40
10.448 7.165 -0.89200002 43
10.829 7.4070001 -0.72299999 41
10.795 7.3699999 -0.52200001 43
10.821 7.3769999 -0.324 42
10.906 7.4299998 -0.127 38
11.066 7.539 0.072999999 38
10.14 6.9840002 -0.91000003 44
10.763 7.3930001 -0.76499999 51
10.886 7.4619999 -0.57300001 33
10.8 7.3930001 -0.36899999 39
10.891 7.4489999 -0.17200001 37
10.963 7.4970002 0.027000001 42
10.053 6.9520001 -0.94499999 36
10.735 7.4029999 -0.80900002 41
10.773 7.4120002 -0.61299998 37
10.778 7.4050002 -0.41299999 40
10.848 7.4450002 -0.21600001 41
10.918 7.4910002 -0.017000001 37
9.7939997 6.7969999 -0.963 40
10.694 7.4000001 -0.85100001 47
10.839 7.4829998 -0.662 38
10.745 7.4050002 -0.456 42
10.787 7.427 -0.25999999 39
10.83 7.4520001 -0.061000001 37
9.448 6.5780001 -0.97000003 39
10.549 7.322 -0.88499999 45
10.776 7.461 -0.70300001 38
10.736 7.4200001 -0.50099999 44
10.837 7.4809999 -0.30500001 38
10.793 7.447 -0.105 39
8.9399996 6.2420001 -0.95499998 36
10.321 7.1830001 -0.90899998 45
10.667 7.4050002 -0.741 42
10.731 7.4349999 -0.54500002 41
10.78 7.4590001 -0.34799999 37
10.78 7.454 -0.15000001 36
8.71 6.0960002 -0.96799999 32
10.166 7.092 -0.93900001 44
10.644 7.4050002 -0.78399998 44
10.718 7.4419999 -0.58999997 48
10.749 7.4520001 -0.39199999 34
10.814 7.4920001 -0.19499999 33
8.4209995 5.9060001 -0.972 41
10.118 7.072 -0.977 39
10.672 7.4390001 -0.83099997 38
10.675 7.4250002 -0.63200003 45
10.748 7.4640002 -0.43700001 33
10.742 7.4530001 -0.23800001 37
8.1610003 5.7340002 -0.97600001 42
9.6529999 6.7579999 -0.972 36
10.651 7.4349999 -0.87300003 48
10.715 7.4629998 -0.67900002 43
10.886 7.5689998 -0.48699999 32
10.723 7.448 -0.28200001 33
7.914 5.5679998 -0.98000002 36
9.1129999 6.388 -0.95599997 37
10.496 7.335 -0.90399998 47
10.711 7.467 -0.722 42
10.779 7.5019999 -0.52600002 41
10.798 7.506 -0.32800001 28
7.6669998 5.4000001 -0.98199999 34
8.8109999 6.1820002 -0.96100003 41
10.222 7.1479998 -0.92199999 40
10.643 7.4239998 -0.76200002 42
10.689 7.4419999 -0.56599998 44
10.803 7.5120001 -0.373 29
7.5469999 5.3179998 -0.99699998 33
8.5799999 6.0219998 -0.97100002 48
10.067 7.0419998 -0.949 40
10.662 7.4390001 -0.80599999 39
10.683 7.4390001 -0.60900003 40
10.726 7.4590001 -0.41299999 33
7.5190001 5.2989998 -1.025 30
8.2629995 5.8000002 -0.96899998 48
10.089 7.0570002 -0.99299997 39
10.676 7.447 -0.85100001 41
10.678 7.4330001 -0.65200001 41
10.793 7.5019999 -0.45899999 31
7.5320001 5.3070002 -1.057 31
7.9660001 5.5900002 -0.96700001 42
9.4460001 6.605 -0.96799999 38
10.584 7.3800001 -0.88599998 46
10.702 7.4450002 -0.69700003 44
10.799 7.5009999 -0.50300002 33
7.5560002 5.3210001 -1.091 31
7.7719998 5.4499998 -0.97399998 42
8.9549999 6.256 -0.954 37
10.351 7.21 -0.90799999 47
10.676 7.4190001 -0.73799998 43
10.737 7.4489999 -0.54299998 40
7.5619998 5.3200002 -1.123 27
7.6279998 5.3429999 -0.98699999 37
8.592 5.9959998 -0.949 40
10.137 7.052 -0.92900002 41
10.656 7.395 -0.778 42
10.716 7.4229999 -0.58399999 40
7.572 5.3200002 -1.154 34
7.5700002 5.2950001 -1.0089999 38
8.3769999 5.836 -0.958 42
10.004 6.947 -0.95700002 38
10.68 7.3979998 -0.82200003 45
10.776 7.4499998 -0.63 38
7.598 5.329 -1.188 37
7.5440001 5.2670002 -1.035 44
8.1789999 5.6880002 -0.96700001 43
9.757 6.7620001 -0.97000003 30
10.647 7.3590002 -0.861 48
10.876 7.5019999 -0.67799997 32
7.6079998 5.3239999 -1.219 36
7.553 5.2610002 -1.0650001 44
7.9569998 5.52 -0.97100002 35
9.823 6.7909999 -1.0140001 37
10.463 7.2129998 -0.88499999 41
10.801 7.4299998 -0.71399999 41
7.5780001 5.29 -1.243 35
7.5770001 5.2639999 -1.097 45
7.7690001 5.375 -0.977 37
0 0 0 0
10.273 7.0609999 -0.90799999 40
10.796 7.4039998 -0.755 41
7.5780001 5.2750001 -1.271 36
7.5869999 5.2550001 -1.127 42
7.6469998 5.2740002 -0.991 41
8.5480003 5.8740001 -0.94700003 49
10.115 6.9299998 -0.93199998 40
10.78 7.368 -0.79400003 40
7.6139998 5.2820001 -1.3049999 35
7.6389999 5.2729998 -1.163 39
7.625 5.2410002 -1.016 42
8.4329996 5.7740002 -0.96499997 39
9.8599997 6.73 -0.94499999 41
10.812 7.3610001 -0.83600003 45
7.6279998 5.2729998 -1.335 41
7.6149998 5.2360001 -1.187 37
7.631 5.224 -1.044 42
8.1700001 5.572 -0.96399999 41
9.4980001 6.4559999 -0.94400001 37
10.772 7.303 -0.87199998 40
7.6430001 5.2620001 -1.365 37
7.6690001 5.2519999 -1.222 42
7.6729999 5.2309999 -1.077 42
8.0150003 5.4419999 -0.97399998 37
9.3500004 6.3280001 -0.96200001 37
10.541 7.1139998 -0.89099997 41
7.671 5.2579999 -1.396 36
7.7080002 5.2550001 -1.255 45
7.6479998 5.1900001 -1.099 50
7.849 5.3049998 -0.98100001 36
9.25 6.23 -0.98500001 38
10.31 6.9239998 -0.90799999 39
7.6960001 5.2490001 -1.426 33
7.7319999 5.2449999 -1.285 49
7.664 5.1739998 -1.128 47
7.7690001 5.224 -0.99800003 38
8.6739998 5.8119998 -0.95300001 45
9.9890003 6.6729999 -0.91399997 36
7.7020001 5.2259998 -1.454 30
7.8249998 5.2800002 -1.326 38
7.6999998 5.171 -1.16 42
7.6880002 5.1409998 -1.013 48
8.4390001 5.6220002 -0.95599997 40
9.809 6.5149999 -0.93099999 41
7.9180002 5.3429999 -1.52 31
7.8509998 5.2680001 -1.357 42
7.7579999 5.1799998 -1.193 43
7.7579999 5.158 -1.048 34
8.3509998 5.5310001 -0.97399998 39
9.7449999 6.4349999 -0.95700002 44
7.9510002 5.3340001 -1.551 36
7.8010001 5.2030001 -1.372 38
7.7550001 5.1459999 -1.217 45
7.908 5.2249999 -1.094 34
8.1619997 5.3720002 -0.977 38
9.6160002 6.309 -0.97600001 41
7.9419999 5.2940001 -1.574 39
7.8379998 5.1950002 -1.403 37
7.7969999 5.1409998 -1.248 43
7.9310002 5.2049999 -1.122 47
7.895 5.1620002 -0.97000003 41
0 0 0 0
7.9390001 5.257 -1.597 39
7.8959999 5.198 -1.438 42
7.8460002 5.138 -1.28 41
7.8720002 5.131 -1.137 43
7.9369998 5.1529999 -1 33
8.9350004 5.7810001 -0.96200001 41
7.9219999 5.2090001 -1.617 21
7.9450002 5.1919999 -1.47 43
7.9029999 5.138 -1.313 46
7.835 5.0700002 -1.155 46
7.901 5.0910001 -1.0190001 36
0 0 0 0
7.8800001 5.1430001 -1.631 12
7.9759998 5.1739998 -1.498 37
8.1059999 5.23 -1.37 46
7.8629999 5.0489998 -1.182 43
7.895 5.0489998 -1.041 41
8.474 5.4000001 -0.963 37
7.8899999 5.1100001 -1.654 13
8.1090002 5.2199998 -1.545 42
7.9889998 5.1139998 -1.372 40
7.987 5.0890002 -1.223 37
7.9250002 5.027 -1.068 40
8.2620001 5.2220001 -0.963 35
7.9219999 5.0890002 -1.682 13
8.1020002 5.1719999 -1.566 41
8.0310001 5.099 -1.401 40
7.9959998 5.052 -1.2460001 44
7.9439998 4.9970002 -1.092 43
8.1059999 5.0799999 -0.96799999 37
7.9520001 5.0650001 -1.709 12
8.0950003 5.1240001 -1.585 40
7.994 5.0320001 -1.415 43
7.9850001 5.0009999 -1.266 44
7.98 4.9759998 -1.119 44
8.0539999 5.0029998 -0.98299998 37
7.9640002 5.0279999 -1.7309999 12
8.0889997 5.0749998 -1.605 29
8.0319996 5.0110002 -1.443 37
8.0200005 4.9780002 -1.291 38
8.0010004 4.9439998 -1.142 38
8.0950003 4.9819999 -1.01 35
7.9219999 4.9559999 -1.7410001 10
8.0889997 5.0289998 -1.624 14
8.2329998 5.0890002 -1.499 35
8.033 4.9390001 -1.314 40
8.0459995 4.9250002 -1.169 41
8.0579996 4.9130001 -1.025 40
7.8340001 4.855 -1.739 9
8.0799999 4.9749999 -1.64 10
8.3409996 5.1059999 -1.538 46
8.0699997 4.914 -1.339 42
8.0769997 4.8959999 -1.193 42
8.1140003 4.8979998 -1.053 38
7.7620001 4.763 -1.74 11
8.1140003 4.9460001 -1.665 9
8.2709999 5.0120001 -1.544 32
8.125 4.8979998 -1.367 48
8.1110001 4.8660002 -1.217 43
8.2200003 4.9109998 -1.086 36
7.6820002 4.6659999 -1.738 11
8.1560001 4.9219999 -1.691 9
8.323 4.9920001 -1.571 42
8.1809998 4.881 -1.3940001 39
8.1450005 4.836 -1.24 43
8.2220001 4.8610001 -1.105 35
7.6240001 4.5819998 -1.74 11
8.1960001 4.8930001 -1.717 10
8.3629999 4.9629998 -1.596 40
8.2379999 4.862 -1.421 41
8.1949997 4.8130002 -1.265 44
8.2969999 4.8520002 -1.133 34
7.5580001 4.493 -1.739 11
8.1820002 4.8309999 -1.73 11
8.3789997 4.9180002 -1.6160001 27
8.2410002 4.8109999 -1.438 41
8.2270002 4.7789998 -1.288 42
8.3479996 4.8270001 -1.158 33
7.5120001 4.4159999 -1.742 11
8.1300001 4.7470002 -1.733 12
8.3669996 4.855 -1.6289999 15
8.3299999 4.8070002 -1.47 39
8.2810001 4.7550001 -1.312 42
8.2629995 4.723 -1.1619999 45
7.467 4.3390002 -1.745 11
8.073 4.6589999 -1.7359999 12
8.3479996 4.7880001 -1.641 10
8.4090004 4.7950001 -1.499 35
8.3850002 4.7579999 -1.344 38
8.3389997 4.711 -1.189 36
7.4320002 4.2670002 -1.749 11
8.0159998 4.5710001 -1.737 12
8.3970003 4.7579999 -1.665 10
8.5290003 4.8060002 -1.536 37
8.4919996 4.7600002 -1.377 41
8.3769999 4.6750002 -1.21 42
7.3889999 4.191 -1.75 11
7.9429998 4.474 -1.733 11
8.4469995 4.7280002 -1.688 10
8.6020002 4.7870002 -1.563 37
8.6470003 4.7880001 -1.416 49
8.4510002 4.6570001 -1.235 40
7.3499999 4.1170001 -1.751 10
7.8979998 4.3930001 -1.735 11
8.4890003 4.691 -1.709 12
8.6639996 4.7600002 -1.5880001 39
8.6490002 4.7270002 -1.431 41
8.4949999 4.6209998 -1.256 39
7.3179998 4.0469999 -1.753 10
7.8660002 4.3189998 -1.739 11
8.5030003 4.6389999 -1.724 11
8.7010002 4.7189999 -1.608 30
9.0139999 4.862 -1.505 39
8.6330004 4.6350002 -1.29 44
7.2919998 3.9790001 -1.756 10
7.8239999 4.2389998 -1.739 11
8.4860001 4.5669999 -1.732 12
8.691 4.651 -1.617 16
8.7340002 4.6479998 -1.47 35
8.618 4.5640001 -1.3 44
7.2740002 3.9159999 -1.76 10
7.789 4.1620002 -1.7410001 11
8.4519997 4.487 -1.735 13
8.6820002 4.5819998 -1.627 11
8.8219995 4.6300001 -1.497 41
8.6879997 4.5380001 -1.322 37
7.2420001 3.8440001 -1.76 10
7.7600002 4.0900002 -1.743 11
8.4130001 4.4039998 -1.737 13
8.7159996 4.5359998 -1.6440001 10
8.8430004 4.5760002 -1.511 37
8.724 4.4920001 -1.339 40
7.223 3.78 -1.762 10
7.743 4.0229998 -1.747 11
8.3780003 4.3239999 -1.738 12
8.7670002 4.4970002 -1.663 11
8.8979998 4.539 -1.531 38
8.7790003 4.4549999 -1.358 41
7.2010002 3.714 -1.763 10
7.723 3.954 -1.749 11
8.3299999 4.2360001 -1.7359999 11
8.8290005 4.4619999 -1.683 10
9.0349998 4.5409999 -1.563 35
8.8520002 4.4260001 -1.378 41
7.1859999 3.651 -1.7640001 10
7.6919999 3.8800001 -1.748 10
8.3009996 4.1589999 -1.737 12
8.8959999 4.4289999 -1.7029999 10
9.0780001 4.494 -1.579 35
9.0900002 4.4770002 -1.424 44
7.1789999 3.5929999 -1.767 10
7.6810002 3.8169999 -1.751 10
8.2880001 4.0900002 -1.74 12
8.9390001 4.3839998 -1.719 12
9.151 4.4619999 -1.6 34
9.1560001 4.4400001 -1.442 43
7.165 3.5309999 -1.767 10
7.6700001 3.7509999 -1.753 10
8.2709999 4.0180001 -1.742 12
8.9750004 4.3319998 -1.732 10
9.1969995 4.414 -1.614 25
9.3179998 4.448 -1.475 40
7.1550002 3.47 -1.768 10
7.6669998 3.691 -1.756 10
8.257 3.947 -1.743 12
9.0080004 4.2789998 -1.744 7
9.2259998 4.3569999 -1.625 18
9.2259998 4.3340001 -1.467 35
7.152 3.4130001 -1.77 10
7.6500001 3.6240001 -1.755 10
8.2410002 3.8759999 -1.744 12
8.9960003 4.204 -1.7460001 6
9.2180004 4.2820001 -1.6289999 13
9.3570004 4.323 -1.493 36
7.1469998 3.3540001 -1.771 10
7.6529999 3.5650001 -1.758 10
8.2410002 3.812 -1.747 12
8.9799995 4.1269999 -1.7460001 2
9.2299995 4.217 -1.635 10
9.3800001 4.2610002 -1.502 40
7.1539998 3.302 -1.774 10
7.645 3.5020001 -1.758 11
8.2349997 3.7460001 -1.748 12
8.967 4.0510001 -1.747 4
9.2980003 4.1750002 -1.65 10
9.3629999 4.1810002 -1.502 34
7.1529999 3.2449999 -1.774 10
7.652 3.4449999 -1.76 11
8.2370005 3.6819999 -1.749 12
8.9320002 3.9660001 -1.7410001 5
9.3699999 4.1350002 -1.666 11
9.5039997 4.171 -1.528 40
7.1599998 3.191 -1.775 10
7.6500001 3.3840001 -1.76 10
8.2460003 3.6210001 -1.752 11
8.9350004 3.8970001 -1.743 8
9.4440002 4.0939999 -1.6799999 14
9.5509996 4.1160002 -1.538 39
7.1659999 3.138 -1.776 10
7.6690001 3.3310001 -1.7640001 11
8.2539997 3.5599999 -1.753 11
8.9329996 3.826 -1.742 10
9.5139999 4.0500002 -1.693 10
9.6780005 4.0960002 -1.559 39
7.1760001 3.0840001 -1.776 10
7.6789999 3.2750001 -1.7640001 11
8.2629995 3.4990001 -1.7539999 11
8.9449997 3.7609999 -1.744 11
9.5869999 4.006 -1.706 12
9.7580004 4.0539999 -1.572 40
7.198 3.0369999 -1.78 10
7.6919999 3.22 -1.766 10
8.2740002 3.438 -1.7539999 11
8.9499998 3.6930001 -1.744 14
9.6639996 3.9619999 -1.7180001 11
9.8640003 4.02 -1.5880001 36
7.2129998 2.9860001 -1.78 10
7.7049999 3.164 -1.766 11
8.2860003 3.378 -1.7539999 12
8.9659996 3.6300001 -1.744 13
9.7299995 3.914 -1.728 10
9.9569998 3.9809999 -1.601 32
7.2290001 2.9349999 -1.78 10
7.7329998 3.115 -1.768 11
8.3100004 3.322 -1.756 12
8.9750004 3.563 -1.743 13
9.7930002 3.8629999 -1.735 10
10.093 3.957 -1.62 28
7.257 2.8889999 -1.783 10
7.7480001 3.059 -1.768 11
8.3400002 3.2679999 -1.758 12
9.0120001 3.506 -1.745 14
9.8509998 3.8080001 -1.7410001 11
10.12 3.888 -1.62 16
7.277 2.839 -1.783 10
7.7789998 3.01 -1.77 10
8.3640003 3.2119999 -1.758 12
9.0310001 3.4430001 -1.744 13
9.882 3.743 -1.742 12
10.189 3.835 -1.627 20
7.3109999 2.7939999 -1.786 10
7.803 2.957 -1.7690001 10
8.3959999 3.158 -1.7589999 12
9.0719995 3.388 -1.7460001 13
9.9560003 3.6930001 -1.749 14
10.203 3.7609999 -1.623 14
7.3280001 2.7420001 -1.783 10
7.8309999 2.9059999 -1.7690001 11
8.4300003 3.105 -1.76 12
9.125 3.336 -1.749 14
10.021 3.638 -1.753 15
10.303 3.717 -1.631 17
7.369 2.698 -1.786 10
7.8639998 2.8559999 -1.7690001 11
8.4650002 3.0510001 -1.7589999 12
9.1569996 3.276 -1.747 13
10.073 3.579 -1.7539999 14
10.35 3.654 -1.631 12
7.3930001 2.6489999 -1.784 10
7.908 2.8099999 -1.771 12
8.5100002 3 -1.76 12
9.2180004 3.2260001 -1.751 13
10.121 3.517 -1.753 15
10.408 3.5940001 -1.631 15
7.4320002 2.605 -1.785 10
7.9520001 2.7639999 -1.771 12
8.5600004 2.9519999 -1.761 12
9.2659998 3.1719999 -1.75 13
10.195 3.4649999 -1.755 14
10.497 3.5439999 -1.6339999 9
7.4759998 2.562 -1.785 10
7.9860001 2.714 -1.7690001 11
8.6120005 2.9030001 -1.761 12
9.3290005 3.122 -1.751 13
10.245 3.404 -1.753 14
10.594 3.4960001 -1.638 9
7.5149999 2.517 -1.785 10
8.0380001 2.6689999 -1.771 11
8.6809998 2.8599999 -1.765 12
9.3850002 3.0669999 -1.75 13
10.291 3.339 -1.748 13
10.677 3.441 -1.6390001 17
7.573 2.477 -1.788 10
8.0909996 2.6240001 -1.771 11
8.7379999 2.8099999 -1.7640001 11
9.4549999 3.017 -1.75 13
10.364 3.2839999 -1.747 13
10.785 3.3940001 -1.641 13
7.6160002 2.431 -1.786 10
8.1499996 2.579 -1.771 11
8.7969999 2.7620001 -1.763 12
9.5389996 2.971 -1.752 13
10.437 3.227 -1.745 14
10.884 3.342 -1.642 11
7.671 2.3889999 -1.786 10
8.2119999 2.536 -1.772 11
8.8710003 2.717 -1.7640001 12
9.6169996 2.9230001 -1.752 13
10.497 3.1659999 -1.739 14
10.993 3.2920001 -1.642 11
7.7290001 2.348 -1.786 11
8.2849998 2.4949999 -1.774 11
8.9499998 2.6730001 -1.765 12
9.7049999 2.8759999 -1.753 13
10.593 3.115 -1.738 15
11.106 3.243 -1.642 10
7.7859998 2.306 -1.785 10
8.3520002 2.4519999 -1.773 12
9.0310001 2.6289999 -1.765 11
9.816 2.8340001 -1.756 13
10.697 3.066 -1.738 14
11.231 3.1949999 -1.642 13
7.8540001 2.267 -1.786 10
8.4239998 2.4100001 -1.773 11
9.1339998 2.5910001 -1.7690001 12
9.9130001 2.789 -1.756 13
10.81 3.0179999 -1.737 15
11.354 3.1470001 -1.64 11
7.927 2.2279999 -1.7869999 11
8.5080004 2.3699999 -1.774 11
9.2220001 2.546 -1.768 12
10.015 2.743 -1.755 13
10.943 2.973 -1.737 15
11.477 3.095 -1.636 9
7.9920001 2.1860001 -1.785 11
8.5970001 2.3299999 -1.775 11
9.3170004 2.503 -1.768 12
10.113 2.694 -1.751 13
11.071 2.9260001 -1.7359999 14
11.602 3.0439999 -1.632 11
8.0710001 2.1470001 -1.785 11
8.6820002 2.2880001 -1.774 10
9.4099998 2.4590001 -1.766 12
10.231 2.651 -1.751 14
11.194 2.878 -1.733 15
11.793 3.0079999 -1.635 19
8.1549997 2.109 -1.785 11
8.7810001 2.2490001 -1.774 11
9.5290003 2.4189999 -1.767 11
10.352 2.6059999 -1.749 13
11.363 2.8380001 -1.734 16
12.446 3.0840001 -1.699 12
8.243 2.0699999 -1.785 11
8.8929996 2.2130001 -1.776 11
9.6440001 2.378 -1.766 11
10.487 2.5639999 -1.748 13
11.513 2.7920001 -1.7309999 17
12.625 3.0369999 -1.6950001 12
8.3409996 2.0339999 -1.786 11
8.9969997 2.1730001 -1.776 11
9.7729998 2.339 -1.767 11
10.628 2.5220001 -1.747 13
11.664 2.7449999 -1.727 16
12.822 2.993 -1.692 12
8.4359999 1.9960001 -1.785 10
9.1029997 2.1329999 -1.774 11
9.8999996 2.299 -1.765 11
10.758 2.4760001 -1.742 13
11.838 2.7019999 -1.724 16
13.037 2.9519999 -1.689 11
8.5430002 1.961 -1.786 11
9.224 2.096 -1.774 12
10.037 2.26 -1.7640001 12
10.916 2.4349999 -1.74 13
12.02 2.6570001 -1.72 17
13.251 2.9059999 -1.684 11
8.6549997 1.923 -1.785 11
9.3559999 2.059 -1.774 11
10.186 2.22 -1.763 12
11.088 2.395 -1.738 14
12.208 2.6140001 -1.716 18
13.531 2.872 -1.684 12
8.7819996 1.8890001 -1.7869999 11
9.5059996 2.0250001 -1.776 11
10.329 2.178 -1.7589999 13
11.255 2.352 -1.733 14
12.409 2.5699999 -1.71 17
13.783 2.8310001 -1.678 12
8.901 1.852 -1.786 11
9.6450005 1.9859999 -1.774 11
10.489 2.1389999 -1.757 13
11.441 2.3110001 -1.729 13
12.641 2.5309999 -1.706 17
14.067 2.7920001 -1.674 12
9.033 1.816 -1.785 11
9.7849998 1.948 -1.772 11
10.647 2.098 -1.752 13
11.645 2.2739999 -1.727 14
12.878 2.4909999 -1.702 15
14.365 2.7539999 -1.668 12
9.1759996 1.781 -1.786 11
9.9420004 1.911 -1.77 11
10.817 2.0580001 -1.748 13
11.851 2.233 -1.722 15
13.142 2.4530001 -1.697 13
14.715 2.7219999 -1.665 12
9.3269997 1.748 -1.786 11
10.099 1.8710001 -1.767 12
11.014 2.0209999 -1.7460001 13
12.059 2.1900001 -1.715 15
13.444 2.4189999 -1.696 12
15.098 2.6919999 -1.6619999 11
9.4849997 1.712 -1.786 11
10.269 1.834 -1.7640001 12
11.231 1.985 -1.745 14
12.325 2.1570001 -1.714 16
13.718 2.378 -1.687 12
15.475 2.6570001 -1.655 13
9.6490002 1.677 -1.785 11
10.461 1.798 -1.762 12
11.44 1.946 -1.74 14
12.576 2.1170001 -1.7079999 14
14.092 2.349 -1.687 11
15.74 2.599 -1.633 15
9.8059998 1.6390001 -1.781 12
10.648 1.76 -1.758 12
11.664 1.9069999 -1.735 15
12.857 2.0810001 -1.704 14
14.492 2.3210001 -1.687 12
15.78 2.503 -1.584 17
9.9779997 1.602 -1.778 11
10.851 1.723 -1.7539999 12
11.91 1.87 -1.73 15
13.196 2.049 -1.7029999 14
14.885 2.2880001 -1.681 11
15.908 2.421 -1.543 32
10.163 1.566 -1.775 11
11.068 1.6849999 -1.75 13
12.159 1.83 -1.724 16
13.526 2.0139999 -1.698 16
15.28 2.2509999 -1.6720001 11
16.101999 2.348 -1.505 44
10.368 1.53 -1.773 12
11.301 1.648 -1.7460001 14
12.442 1.795 -1.719 13
13.903 1.983 -1.696 17
15.63 2.2060001 -1.655 13
15.902 2.22 -1.4299999 5
10.573 1.494 -1.7690001 12
11.544 1.612 -1.742 14
12.746 1.758 -1.715 14
14.28 1.948 -1.6900001 16
15.685 2.1159999 -1.604 27
16.312 2.177 -1.406 42
10.783 1.456 -1.763 12
11.819 1.576 -1.738 13
13.071 1.722 -1.709 13
14.693 1.914 -1.684 18
15.839 2.039 -1.5599999 21
16.059999 2.0450001 -1.325 46
11.017 1.418 -1.7589999 12
12.091 1.5369999 -1.732 13
13.45 1.689 -1.707 14
15.204 1.886 -1.683 17
16.216 1.988 -1.534 31
16.228001 1.967 -1.276 46
11.275 1.382 -1.756 12
12.387 1.499 -1.726 13
13.813 1.651 -1.699 13
15.751 1.859 -1.682 14
17.011999 1.984 -1.543 29
16.497999 1.902 -1.233 58
11.547 1.346 -1.752 13
12.72 1.462 -1.721 13
14.245 1.617 -1.6950001 14
16.259001 1.822 -1.671 13
17.74 1.964 -1.538 21
17.075001 1.868 -1.207 51
11.826 1.308 -1.7460001 12
13.06 1.424 -1.714 12
14.681 1.58 -1.687 13
17.124001 1.819 -1.6900001 11
18.672001 1.959 -1.543 12
18.023001 1.8660001 -1.199 55
12.149 1.271 -1.742 12
13.466 1.3890001 -1.711 13
15.195 1.546 -1.683 12
17.780001 1.785 -1.681 11
20.642 2.0450001 -1.618 16
24.422001 2.3889999 -1.524 15
12.479 1.233 -1.737 13
13.902 1.353 -1.707 13
15.791 1.515 -1.681 9
18.406 1.742 -1.661 12
21.546 2.0120001 -1.597 17
25.702 2.368 -1.493 10
12.842 1.1950001 -1.732 12
14.319 1.312 -1.696 13
16.500999 1.49 -1.6849999 10
19.089001 1.699 -1.641 13
22.549 1.979 -1.574 18
27.075001 2.3440001 -1.456 8
13.233 1.156 -1.726 13
14.832 1.276 -1.692 13
17.187 1.456 -1.681 11
19.886999 1.66 -1.622 14
23.701 1.95 -1.55 20
28.561001 2.3150001 -1.408 7
13.666 1.117 -1.722 13
15.398 1.239 -1.688 10
17.893999 1.4170001 -1.669 11
20.834999 1.625 -1.605 16
24.908001 1.913 -1.517 11
30.253 2.2880001 -1.354 5
14.119 1.076 -1.714 13
16.038 1.202 -1.684 9
18.611 1.372 -1.651 12
21.92 1.591 -1.5880001 17
26.333 1.881 -1.483 9
32.265999 2.2679999 -1.2970001 6
14.631 1.036 -1.709 12
16.721001 1.163 -1.679 10
19.452999 1.331 -1.636 14
23.091 1.552 -1.566 19
27.884001 1.844 -1.4400001 7
34.326 2.2320001 -1.2180001 6
15.199 0.995 -1.704 12
17.459 1.122 -1.671 11
20.437 1.29 -1.622 15
24.299999 1.506 -1.533 10
29.733 1.8099999 -1.393 6
37.27 2.2290001 -1.143 7
15.828 0.95200002 -1.698 13
18.223 1.076 -1.656 12
21.504999 1.245 -1.603 17
25.888 1.472 -1.5089999 10
31.719 1.7690001 -1.3329999 6
41.462002 2.2690001 -1.072 1
16.517 0.90799999 -1.692 12
19.066 1.028 -1.641 13
22.662001 1.197 -1.58 18
27.398001 1.418 -1.4630001 7
33.716999 1.711 -1.253 6
45.061001 2.2420001 -0.94400001 13
17.301001 0.86299998 -1.687 11
20.080999 0.98000002 -1.628 14
23.882999 1.141 -1.546 13
29.163 1.364 -1.4119999 7
36.075001 1.651 -1.159 1
48.689999 2.1819999 -0.77499998 44
18.096001 0.81300002 -1.675 12
21.105 0.92699999 -1.607 16
25.392 1.09 -1.518 10
31.129999 1.3049999 -1.352 6
0 0 0 0
0 0 0 0
18.922001 0.75700003 -1.656 13
22.237 0.86900002 -1.581 17
27.129 1.033 -1.484 8
33.502998 1.243 -1.284 6
43.348 1.568 -0.95300001 1
48.893002 1.725 -0.28 5
19.931999 0.70200002 -1.643 14
23.542 0.80699998 -1.554 13
28.9 0.963 -1.433 6
35.714001 1.1569999 -1.184 2
48.506001 1.527 -0.81400001 59
55.73 1.705 -0.024 17
21.031 0.63999999 -1.623 16
25.002001 0.73900002 -1.5190001 12
30.965 0.88700002 -1.372 7
0 0 0 0
48.771999 1.312 -0.56199998 49
57.678001 1.502 0.27900001 37
22.222 0.57300001 -1.598 17
26.832001 0.66799998 -1.487 8
33.16 0.79799998 -1.293 6
44.882999 1.041 -1.012 36
52.839001 1.181 -0.32300001 2
51.416 1.1059999 0.528 1
23.577 0.5 -1.569 15
28.649 0.583 -1.433 7
35.644001 0.69499999 -1.196 4
45.227001 0.84500003 -0.77200001 47
59.529999 1.0650001 -0.037999999 20
60.800999 1.04 0.95999998 12
25.107 0.41999999 -1.535 11
30.743999 0.49000001 -1.373 7
0 0 0 0
45.273998 0.648 -0.52499998 86
45.348 0.61400002 0.222 62
45.344002 0.57999998 0.96799999 38
27.052999 0.33399999 -1.506 8
33.073002 0.38299999 -1.294 6
44.764999 0.48500001 -1.012 36
45.368 0.45699999 -0.27599999 104
45.379002 0.42399999 0.472 41
45.360001 0.38999999 1.222 40
29.01 0.234 -1.454 9
35.471001 0.26100001 -1.192 4
45.296001 0.30000001 -0.77100003 46
54.919998 0.324 -0.026000001 36
54.873001 0.28400001 0.88300002 36
80.693001 0.361 2.6359999 49
31.164 0.121 -1.388 7
39.977001 0.12800001 -1.119 1
49.300999 0.122 -0.55900002 31
57.667 0.103 0.30199999 2
54.768002 0.061000001 1.1950001 40
80.323997 0.035999998 3.0880001 49
33.735001 -0.0049999999 -1.313 7
44.631001 -0.037 -0.995 16
48.237 -0.072999999 -0.273 4
54.744999 -0.117 0.59799999 22
54.676998 -0.153 1.508 80
80.277 -0.27900001 3.5550001 25
0 0 0 0
48.224998 -0.23199999 -0.79799998 67
54.653 -0.29699999 0.0049999999 58
54.623001 -0.331 0.91600001 101
81.470001 -0.54299998 2.724 17
80.232002 -0.58399999 4.0240002 11
42.685001 -0.34400001 -1.17 5
49.480999 -0.43000001 -0.52999997 44
54.568001 -0.50700003 0.32600001 76
54.537998 -0.53799999 1.2359999 6
81.490997 -0.852 3.211 33
0 0 0 0
44.504002 -0.528 -0.95999998 4
50.126999 -0.62300003 -0.24600001 5
54.487999 -0.708 0.64300001 22
54.422001 -0.73699999 1.5549999 27
80.466003 -1.135 3.6500001 39
0 0 0 0
48.272999 -0.75099999 -0.75800002 45
66.518997 -1.073 0.068999998 5
54.382999 -0.90600002 0.96899998 56
0 0 0 0
81.035004 -1.433 4.1669998 41
81.962997 -1.492 5.599 36
48.903999 -0.93900001 -0.47499999 11
84.316002 -1.66 0.58999997 9
54.262001 -1.095 1.2920001 33
0 0 0 0
81.073997 -1.716 4.6659999 38
81.966003 -1.777 6.1090002 20
51.481998 -1.171 -0.189 2
54.208 -1.257 0.70899999 29
99.709999 -2.358 2.9849999 27
0 0 0 0
80.106003 -1.966 5.1059999 17
81.82 -2.046 6.6069999 28
54.207001 -1.416 0.125 44
0 0 0 0
0 0 0 0
0 0 0 0
80.103996 -2.23 5.6069999 25
81.554001 -2.303 7.0970001 25
54.195999 -1.595 0.45500001 7
99.459 -2.9679999 2.5190001 21
0 0 0 0
0 0 0 0
79.813004 -2.474 6.0879998 13
81.18 -2.5510001 7.586 8
100.369 -3.2809999 1.472 13
98.574997 -3.256 3.109 12
0 0 0 0
0 0 0 0
79.624001 -2.714 6.5809999 25
81.268997 -2.8 8.1149998 12
100.502 -3.595 2.092 19
100.444 -3.625 3.7950001 13
0 0 0 0
0 0 0 0
79.487999 -2.947 7.0819998 11
78.461998 -2.9360001 8.3450003 17
98.619003 -3.826 2.6719999 22
117.179 -4.5799999 5.1680002 14
0 0 0 0
0 0 0 0
79.263 -3.1670001 7.5770001 10
78.750999 -3.1689999 8.8900003 38
99.674004 -4.1599998 3.336 33
0 0 0 0
119.992 -5.0689998 8.1190004 14
0 0 0 0
78.384003 -3.3510001 8.007 27
78.686996 -3.385 9.408 41
117.298 -5.2259998 4.6760001 34
0 0 0 0
119.305 -5.369 8.8459997 46
80.181 -3.628 7.3340001 9
78.343002 -3.5610001 8.5249996 42
78.938004 -3.6059999 9.967 45
117.209 -5.5419998 5.427 14
118.014 -5.599 7.4819999 14
0 0 0 0
78.542999 -3.7550001 7.6929998 19
78.415001 -3.7650001 9.0489998 45
79.932999 -3.8540001 10.629 44
116.786 -5.823 6.1550002 18
0 0 0 0
81.936996 -4.112 7.1479998 6
78.305 -3.941 8.191 44
78.894997 -3.984 9.6359997 43
79.643997 -4.0349998 11.129 6
117.534 -6.1570001 6.961 33
0 0 0 0
78.254997 -4.1170001 7.3429999 10
78.514999 -4.1409998 8.7399998 43
79.550003 -4.2049999 10.252 46
0 0 0 0
116.875 -6.4060001 7.6900001 37
118.498 -6.5040002 9.8479996 25
78.196999 -4.2979999 7.8610001 50
79.122002 -4.3569999 9.342 41
0 0 0 0
0 0 0 0
118.77 -6.783 8.6020002 48
79.794998 -4.559 7.1609998 26
78.880997 -4.5110002 8.4580002 43
79.954002 -4.5799999 9.9849997 42
0 0 0 0
0 0 0 0
118.457 -7.0279999 9.368 40
79.484001 -4.7150002 7.6669998 43
79.471001 -4.7160001 9.0609999 52
0 0 0 0
0 0 0 0
0 0 0 0
79.650002 -4.8940001 6.8330002 18
79.486 -4.882 8.2080002 47
80.685997 -4.9530001 9.75 13
0 0 0 0
0 0 0 0
0 0 0 0
79.68 -5.053 7.3699999 57
80.435997 -5.0970001 8.8509998 48
0 0 0 0
0 0 0 0
0 0 0 0
0 0 0 0
79.841003 -5.2140002 7.927 49
0 0 0 0
0 0 0 0
0 0 0 0
0 0 0 0
0 0 0 0
80.924004 -5.4310002 8.5869999 20
0 0 0 0
0 0 0 0
0 0 0 0
0 0 0 0
0 0 0 0
0 0 0 0
0 0 0 0
0 0 0 0
0 0 0 0
0 0 0 0
0 0 0 0
0 0 0 0
0 0 0 0
0 0 0 0
0 0 0 0
0 0 0 0
0 0 0 0
0 0 0 0
0 0 0 0
0 0 0 0
0 0 0 0
0 0 0 0
0 0 0 0
0 0 0 0
0 0 0 0
0 0 0 0
0 0 0 0
0 0 0 0
0 0 0 0
0 0 0 0
42.368 -3.145 6.7249999 21
0 0 0 0
0 0 0 0
0 0 0 0
0 0 0 0
0 0 0 0
42.006001 -3.1659999 6.9640002 13
0 0 0 0
0 0 0 0
0 0 0 0
0 0 0 0
42.671001 -3.277 6.6059999 17
0 0 0 0
0 0 0 0
0 0 0 0
0 0 0 0
0 0 0 0
42.137001 -3.2750001 6.8200002 25
0 0 0 0
0 0 0 0
0 0 0 0
0 0 0 0
0 0 0 0
0 0 0 0
0 0 0 0
0 0 0 0
0 0 0 0
0 0 0 0
0 0 0 0
0 0 0 0
0 0 0 0
0 0 0 0
0 0 0 0
0 0 0 0
0 0 0 0
0 0 0 0
0 0 0 0
0 0 0 0
0 0 0 0
0 0 0 0
0 0 0 0
0 0 0 0
0 0 0 0
0 0 0 0
