# .PCD v0.7 - Point Cloud Data file format
VERSION 0.7
FIELDS x y z intensity
SIZE 4 4 4 4
TYPE F F F F
COUNT 1 1 1 1
WIDTH 1705
HEIGHT 1
VIEWPOINT 0 0 0 1 0 0 0
POINTS 1705
DATA ascii
4.1059999 -1.635 -1.8839999 10
4.335 -1.706 -1.876 10
4.6030002 -1.793 -1.877 11
3.5250001 -1.457 -1.888 8
3.7079999 -1.511 -1.8789999 9
3.9400001 -1.585 -1.887 9
4.1599998 -1.653 -1.881 10
4.4050002 -1.7309999 -1.878 11
4.684 -1.822 -1.881 11
3.576 -1.474 -1.8890001 8
3.766 -1.531 -1.881 9
3.9920001 -1.602 -1.8839999 9
4.224 -1.675 -1.881 10
4.473 -1.755 -1.878 11
4.7519999 -1.846 -1.878 10
3.6240001 -1.49 -1.887 8
3.825 -1.551 -1.883 9
4.052 -1.622 -1.8839999 10
4.2919998 -1.698 -1.882 10
4.5510001 -1.781 -1.88 10
4.8390002 -1.876 -1.881 10
3.671 -1.5039999 -1.8839999 8
3.8800001 -1.568 -1.881 9
4.1110001 -1.641 -1.882 10
4.349 -1.716 -1.877 10
4.6269999 -1.806 -1.881 11
4.9219999 -1.903 -1.881 11
3.724 -1.52 -1.883 9
3.9460001 -1.589 -1.8839999 10
4.1750002 -1.661 -1.881 10
4.4260001 -1.7410001 -1.88 11
4.7080002 -1.832 -1.882 12
5.0040002 -1.929 -1.88 11
3.7809999 -1.5369999 -1.882 9
4.0120001 -1.61 -1.886 9
4.2490001 -1.684 -1.8839999 10
4.5050001 -1.766 -1.882 10
4.7969999 -1.8609999 -1.885 10
5.0799999 -1.952 -1.874 10
3.8429999 -1.556 -1.883 9
4.0739999 -1.628 -1.885 10
4.3169999 -1.705 -1.883 10
4.5780001 -1.788 -1.88 10
4.8860002 -1.8890001 -1.886 10
5.1700001 -1.98 -1.873 10
3.9070001 -1.574 -1.8839999 9
4.1409998 -1.647 -1.8839999 11
4.3889999 -1.726 -1.882 11
4.6719999 -1.817 -1.885 11
4.9619999 -1.911 -1.881 10
5.283 -2.016 -1.878 10
3.977 -1.595 -1.886 8
4.2080002 -1.666 -1.883 10
4.4640002 -1.747 -1.882 11
4.7399998 -1.835 -1.8789999 11
5.0560002 -1.939 -1.882 11
5.3899999 -2.0480001 -1.8789999 10
4.04 -1.612 -1.8839999 10
4.2839999 -1.688 -1.8839999 11
4.5489998 -1.772 -1.8839999 11
4.8410001 -1.8660001 -1.885 10
5.1459999 -1.964 -1.88 10
5.4920001 -2.0780001 -1.878 11
4.1170001 -1.633 -1.888 10
4.3530002 -1.706 -1.881 12
4.6329999 -1.795 -1.8839999 12
4.9250002 -1.888 -1.882 10
5.243 -1.9910001 -1.878 11
5.612 -2.1129999 -1.881 11
4.1760001 -1.647 -1.882 9
4.4310002 -1.727 -1.881 11
4.7220001 -1.8200001 -1.885 11
5.0250001 -1.916 -1.8839999 10
5.3730001 -2.03 -1.887 10
5.7309999 -2.1470001 -1.881 10
4.257 -1.668 -1.8839999 10
4.5120001 -1.748 -1.881 11
4.8060002 -1.841 -1.883 11
5.1300001 -1.946 -1.886 11
5.461 -2.052 -1.8789999 11
5.8439999 -2.177 -1.878 10
4.3439999 -1.691 -1.888 10
4.598 -1.7690001 -1.881 11
4.9089999 -1.869 -1.887 11
5.23 -1.972 -1.885 11
5.5910001 -2.0880001 -1.885 10
5.9819999 -2.2160001 -1.881 10
4.4159999 -1.7079999 -1.885 10
4.6869998 -1.7920001 -1.882 11
5.0100002 -1.895 -1.888 11
5.3410001 -2.0009999 -1.886 10
5.7069998 -2.119 -1.8839999 10
6.1129999 -2.2509999 -1.88 10
4.4959998 -1.726 -1.8839999 10
4.7880001 -1.818 -1.886 12
5.1069999 -1.918 -1.887 12
5.4439998 -2.026 -1.883 11
5.8340001 -2.152 -1.8839999 10
6.2550001 -2.2880001 -1.88 10
4.5819998 -1.747 -1.8839999 10
4.8800001 -1.839 -1.885 11
5.21 -1.943 -1.887 10
5.573 -2.059 -1.888 11
5.9640002 -2.184 -1.885 10
6.3860002 -2.3199999 -1.876 10
4.671 -1.767 -1.883 10
4.9749999 -1.8609999 -1.8839999 10
5.3169999 -1.969 -1.886 11
5.6859999 -2.086 -1.885 10
6.1009998 -2.2190001 -1.885 10
6.5500002 -2.3629999 -1.8789999 10
4.7649999 -1.7869999 -1.8839999 10
5.0770001 -1.8839999 -1.8839999 11
5.4349999 -1.997 -1.888 10
5.802 -2.112 -1.882 10
6.2389998 -2.2520001 -1.883 10
6.6960001 -2.398 -1.875 10
4.862 -1.809 -1.8839999 10
5.184 -1.908 -1.8839999 11
5.546 -2.0209999 -1.885 11
5.9429998 -2.1459999 -1.885 10
6.382 -2.2850001 -1.882 11
6.8930001 -2.45 -1.8839999 9
4.9699998 -1.8329999 -1.888 10
5.2940001 -1.932 -1.8839999 11
5.6599998 -2.0450001 -1.883 10
6.079 -2.177 -1.8839999 10
6.5289998 -2.319 -1.88 10
7.0370002 -2.48 -1.875 10
5.072 -1.854 -1.887 10
5.401 -1.954 -1.882 12
5.7930002 -2.075 -1.885 10
6.224 -2.21 -1.885 11
6.6960001 -2.358 -1.882 11
7.2360001 -2.529 -1.8789999 9
5.1739998 -1.874 -1.886 10
5.533 -1.983 -1.887 12
5.927 -2.1040001 -1.886 10
6.3590002 -2.2379999 -1.882 11
6.8520002 -2.392 -1.8789999 10
7.4239998 -2.572 -1.878 10
5.2909999 -1.897 -1.888 10
5.645 -2.0039999 -1.883 13
6.0580001 -2.131 -1.8839999 10
6.4980001 -2.266 -1.877 11
7.0370002 -2.434 -1.881 9
7.6129999 -2.6140001 -1.874 10
5.401 -1.918 -1.886 10
5.7719998 -2.029 -1.883 10
6.2049999 -2.1619999 -1.885 10
6.678 -2.306 -1.882 11
7.2150002 -2.4719999 -1.8789999 10
7.822 -2.6600001 -1.873 10
5.5139999 -1.938 -1.8839999 11
5.8940001 -2.0510001 -1.8789999 10
6.349 -2.1889999 -1.883 11
6.8379998 -2.3380001 -1.8789999 10
7.3969998 -2.5090001 -1.876 10
8.0360003 -2.7060001 -1.8710001 11
5.645 -1.9630001 -1.886 10
6.0409999 -2.0799999 -1.882 11
6.4809999 -2.211 -1.876 11
7.02 -2.375 -1.881 10
7.6059999 -2.5539999 -1.878 10
8.2559996 -2.7520001 -1.867 10
5.777 -1.987 -1.888 10
6.1729999 -2.102 -1.878 11
6.6529999 -2.2460001 -1.8789999 11
7.2049999 -2.4119999 -1.881 10
7.8140001 -2.596 -1.876 10
8.5120001 -2.8080001 -1.869 11
5.9120002 -2.01 -1.887 10
6.3260002 -2.1300001 -1.8789999 11
6.8239999 -2.277 -1.8789999 11
7.3850002 -2.444 -1.877 10
8.0109997 -2.632 -1.869 10
8.7589998 -2.8570001 -1.865 11
6.0430002 -2.03 -1.8839999 10
6.4679999 -2.1530001 -1.875 11
7.027 -2.3180001 -1.885 10
7.5840001 -2.4809999 -1.875 11
8.2449999 -2.677 -1.868 10
9.0340004 -2.9130001 -1.865 11
6.1849999 -2.053 -1.8839999 11
6.6339998 -2.181 -1.876 12
7.1719999 -2.3380001 -1.876 11
7.7810001 -2.516 -1.872 11
8.4860001 -2.724 -1.868 10
9.316 -2.97 -1.863 10
6.3249998 -2.073 -1.881 11
6.789 -2.2049999 -1.872 10
7.381 -2.3770001 -1.8789999 11
7.993 -2.553 -1.869 10
8.7370005 -2.7709999 -1.8660001 10
9.6210003 -3.03 -1.862 10
6.4759998 -2.095 -1.88 10
6.96 -2.2320001 -1.8710001 11
7.5580001 -2.4030001 -1.873 11
8.2209997 -2.5929999 -1.869 11
8.9919996 -2.816 -1.863 11
9.9329996 -3.089 -1.859 10
6.6290002 -2.1170001 -1.877 11
7.1750002 -2.2709999 -1.88 10
7.7589998 -2.4349999 -1.8710001 10
8.467 -2.6359999 -1.869 11
9.283 -2.8699999 -1.863 10
10.266 -3.152 -1.858 10
6.789 -2.138 -1.875 10
7.3649998 -2.299 -1.8789999 11
7.9749999 -2.4690001 -1.87 11
8.7010002 -2.6730001 -1.864 11
9.585 -2.9230001 -1.862 11
10.625 -3.2190001 -1.8559999 10
7.0009999 -2.174 -1.885 10
7.5539999 -2.325 -1.876 11
8.1999998 -2.503 -1.869 11
8.9689999 -2.717 -1.863 10
9.9060001 -2.9790001 -1.8609999 10
10.98 -3.28 -1.849 10
7.152 -2.1889999 -1.877 12
7.743 -2.349 -1.872 10
8.4429998 -2.5409999 -1.869 11
9.2539997 -2.763 -1.863 10
10.221 -3.03 -1.857 11
11.385 -3.3529999 -1.848 10
7.3540001 -2.217 -1.88 11
7.9549999 -2.378 -1.87 11
8.6829996 -2.5739999 -1.8660001 11
9.5290003 -2.803 -1.858 11
10.569 -3.0880001 -1.855 12
11.771 -3.4159999 -1.839 10
7.552 -2.2420001 -1.88 11
8.1610003 -2.402 -1.865 10
8.934 -2.608 -1.863 11
9.8470001 -2.8529999 -1.859 11
10.922 -3.142 -1.85 10
12.199 -3.4860001 -1.832 10
7.744 -2.263 -1.876 11
8.3959999 -2.4319999 -1.864 10
9.2040005 -2.645 -1.86 11
10.175 -2.901 -1.857 12
11.306 -3.201 -1.845 11
12.665 -3.562 -1.826 10
7.9390001 -2.2820001 -1.8710001 10
8.6490002 -2.464 -1.864 11
9.4940004 -2.6830001 -1.859 11
10.502 -2.9449999 -1.852 10
11.708 -3.2609999 -1.84 10
13.168 -3.6429999 -1.821 10
8.158 -2.3050001 -1.869 11
8.882 -2.4879999 -1.859 11
9.783 -2.7190001 -1.855 11
10.857 -2.9949999 -1.849 11
12.126 -3.3199999 -1.834 10
13.702 -3.727 -1.8150001 10
8.382 -2.3269999 -1.867 11
9.1450005 -2.5179999 -1.857 10
10.101 -2.7579999 -1.854 11
11.216 -3.04 -1.8430001 12
12.558 -3.3800001 -1.826 10
14.316 -3.8280001 -1.814 8
8.6199999 -2.3510001 -1.8660001 12
9.4259996 -2.549 -1.8559999 11
10.439 -2.8010001 -1.854 12
11.601 -3.0880001 -1.839 10
13.05 -3.4489999 -1.822 10
14.954 -3.927 -1.8099999 8
8.8540001 -2.3699999 -1.862 11
9.7110004 -2.5769999 -1.853 11
10.766 -2.835 -1.848 11
12 -3.1359999 -1.832 11
13.548 -3.516 -1.8150001 10
15.593 -4.02 -1.8 9
9.1090002 -2.392 -1.86 12
10.022 -2.6099999 -1.852 11
11.118 -2.872 -1.8430001 10
12.406 -3.181 -1.823 10
14.122 -3.595 -1.812 9
16.288 -4.1199999 -1.791 10
9.3800001 -2.4159999 -1.859 11
10.336 -2.6400001 -1.85 12
11.488 -2.9100001 -1.8380001 11
12.861 -3.234 -1.818 10
14.73 -3.677 -1.809 8
16.990999 -4.2140002 -1.776 11
9.6529999 -2.437 -1.8559999 10
10.653 -2.6659999 -1.846 11
11.868 -2.9460001 -1.8329999 11
13.349 -3.289 -1.813 10
15.316 -3.7460001 -1.798 9
17.782 -4.3210001 -1.7640001 12
9.941 -2.457 -1.854 12
10.984 -2.6919999 -1.84 11
12.26 -2.98 -1.825 11
13.895 -3.352 -1.811 9
16.045 -3.842 -1.7970001 10
18.664 -4.4390001 -1.752 13
10.256 -2.48 -1.854 11
11.328 -2.7160001 -1.834 11
12.697 -3.02 -1.819 10
14.469 -3.415 -1.807 9
16.688 -3.911 -1.781 10
19.59 -4.5599999 -1.737 14
10.565 -2.4979999 -1.849 11
11.697 -2.7420001 -1.829 10
13.15 -3.0580001 -1.813 10
15.042 -3.471 -1.799 8
17.427999 -3.9920001 -1.7690001 11
20.559999 -4.6789999 -1.719 15
10.87 -2.5120001 -1.8430001 11
12.071 -2.7650001 -1.822 12
13.651 -3.102 -1.8099999 10
15.661 -3.5309999 -1.791 9
18.256001 -4.085 -1.76 13
21.625999 -4.8060002 -1.698 17
11.205 -2.5280001 -1.8380001 12
12.458 -2.786 -1.814 10
14.176 -3.1440001 -1.8049999 10
16.273001 -3.5810001 -1.777 10
19.110001 -4.1729999 -1.744 14
22.808001 -4.9460001 -1.677 14
11.553 -2.5420001 -1.8329999 11
12.894 -2.812 -1.809 11
14.718 -3.1830001 -1.798 10
16.972 -3.642 -1.768 11
19.973 -4.2540002 -1.724 15
24.059999 -5.0869999 -1.65 10
11.908 -2.553 -1.826 11
13.349 -2.8369999 -1.804 11
15.295 -3.223 -1.791 9
17.722 -3.7049999 -1.758 12
20.978001 -4.3520002 -1.7079999 16
25.398001 -5.2319999 -1.6210001 8
12.27 -2.562 -1.819 11
13.817 -2.859 -1.798 9
15.879 -3.257 -1.781 9
18.521999 -3.7690001 -1.747 13
22.059999 -4.4549999 -1.692 18
26.98 -5.4089999 -1.596 7
12.674 -2.573 -1.814 10
14.328 -2.8829999 -1.793 10
16.499001 -3.2920001 -1.77 10
19.381001 -3.836 -1.7359999 14
23.16 -4.5469999 -1.6670001 15
28.601 -5.5739999 -1.559 6
13.067 -2.5780001 -1.8049999 10
14.865 -2.9059999 -1.7869999 10
17.204 -3.3340001 -1.7640001 11
20.205999 -3.8840001 -1.715 15
24.271 -4.6279998 -1.635 12
30.497999 -5.7729998 -1.525 6
13.561 -2.5969999 -1.808 10
15.425 -2.927 -1.7819999 9
17.93 -3.372 -1.755 12
21.131001 -3.941 -1.697 16
25.712999 -4.7579999 -1.618 9
32.405998 -5.9499998 -1.478 6
14.004 -2.6010001 -1.801 11
15.983 -2.941 -1.773 9
18.658001 -3.402 -1.7410001 13
22.146 -4.0029998 -1.6799999 17
27.138 -4.8649998 -1.5880001 7
34.390999 -6.1170001 -1.42 4
14.462 -2.6010001 -1.793 10
16.577 -2.9530001 -1.763 10
19.433001 -3.4289999 -1.726 14
23.087999 -4.039 -1.65 19
28.691 -4.9780002 -1.5549999 8
0 0 0 0
14.961 -2.6010001 -1.786 9
17.197001 -2.961 -1.752 11
20.209 -3.447 -1.707 15
24.288 -4.1059999 -1.632 16
30.523001 -5.1170001 -1.526 6
0 0 0 0
15.485 -2.6010001 -1.781 9
17.888 -2.974 -1.745 12
21.08 -3.473 -1.692 16
25.438 -4.152 -1.604 24
32.120998 -5.198 -1.476 6
41.990002 -6.7360001 -1.214 2
16.006001 -2.592 -1.772 9
18.603001 -2.9820001 -1.7359999 13
22.004 -3.4920001 -1.674 17
26.950001 -4.2379999 -1.589 8
33.542 -5.2270002 -1.406 8
44.084 -6.8119998 -1.101 56
16.570999 -2.5829999 -1.7640001 10
19.266001 -2.9719999 -1.719 14
22.961 -3.506 -1.654 19
28.209 -4.2670002 -1.551 7
35.993999 -5.3940001 -1.368 1
44.237999 -6.5700002 -0.93300003 15
17.152 -2.569 -1.756 11
19.982 -2.961 -1.702 15
23.924 -3.5090001 -1.6289999 15
29.855 -4.336 -1.527 7
38.097 -5.4809999 -1.303 1
0 0 0 0
17.802 -2.5580001 -1.752 11
20.785999 -2.9530001 -1.6900001 16
25.027 -3.5179999 -1.608 10
31.304001 -4.355 -1.482 7
39.963001 -5.506 -1.219 0
51.298 -7 -0.704 4
18.42 -2.5309999 -1.74 13
21.57 -2.9319999 -1.671 17
26.079 -3.506 -1.579 8
32.832001 -4.3660002 -1.434 7
43.719002 -5.7540002 -1.175 12
56.481998 -7.3600001 -0.57300001 10
19.042999 -2.497 -1.727 13
22.410999 -2.9059999 -1.653 18
27.351999 -3.507 -1.557 8
34.466999 -4.3709998 -1.382 4
43.907001 -5.507 -1.026 1
46.870998 -5.8179998 -0.31400001 25
19.687 -2.4590001 -1.714 14
23.261 -2.8699999 -1.632 18
28.712999 -3.503 -1.533 7
0 0 0 0
46.900002 -5.5929999 -0.93699998 65
46.935001 -5.5370002 -0.15700001 150
20.360001 -2.415 -1.7 15
24.114 -2.825 -1.608 14
30.289 -3.503 -1.513 9
38.789001 -4.4349999 -1.291 1
46.955002 -5.3060002 -0.78299999 57
48.174 -5.3839998 -0.0060000001 83
21.014 -2.359 -1.682 16
25.032 -2.7739999 -1.585 11
31.43 -3.438 -1.466 8
42.07 -4.546 -1.2640001 4
47.080002 -5.026 -0.63499999 50
48.313999 -5.0960002 0.146 61
21.783001 -2.3069999 -1.671 17
26.025999 -2.7179999 -1.563 11
32.633999 -3.3629999 -1.418 7
42.303001 -4.3010001 -1.137 1
48.241001 -4.8439999 -0.50099999 83
48.487999 -4.8080001 0.294 47
22.497999 -2.2379999 -1.654 18
26.972 -2.6440001 -1.535 9
34.126999 -3.2969999 -1.377 6
44.033001 -4.1960001 -1.05 4
48.341999 -4.5440001 -0.35699999 64
44.763 -4.1529999 0.403 71
23.207001 -2.1570001 -1.633 17
28.209999 -2.5829999 -1.5190001 9
35.886002 -3.2379999 -1.341 3
44.561001 -3.964 -0.93300003 44
48.82 -4.2800002 -0.221 22
53.884998 -4.6570001 0.63700002 52
24 -2.076 -1.618 19
29.152 -2.48 -1.484 9
0 0 0 0
49.132 -4.0510001 -0.889 86
54.030998 -4.3889999 -0.094999999 83
54.055 -4.3239999 0.787 61
24.806 -1.984 -1.601 11
30.417999 -2.392 -1.464 8
0 0 0 0
49.687 -3.776 -0.764 61
72.186996 -5.3979998 0.064999998 5
54.182999 -3.9849999 0.93099999 85
25.582001 -1.877 -1.58 14
31.507 -2.2709999 -1.4299999 8
40.477001 -2.8640001 -1.177 1
49.092999 -3.4130001 -0.62800002 19
0 0 0 0
55.751999 -3.74 1.097 5
26.351 -1.761 -1.558 9
32.518002 -2.132 -1.393 7
42.584999 -2.737 -1.13 3
51.446999 -3.243 -0.52999997 27
54.483002 -3.3670001 0.32100001 98
55.882999 -3.385 1.235 53
27.198999 -1.64 -1.54 10
33.469002 -1.973 -1.35 5
44.401001 -2.562 -1.071 13
52.109001 -2.941 -0.412 16
55.999001 -3.092 0.46200001 27
100.458 -5.4250002 2.4530001 19
28.284 -1.517 -1.533 9
34.692001 -1.8150001 -1.317 5
45.127998 -2.3039999 -0.98299998 7
49.820999 -2.48 -0.28 2
56.162998 -2.727 0.59100002 27
99.162003 -4.6960001 2.642 14
29.035 -1.3609999 -1.506 9
35.727001 -1.6289999 -1.275 4
45.723 -2.0280001 -0.89399999 2
61.435001 -2.651 -0.212 16
0 0 0 0
99.910004 -4.0760002 2.869 31
29.774 -1.197 -1.479 9
36.696999 -1.427 -1.2309999 1
48.664001 -1.834 -0.85000002 84
54.662998 -1.993 -0.075000003 50
54.643002 -1.929 0.801 49
100.087 -3.4159999 3.0739999 19
30.434999 -1.017 -1.449 8
37.890999 -1.219 -1.194 1
48.782001 -1.51 -0.75400001 78
65.733002 -1.959 0.035999998 3
54.793999 -1.5700001 0.90799999 48
100.261 -2.7539999 3.2679999 13
31.143 -0.82999998 -1.421 7
0 0 0 0
49.577999 -1.202 -0.67400002 50
55.005001 -1.27 0.131 7
54.958 -1.207 1.01 26
81.938004 -1.7029999 2.8150001 14
32 -0.63700002 -1.402 7
0 0 0 0
50.212002 -0.88099998 -0.59500003 30
55.049999 -0.90399998 0.226 5
55.108002 -0.83700001 1.107 15
80.712997 -1.136 2.908 51
32.650002 -0.428 -1.374 6
43.095001 -0.51200002 -1.126 5
49.679001 -0.53200001 -0.505 29
78.837997 -0.755 0.45300001 8
55.284 -0.465 1.198 2
81.026001 -0.59200001 3.046 37
33.362999 -0.20999999 -1.351 7
43.286999 -0.222 -1.063 4
50.650002 -0.2 -0.43799999 19
45.869999 -0.12800001 0.33199999 18
45.766998 -0.072999999 1.0599999 45
45.869999 -0.023 1.791 2
34.051998 0.021 -1.327 7
45.179001 0.082000002 -1.043 30
45.751999 0.134 -0.33000001 73
45.862 0.185 0.39700001 2
52.428001 0.271 1.286 2
80.688004 0.50999999 3.26 13
34.631001 0.26199999 -1.302 6
45.328999 0.39300001 -0.986 44
49.678001 0.48699999 -0.292 3
52.037998 0.56900001 0.51800001 4
52.296001 0.63099998 1.349 5
80.695999 1.066 3.3610001 6
35.004002 0.50800002 -1.272 7
45.280998 0.70599997 -0.92900002 12
55.339001 0.92199999 -0.25999999 19
51.196999 0.91299999 0.56999999 38
51.433998 0.97500002 1.386 5
96.237 1.928 4.1160002 9
35.702999 0.76499999 -1.257 4
45.351002 1.02 -0.88 4
56 1.321 -0.20200001 58
50.779999 1.252 0.61799997 60
51.909 1.337 1.452 14
71.278 1.916 3.1210001 31
35.748001 1.0140001 -1.222 3
48.862 1.441 -0.89899999 17
52.554001 1.604 -0.138 2
50.782001 1.6059999 0.667 66
51.019001 1.6670001 1.475 23
70.943001 2.3970001 3.171 41
36.221001 1.28 -1.205 1
49.035999 1.786 -0.85900003 28
51.564999 1.931 -0.090999998 51
50.740002 1.955 0.70899999 63
51.596001 2.0420001 1.534 2
70.837997 2.885 3.223 31
36.238998 1.534 -1.177 1
49.068001 2.128 -0.82200003 40
55.432999 2.4630001 -0.057 78
51.085999 2.3239999 0.75099999 58
50.784 2.365 1.546 4
71.087997 3.3889999 3.283 32
37.653999 1.862 -1.197 1
49.292 2.4879999 -0.79299998 28
55.196999 2.8410001 -0.021 72
50.862 2.671 0.77899998 63
51.286999 2.7479999 1.592 6
66.958 3.661 3.132 29
37.757 2.1329999 -1.1799999 1
49.224998 2.8329999 -0.76599997 39
54.763 3.207 0.0070000002 55
51.007 3.04 0.80699998 63
71.859001 4.3559999 2.266 6
93.612 5.776 4.4229999 11
38.641998 2.4560001 -1.191 1
49.407001 3.1889999 -0.74800003 31
54.719002 3.589 0.028999999 70
50.854 3.388 0.824 52
51.062 3.4549999 1.6289999 6
66.877998 4.5970001 3.184 29
0 0 0 0
49.334999 3.5350001 -0.73199999 25
54.307999 3.947 0.044 54
51.526001 3.7969999 0.85000002 4
103.223 7.7140002 3.3210001 11
102.713 7.7800002 4.9159999 36
0 0 0 0
49.667999 3.9100001 -0.72799999 22
53.742001 4.2849998 0.052000001 64
108.589 8.7620001 1.807 12
110.451 9.0200005 3.569 24
102.787 8.5019999 4.9330001 22
37.987 3.224 -1.149 1
49.644001 4.2600002 -0.72399998 21
53.631001 4.6529999 0.056000002 67
107.54 9.4309998 1.796 8
102.103 9.0570002 3.3039999 29
101.233 9.0839996 4.862 6
0 0 0 0
47.700001 4.4320002 -0.699 2
53.612999 5.033 0.052999999 78
77.385002 7.3400002 1.2869999 11
103.615 9.9259996 3.345 28
100.838 9.7629995 4.835 43
37.979 3.7650001 -1.156 5
0 0 0 0
53.195999 5.369 0.043000001 66
0 0 0 0
102.844 10.573 3.3 8
101.79 10.568 4.8600001 39
23.872 2.536 -0.73299998 0
46.540001 4.9860001 -0.70200002 4
52.675999 5.6900001 0.027000001 51
104.405 11.375 1.687 11
0 0 0 0
102.484 11.362 4.8629999 17
24.122999 2.7360001 -0.75 5
47.007 5.3730001 -0.72799999 38
52.591999 6.0570002 0.0060000001 54
103.909 12.062 1.636 14
47.397999 5.5450001 1.488 32
47.527 5.6069999 2.2349999 13
24.294001 2.9300001 -0.76800001 32
46.728001 5.6719999 -0.74800003 45
19.886 2.431 -0.0070000002 24
19.232 2.368 0.292 36
60.014999 7.4429998 1.852 28
89.449997 11.184 4.1609998 36
23.451 2.9949999 -0.75599998 73
19.208 2.4679999 -0.31900001 21
18.24 2.359 -0.017999999 5
88.947998 11.579 1.299 6
60.013 7.8670001 1.8150001 41
89.239998 11.785 4.0939999 42
17.57 2.3710001 -0.57999998 91
17.698 2.401 -0.30700001 57
23.671 3.2309999 -0.041999999 46
23.865 3.277 0.33000001 18
59.196999 8.1789999 1.7460001 2
89.296997 12.423 4.0320001 36
19.277 2.7390001 -0.653 88
17.652 2.5209999 -0.322 51
52.886002 7.5970001 -0.139 52
58.921001 8.5120001 0.76599997 3
59.002998 8.5760002 1.689 6
79.058998 11.562 3.5020001 4
18.298 2.7309999 -0.63700002 53
24.509001 3.675 -0.47099999 71
24.909 3.753 -0.089000002 47
25.000999 3.7869999 0.301 1
79.084 12.048 2.1889999 4
89.132004 13.661 3.862 29
17.653 2.76 -0.63499999 16
25.386999 3.9879999 -0.51599997 1
25.247999 3.9849999 -0.118 36
75.339996 11.952 0.82499999 5
58.929001 9.3950005 1.568 51
88.849998 14.246 3.7550001 21
21.011 3.438 -0.78100002 10
26.705999 4.3870001 -0.57499999 20
52.542999 8.6709995 -0.30899999 15
61.931999 10.265 0.60500002 4
58.848999 9.802 1.4960001 52
88.565002 14.83 3.6389999 45
20.931 3.5769999 -0.80699998 7
25.888 4.4390001 -0.59200001 28
26.643999 4.5879998 -0.192 5
26.733999 4.6220002 0.226 46
86.935997 15.1 2.0969999 30
86.919998 15.173 3.4590001 23
22.070999 3.9289999 -0.88200003 60
25.607 4.5739999 -0.62199998 25
26.983999 4.836 -0.23199999 42
27.122999 4.8800001 0.191 48
74.026001 13.375 1.683 11
86.353996 15.676 3.3169999 31
22.152 4.1009998 -0.92000002 46
25.466999 4.7280002 -0.65799999 46
27.075001 5.0440001 -0.27500001 27
27.319 5.1069999 0.15099999 1
74.816002 14.047 1.5880001 11
86.182999 16.245001 3.1819999 36
18.916 3.6370001 -0.81699997 0
25.735001 4.9619999 -0.708 66
47.561001 9.1969995 -0.56099999 5
58.375999 11.327 0.228 2
73.314003 14.277 1.439 4
86.233002 16.862 3.046 32
18.16 3.6210001 -0.81699997 12
24.959999 4.9910002 -0.73100001 60
27.933001 5.6009998 -0.37900001 29
28.104 5.652 0.061000001 43
63.066002 12.726 1.1289999 7
27.677 5.6079998 0.93000001 7
18.149 3.7490001 -0.85100001 7
21.757999 4.5050001 -0.67799997 6
27.868 5.7849998 -0.43000001 19
27.742001 5.776 0.0080000004 150
27.797001 5.8070002 0.44499999 3
71.157997 14.922 2.2609999 13
17.927 3.8329999 -0.87800002 6
21.582001 4.6230001 -0.71600002 27
27.896999 5.9899998 -0.486 26
54.074001 11.643 -0.090000004 13
75.999001 16.410999 1.071 6
71.014 15.387 2.119 21
17.283001 3.8199999 -0.88300002 66
20.915001 4.6300001 -0.73799998 48
27.27 6.0489998 -0.53200001 28
29.025 6.454 -0.108 18
29.107 6.4899998 0.34999999 8
69.646004 15.575 1.939 11
17.108999 3.902 -0.91299999 56
20.649 4.717 -0.77499998 54
27.264999 6.2379999 -0.59100002 28
29.239 6.7049999 -0.17200001 20
29.410999 6.7610002 0.29100001 47
86.677002 19.986 2.2279999 22
16.705999 3.928 -0.93099999 57
19.768999 4.6539998 -0.78799999 52
26.862 6.3340001 -0.64399999 31
29.635 7 -0.241 4
48.534 11.495 0.373 55
48.463001 11.511 1.138 26
16.632999 4.0289998 -0.96799999 62
19.302 4.6799998 -0.81599998 62
24.752001 6.0110002 -0.653 27
29.388 7.1500001 -0.31 1
53.271 12.987 0.28299999 3
70.401001 17.209 1.489 77
16.655001 4.152 -1.012 52
18.437 4.5999999 -0.82700002 56
0 0 0 0
29.936001 7.4920001 -0.389 3
30.046 7.533 0.086000003 19
30.135 7.5739999 0.56400001 5
16.862 4.323 -1.069 52
17.575001 4.5089998 -0.83399999 54
21.405001 5.4970002 -0.67500001 43
30.1 7.7420001 -0.47 34
30.327 7.8150001 0.0080000004 1
30.336 7.836 0.491 3
16.740999 4.4120002 -1.11 51
17.007999 4.4840002 -0.85500002 61
20.398001 5.381 -0.699 57
29.232 7.7220001 -0.53500003 37
30.474001 8.0640001 -0.071999997 4
30.562 8.1040001 0.41299999 21
16.754999 4.533 -1.16 51
16.959 4.5910001 -0.90200001 51
19.472 5.2750001 -0.72299999 56
25.072001 6.8000002 -0.52999997 18
30.232 8.2110004 -0.156 1
0 0 0 0
12.174 3.3800001 -0.87900001 13
16.981001 4.7150002 -0.954 48
18.691999 5.1939998 -0.74900001 53
23.635 6.5739999 -0.56900001 23
30.958 8.6230001 -0.25 35
31.059999 8.6660004 0.245 14
12.069 3.4360001 -0.91000003 34
16.843 4.7950001 -0.99800003 53
17.729 5.0489998 -0.76499999 41
23.575001 6.7189999 -0.639 63
31.158001 8.8909998 -0.34400001 12
31.218 8.9239998 0.154 19
11.83 3.451 -0.93000001 40
16.784 4.8969998 -1.049 54
17.200001 5.0190001 -0.79699999 40
24.309999 7.0970001 -0.73500001 54
31.289 9.1429996 -0.442 37
31.382 9.1829996 0.059 28
11.507 3.438 -0.94400001 40
16.891001 5.0450001 -1.112 48
16.934 5.0580001 -0.83999997 49
24.707001 7.3829999 -0.82599998 47
25.587999 7.6529999 -0.44299999 5
31.136 9.3219995 -0.037999999 0
11.068 3.3840001 -0.94700003 52
12.361 3.777 -0.85600001 19
16.865 5.1529999 -0.89300001 47
18.562 5.6729999 -0.68199998 24
18.481001 5.652 -0.38100001 34
31.771999 9.7290001 -0.142 12
10.96 3.428 -0.97600001 44
12.228 3.8210001 -0.88999999 41
16.889999 5.276 -0.95300001 48
18.427 5.757 -0.74000001 19
18.259001 5.7080002 -0.43799999 40
31.917999 9.9870005 -0.25 3
10.772 3.444 -1 42
11.903 3.802 -0.90899998 55
17.139999 5.4720001 -1.029 48
18.343 5.8559999 -0.80199999 14
18.188 5.8080001 -0.49900001 38
18.327 5.8569999 -0.206 34
10.691 3.4909999 -1.0319999 39
11.569 3.7739999 -0.92699999 46
17.566999 5.7270002 -1.119 36
0 0 0 0
18.021999 5.875 -0.55900002 39
18.139999 5.9159999 -0.26699999 45
10.741 3.5810001 -1.079 34
11.183 3.724 -0.93800002 41
12.365 4.1139998 -0.83399999 2
18.264999 6.0760002 -0.93199998 37
18.107 6.0229998 -0.62699997 31
17.993999 5.9889998 -0.331 48
10.669 3.6300001 -1.114 41
10.826 3.6789999 -0.95099998 56
12.314 4.1799998 -0.87800002 35
18.205999 6.177 -0.99800003 39
17.985001 6.1020002 -0.69099998 39
17.907 6.0770001 -0.39500001 42
10.645 3.6949999 -1.156 34
10.618 3.6800001 -0.97500002 41
11.987 4.1500001 -0.90200001 47
17.879999 6.1859999 -1.051 40
18.030001 6.2360001 -0.76300001 40
17.912001 6.1960001 -0.46399999 44
10.486 3.711 -1.182 39
10.424 3.6830001 -1.001 51
11.571 4.0830002 -0.91799998 47
17.475 6.1620002 -1.097 31
17.985001 6.3390002 -0.83200002 38
17.919001 6.316 -0.53399998 38
10.326 3.7249999 -1.209 39
10.259 3.694 -1.028 55
11.189 4.0229998 -0.935 52
12.553 4.5089998 -0.83899999 9
18.128 6.5079999 -0.912 37
17.893 6.4229999 -0.60399997 50
10.233 3.76 -1.243 42
10.234 3.753 -1.0700001 56
10.868 3.9790001 -0.95300001 46
12.35 4.5159998 -0.87699997 46
18.118999 6.6220002 -0.986 41
18.224001 6.6589999 -0.69 26
10.161 3.802 -1.28 42
10.179 3.8 -1.109 54
10.407 3.8789999 -0.958 45
12.003 4.4679999 -0.90399998 43
17.704 6.585 -1.038 40
19.5 7.2509999 -0.81999999 22
10.156 3.868 -1.326 36
10.134 3.8510001 -1.151 46
10.16 3.8540001 -0.98100001 57
11.546 4.3730001 -0.92000002 40
17.433001 6.5949998 -1.097 28
19.735001 7.4629998 -0.91299999 20
10.068 3.902 -1.362 39
10.104 3.9059999 -1.193 57
10.057 3.8800001 -1.017 49
10.982 4.2290001 -0.92400002 57
12.53 4.8210001 -0.84399998 25
18.695999 7.1890001 -0.94700003 33
10.024 3.95 -1.404 43
10.038 3.9460001 -1.233 50
9.9910002 3.918 -1.056 45
10.659 4.1729999 -0.94499999 44
12.18 4.7620001 -0.87400001 42
18.023001 7.0409999 -0.99199998 39
10.079 4.0380001 -1.461 33
9.9049997 3.957 -1.263 50
9.9169998 3.9519999 -1.095 51
10.291 4.0929999 -0.95999998 41
11.759 4.671 -0.898 42
17.615999 6.9910002 -1.048 38
9.9619999 4.0560002 -1.493 41
9.8330002 3.9920001 -1.302 55
9.8509998 3.9879999 -1.1339999 50
9.9630003 4.0250001 -0.97600001 45
11.28 4.5500002 -0.91299999 41
12.747 5.1360002 -0.81699997 10
9.9230003 4.1030002 -1.5369999 36
9.8450003 4.0580001 -1.352 43
9.75 4.0079999 -1.17 55
9.8190002 4.0279999 -1.0089999 45
10.803 4.4239998 -0.92500001 48
12.401 5.072 -0.852 24
9.875 4.1469998 -1.58 42
9.8280001 4.1129999 -1.4 50
9.7069998 4.0510001 -1.2130001 51
9.7379999 4.0539999 -1.048 49
10.446 4.3400002 -0.94499999 55
12.125 5.0310001 -0.889 38
9.8190002 4.1859999 -1.622 27
9.8559999 4.1869998 -1.454 42
9.6479998 4.086 -1.2539999 50
9.677 4.0879998 -1.089 43
10.076 4.2480001 -0.95999998 42
11.502 4.8410001 -0.89899999 40
9.6540003 4.1760001 -1.646 11
9.7950001 4.2220001 -1.4960001 40
9.6289997 4.1370001 -1.301 44
9.6719999 4.1440001 -1.137 41
9.7790003 4.1799998 -0.98000002 40
10.792 4.605 -0.89600003 47
9.5539999 4.1919999 -1.681 9
9.823 4.2940001 -1.552 35
9.585 4.1760001 -1.344 47
9.5389996 4.1440001 -1.17 36
9.5799999 4.152 -1.008 40
10.687 4.6230001 -0.94 46
9.4919996 4.224 -1.722 9
9.698 4.2979999 -1.584 32
9.566 4.224 -1.391 47
9.5649996 4.211 -1.222 44
9.4720001 4.1589999 -1.045 38
10.166 4.4549999 -0.94499999 38
9.3290005 4.2080002 -1.743 10
9.625 4.3239999 -1.624 23
9.7480001 4.362 -1.469 34
9.4820004 4.23 -1.261 44
9.4230003 4.1919999 -1.087 47
9.8500004 4.3730001 -0.96499997 41
9.1090002 4.164 -1.7539999 12
9.4429998 4.2969999 -1.645 8
9.6949997 4.3959999 -1.5140001 42
9.427 4.2600002 -1.304 47
9.3909998 4.2309999 -1.133 44
9.5500002 4.2919998 -0.98400003 38
8.8199997 4.0840001 -1.747 10
9.3769999 4.323 -1.686 10
9.5880003 4.402 -1.549 32
9.4020004 4.3010001 -1.35 42
9.3990002 4.2870002 -1.183 44
9.3830004 4.2680001 -1.015 43
8.5740004 4.0209999 -1.748 11
9.3079996 4.3439999 -1.725 9
9.5240002 4.4260001 -1.591 36
9.3400002 4.3239999 -1.391 45
9.2840004 4.2839999 -1.217 46
9.2869997 4.2750001 -1.052 42
8.3599997 3.9690001 -1.752 11
9.1370001 4.3169999 -1.745 14
9.4350004 4.4380002 -1.628 24
9.3500004 4.381 -1.444 33
9.2519999 4.3200002 -1.262 41
9.2799997 4.3210001 -1.101 34
8.1479998 3.9159999 -1.756 11
8.868 4.2399998 -1.744 12
9.2530003 4.4029999 -1.649 10
9.276 4.3959999 -1.483 40
9.2860003 4.3850002 -1.317 38
9.2489996 4.355 -1.147 41
7.9559999 3.868 -1.761 11
8.5939999 4.1560001 -1.74 11
9.1960001 4.4260001 -1.6900001 11
9.302 4.4580002 -1.539 39
9.1969995 4.3920002 -1.355 40
9.2119999 4.3850002 -1.192 37
7.7540002 3.8139999 -1.763 11
8.3800001 4.098 -1.7460001 11
9.118 4.4369998 -1.729 13
9.309 4.5100002 -1.592 29
9.1789999 4.4299998 -1.403 39
9.1560001 4.4039998 -1.233 39
7.5739999 3.766 -1.767 10
8.1639996 4.0370002 -1.749 11
8.9200001 4.388 -1.742 12
9.21 4.5100002 -1.628 15
9.2460003 4.5089998 -1.464 37
9.1400003 4.4419999 -1.281 38
7.3909998 3.7149999 -1.7690001 10
7.9699998 3.983 -1.7539999 10
8.6599998 4.3039999 -1.7410001 12
9.099 4.5009999 -1.659 11
9.3339996 4.5970001 -1.529 37
9.1470003 4.4889998 -1.332 42
7.2249999 3.6700001 -1.773 10
7.7740002 3.925 -1.757 10
8.4219999 4.2290001 -1.743 11
9.0600004 4.526 -1.704 11
9.2589998 4.605 -1.569 37
9.0679998 4.493 -1.3710001 41
7.0609999 3.6240001 -1.777 10
7.5890002 3.8699999 -1.761 10
8.217 4.1659999 -1.748 10
8.9490004 4.5139999 -1.734 11
9.2069998 4.6220002 -1.612 26
9.2580004 4.6300001 -1.451 37
6.8940001 3.5739999 -1.777 9
7.4169998 3.819 -1.766 11
8.0129995 4.1020002 -1.752 12
8.7220001 4.441 -1.7410001 12
9.0369997 4.579 -1.6339999 12
9.309 4.698 -1.511 36
6.743 3.529 -1.781 9
7.237 3.7620001 -1.767 10
7.816 4.0380001 -1.755 10
8.4779997 4.3559999 -1.742 12
8.9709997 4.586 -1.673 11
9.1709995 4.6680002 -1.54 30
6.5910001 3.4820001 -1.7819999 9
7.0770001 3.7130001 -1.772 10
7.6290002 3.977 -1.7589999 11
8.257 4.2800002 -1.745 11
8.9300003 4.605 -1.717 11
9.0959997 4.6700001 -1.579 35
6.461 3.4449999 -1.788 9
6.9029999 3.654 -1.77 10
7.4499998 3.9170001 -1.763 11
8.0539999 4.21 -1.749 11
8.783 4.566 -1.739 12
9.0310001 4.6739998 -1.619 21
6.296 3.3859999 -1.781 10
6.7529998 3.605 -1.773 9
7.2849998 3.8629999 -1.768 10
7.8540001 4.1389999 -1.752 11
8.552 4.4819999 -1.743 12
8.9020004 4.6430001 -1.646 10
6.1539998 3.3380001 -1.78 10
6.6230001 3.5650001 -1.78 9
7.118 3.8050001 -1.77 11
7.6719999 4.0749998 -1.756 10
8.3210001 4.3940001 -1.744 11
8.8690004 4.6599998 -1.6900001 10
6.0419998 3.3039999 -1.786 11
6.4889998 3.52 -1.784 9
6.96 3.7490001 -1.773 10
7.493 4.0089998 -1.76 11
8.1190004 4.3189998 -1.748 11
8.809 4.6620002 -1.728 12
5.9159999 3.2609999 -1.786 10
6.3559999 3.4749999 -1.7869999 9
6.8210001 3.7019999 -1.779 10
7.3249998 3.948 -1.7640001 11
7.9120002 4.2389998 -1.75 11
8.625 4.5949998 -1.7410001 12
5.8119998 3.2279999 -1.7920001 10
6.1869998 3.4070001 -1.778 10
6.6599998 3.6400001 -1.777 9
7.1659999 3.8889999 -1.768 10
7.73 4.1690001 -1.7539999 11
8.3940001 4.5019999 -1.742 12
5.6939998 3.1849999 -1.791 10
6.0580001 3.3599999 -1.778 11
6.533 3.595 -1.7819999 10
7.0159998 3.8329999 -1.772 10
7.5570002 4.1020002 -1.758 11
8.1789999 4.414 -1.744 11
5.5879998 3.1470001 -1.794 10
5.9559999 3.325 -1.785 11
6.4029999 3.546 -1.785 9
6.868 3.776 -1.775 9
7.3850002 4.033 -1.761 11
7.9889998 4.3369999 -1.749 11
5.4809999 3.108 -1.794 10
5.8410001 3.2820001 -1.786 11
6.2490001 3.4820001 -1.78 10
6.7069998 3.7090001 -1.772 9
7.2259998 3.9690001 -1.765 10
7.8060002 4.2610002 -1.753 10
5.3870001 3.0739999 -1.7970001 11
5.7309999 3.24 -1.788 10
6.1259999 3.434 -1.781 10
6.5749998 3.6570001 -1.776 9
7.0689998 3.904 -1.767 10
7.6240001 4.1830001 -1.7539999 11
5.296 3.04 -1.8 11
5.625 3.198 -1.789 10
6.052 3.411 -1.796 9
6.4629998 3.6129999 -1.783 10
6.9390001 3.852 -1.773 10
7.4549999 4.1110001 -1.757 11
5.1929998 2.997 -1.7970001 11
5.5190001 3.155 -1.789 10
5.9029999 3.3440001 -1.7869999 11
6.3470001 3.5669999 -1.788 9
6.7789998 3.7809999 -1.771 9
7.2979999 4.0430002 -1.761 11
5.0999999 2.9590001 -1.7970001 11
5.4180002 3.112 -1.789 11
5.79 3.296 -1.7869999 11
6.1989999 3.5 -1.7819999 10
6.658 3.73 -1.777 10
7.1529999 3.98 -1.7640001 10
5.0149999 2.924 -1.7970001 12
5.3400002 3.082 -1.795 12
5.691 3.2539999 -1.789 10
6.0799999 3.447 -1.7819999 10
6.5320001 3.675 -1.779 9
7.0040002 3.9119999 -1.766 10
4.934 2.8900001 -1.798 11
5.2470002 3.0420001 -1.794 11
5.5910001 3.211 -1.79 11
5.9689999 3.398 -1.783 11
6.4109998 3.6199999 -1.7819999 9
6.8730001 3.8529999 -1.771 10
4.8600001 2.859 -1.801 10
5.1560001 3.0020001 -1.794 12
5.5050001 3.174 -1.794 10
5.868 3.3529999 -1.786 11
6.2810001 3.559 -1.78 11
6.7420001 3.7920001 -1.773 10
4.789 2.829 -1.804 9
5.0830002 2.971 -1.798 12
5.408 3.1289999 -1.793 10
5.77 3.3080001 -1.788 10
6.1599998 3.5020001 -1.78 10
6.6279998 3.7390001 -1.779 10
4.7090001 2.7920001 -1.801 9
4.9990001 2.931 -1.7970001 11
5.3239999 3.0899999 -1.795 11
5.6760001 3.2639999 -1.79 10
6.0549998 3.4519999 -1.7819999 10
6.4809999 3.665 -1.773 10
4.645 2.763 -1.804 10
4.9229999 2.8959999 -1.798 11
5.2350001 3.0469999 -1.794 11
5.5819998 3.2179999 -1.791 10
5.948 3.3989999 -1.781 10
6.355 3.602 -1.771 10
4.579 2.7320001 -1.8049999 10
4.8499999 2.8599999 -1.798 11
5.152 3.006 -1.794 12
5.4910002 3.1730001 -1.791 10
5.8629999 3.3570001 -1.786 10
6.2550001 3.552 -1.775 11
4.5149999 2.701 -1.8049999 10
4.7800002 2.825 -1.798 11
5.085 2.973 -1.7970001 13
5.3969998 3.1240001 -1.788 10
5.7659998 3.3069999 -1.7869999 10
6.151 3.4990001 -1.777 10
4.4530001 2.6689999 -1.8049999 9
4.7199998 2.796 -1.802 10
5.0089998 2.934 -1.7970001 12
5.3319998 3.092 -1.794 11
5.6820002 3.2639999 -1.789 10
6.046 3.4430001 -1.776 10
4.3979998 2.641 -1.807 9
4.652 2.76 -1.8 11
4.9400001 2.898 -1.798 11
5.2589998 3.053 -1.796 11
5.5910001 3.2149999 -1.788 10
5.9569998 3.395 -1.779 11
4.3340001 2.6070001 -1.804 10
4.5929999 2.7290001 -1.802 11
4.8759999 2.8640001 -1.799 11
5.1830001 3.0109999 -1.796 11
5.5170002 3.174 -1.791 11
5.868 3.346 -1.781 10
4.2880001 2.582 -1.807 9
4.5409999 2.7 -1.804 10
4.8130002 2.829 -1.8 11
5.1110001 2.971 -1.796 12
5.4369998 3.1289999 -1.791 11
5.7880001 3.3010001 -1.783 11
4.2360001 2.552 -1.807 9
4.4809999 2.6659999 -1.803 11
4.7459998 2.79 -1.798 11
5.0370002 2.928 -1.794 13
5.3590002 3.0840001 -1.79 12
5.7080002 3.2550001 -1.785 10
4.1869998 2.5239999 -1.807 10
4.4299998 2.6359999 -1.804 10
4.6919999 2.7579999 -1.8 12
4.9840002 2.8970001 -1.798 11
5.2870002 3.0420001 -1.79 12
5.6399999 3.214 -1.788 10
4.1459999 2.4990001 -1.809 10
4.3870001 2.6099999 -1.807 10
4.6469998 2.7309999 -1.804 11
4.915 2.855 -1.796 12
5.2319999 3.0079999 -1.795 12
5.5570002 3.164 -1.786 10
4.1110001 2.477 -1.813 10
4.336 2.5780001 -1.806 10
4.599 2.7 -1.806 11
4.8660002 2.8239999 -1.799 10
5.1750002 2.971 -1.798 13
5.494 3.1240001 -1.789 10
4.0679998 2.4489999 -1.813 9
4.2880001 2.546 -1.8049999 10
4.552 2.6689999 -1.808 12
4.8309999 2.799 -1.807 11
5.0970001 2.9219999 -1.7920001 11
5.4190001 3.076 -1.7869999 11
4.0279999 2.4219999 -1.814 10
4.2509999 2.5209999 -1.808 11
4.5 2.6340001 -1.806 12
4.7550001 2.7509999 -1.798 10
5.053 2.891 -1.798 12
5.3540001 3.0320001 -1.788 11
3.9879999 2.3940001 -1.813 10
4.2059999 2.49 -1.807 10
4.454 2.602 -1.806 11
4.7119999 2.72 -1.801 10
4.9959998 2.852 -1.7970001 13
5.29 2.9890001 -1.7869999 12
3.9530001 2.368 -1.813 9
4.1669998 2.461 -1.807 11
4.4229999 2.5780001 -1.811 11
4.6669998 2.688 -1.802 11
4.947 2.816 -1.798 12
5.2360001 2.95 -1.788 12
3.9300001 2.349 -1.818 10
4.1350002 2.4360001 -1.809 11
4.3800001 2.546 -1.8099999 10
4.6259999 2.655 -1.803 10
4.8959999 2.779 -1.7970001 12
5.1989999 2.9189999 -1.794 12
3.8940001 2.3210001 -1.816 9
4.1079998 2.4130001 -1.813 11
4.3369999 2.513 -1.808 10
4.5910001 2.6270001 -1.806 11
4.8449998 2.7409999 -1.796 12
5.1409998 2.8759999 -1.7920001 13
3.8599999 2.293 -1.814 10
4.0799999 2.388 -1.8150001 11
4.3080001 2.4879999 -1.811 10
4.5489998 2.5940001 -1.8049999 10
4.8179998 2.714 -1.802 12
5.1020002 2.8429999 -1.795 13
3.842 2.2739999 -1.819 9
4.0469999 2.3599999 -1.814 10
4.2750001 2.4590001 -1.812 11
4.5250001 2.569 -1.8099999 11
4.7449999 2.6619999 -1.79 10
5.0619998 2.809 -1.7970001 13
3.819 2.2509999 -1.821 9
4.0229998 2.336 -1.816 10
4.243 2.4300001 -1.811 11
4.4809999 2.533 -1.807 11
4.7410002 2.648 -1.803 11
5.0190001 2.7720001 -1.7970001 12
3.7909999 2.2249999 -1.819 10
3.993 2.3080001 -1.8150001 11
4.211 2.4000001 -1.8099999 11
4.4559999 2.506 -1.8099999 11
4.6960001 2.6099999 -1.8 10
4.9790001 2.7360001 -1.798 13
3.7679999 2.201 -1.8200001 10
3.9719999 2.2839999 -1.817 10
4.1880002 2.375 -1.812 11
4.428 2.477 -1.811 10
4.6760001 2.5840001 -1.8049999 11
4.9400001 2.6989999 -1.7970001 12
3.75 2.178 -1.821 9
3.948 2.2579999 -1.816 11
4.1620002 2.3469999 -1.812 11
4.4039998 2.45 -1.813 10
4.6500001 2.5550001 -1.807 11
4.888 2.655 -1.7920001 10
3.7320001 2.1559999 -1.822 9
3.9300001 2.2349999 -1.818 11
4.1409998 2.3210001 -1.814 10
4.3709998 2.4170001 -1.8099999 10
4.619 2.5220001 -1.807 11
4.8720002 2.6289999 -1.798 11
3.7090001 2.1289999 -1.8200001 9
3.9059999 2.207 -1.816 11
4.1199999 2.2939999 -1.814 11
4.3449998 2.3870001 -1.8099999 10
4.5949998 2.4920001 -1.808 11
4.849 2.599 -1.8 11
3.6889999 2.1029999 -1.818 8
3.8889999 2.1830001 -1.817 10
4.0999999 2.2679999 -1.814 11
4.3260002 2.3599999 -1.811 11
4.573 2.4630001 -1.809 11
4.8169999 2.5639999 -1.798 11
3.6789999 2.0829999 -1.8200001 9
3.868 2.1559999 -1.8150001 10
4.0869999 2.244 -1.817 11
4.2969999 2.3269999 -1.808 11
4.539 2.427 -1.8049999 11
4.776 2.523 -1.793 10
3.6619999 2.0580001 -1.819 9
3.8629999 2.1370001 -1.8200001 11
4.0749998 2.22 -1.819 11
4.2849998 2.303 -1.8099999 11
4.5229998 2.3989999 -1.807 11
4.7719998 2.5009999 -1.8 10
3.652 2.0369999 -1.8200001 9
3.848 2.112 -1.819 10
4.0489998 2.1889999 -1.814 11
4.2659998 2.2739999 -1.809 11
4.507 2.3710001 -1.808 10
4.7620001 2.4749999 -1.8049999 11
3.6389999 2.0120001 -1.818 9
3.8399999 2.0899999 -1.821 10
4.0430002 2.1670001 -1.817 10
4.2509999 2.2460001 -1.809 10
4.493 2.3429999 -1.8099999 11
4.7350001 2.4389999 -1.802 11
3.631 1.9910001 -1.819 9
3.8269999 2.0639999 -1.819 11
4.0380001 2.145 -1.8200001 11
4.2420001 2.221 -1.811 10
4.474 2.312 -1.808 10
4.7199998 2.4089999 -1.802 10
3.6240001 1.969 -1.8200001 9
3.8180001 2.04 -1.8200001 10
4.02 2.1159999 -1.816 11
4.23 2.1949999 -1.811 11
4.4640002 2.2850001 -1.809 12
4.7129998 2.3829999 -1.806 11
3.6199999 1.948 -1.821 9
3.8169999 2.02 -1.822 10
4.02 2.095 -1.821 10
4.2270002 2.171 -1.814 11
4.4489999 2.2550001 -1.808 11
4.7010002 2.3529999 -1.806 11
3.612 1.925 -1.819 9
3.8099999 1.997 -1.822 11
4.0139999 2.0710001 -1.821 11
4.2189999 2.1459999 -1.814 11
4.447 2.2320001 -1.811 12
4.6939998 2.326 -1.807 11
3.6170001 1.9069999 -1.823 9
3.8150001 1.979 -1.826 10
4.0079999 2.0469999 -1.8200001 11
4.2140002 2.1210001 -1.8150001 10
4.4320002 2.201 -1.808 12
4.6890001 2.299 -1.809 11
3.6110001 1.8839999 -1.822 9
3.8050001 1.9529999 -1.823 10
4.0019999 2.0220001 -1.8200001 11
4.2080002 2.095 -1.814 11
4.4310002 2.1760001 -1.809 11
4.6760001 2.2679999 -1.807 11
3.612 1.864 -1.822 9
3.8039999 1.9299999 -1.823 10
4.0009999 1.999 -1.821 12
4.2059999 2.0710001 -1.8150001 11
4.4299998 2.151 -1.811 11
4.6690001 2.2379999 -1.806 10
3.6099999 1.841 -1.821 9
3.8010001 1.9069999 -1.822 10
4.0019999 1.976 -1.821 11
4.2069998 2.0469999 -1.816 10
4.4299998 2.1259999 -1.812 11
4.6680002 2.211 -1.807 11
3.6159999 1.822 -1.824 9
3.8080001 1.887 -1.825 11
4.0019999 1.952 -1.821 11
4.2059999 2.0220001 -1.8150001 11
4.4330001 2.102 -1.813 11
4.6669998 2.184 -1.807 12
3.618 1.801 -1.824 10
3.8099999 1.865 -1.825 10
4.0040002 1.929 -1.821 11
4.2049999 1.997 -1.8150001 11
4.4260001 2.072 -1.8099999 11
4.6700001 2.158 -1.808 12
3.6270001 1.7819999 -1.826 10
3.812 1.8430001 -1.824 11
4.0089998 1.9069999 -1.822 11
4.2090001 1.973 -1.8150001 11
4.4299998 2.0480001 -1.811 11
4.6700001 2.1300001 -1.808 11
3.6289999 1.76 -1.824 9
3.8169999 1.8200001 -1.824 11
4.0149999 1.885 -1.822 11
4.2150002 1.949 -1.816 10
4.4359999 2.023 -1.812 12
4.6820002 2.1070001 -1.811 12
3.6400001 1.742 -1.826 9
3.826 1.8 -1.825 10
4.02 1.862 -1.822 11
4.224 1.927 -1.817 11
4.4429998 1.999 -1.812 11
4.6859999 2.0799999 -1.8099999 12
3.6489999 1.722 -1.827 9
3.8269999 1.776 -1.823 11
4.0279999 1.839 -1.822 11
4.2329998 1.905 -1.818 13
4.4510002 1.974 -1.813 11
4.6900001 2.053 -1.809 11
3.6570001 1.701 -1.827 9
3.848 1.76 -1.8279999 10
4.04 1.819 -1.824 11
4.2399998 1.88 -1.817 11
4.4679999 1.9529999 -1.816 11
4.7090001 2.0309999 -1.813 12
3.6689999 1.682 -1.8279999 9
3.8559999 1.738 -1.827 10
4.0500002 1.796 -1.824 10
4.2519999 1.858 -1.818 11
4.4720001 1.926 -1.814 11
4.7160001 2.0039999 -1.812 11
3.681 1.6619999 -1.8279999 9
3.8659999 1.716 -1.827 11
4.0630002 1.775 -1.824 11
4.2670002 1.836 -1.8200001 11
4.487 1.903 -1.8150001 11
4.7309999 1.98 -1.813 12
3.694 1.642 -1.829 9
3.8800001 1.696 -1.827 11
4.072 1.751 -1.823 11
4.277 1.812 -1.818 11
4.4959998 1.877 -1.813 12
4.7420001 1.9529999 -1.812 11
3.7060001 1.6210001 -1.8279999 9
3.892 1.674 -1.826 11
4.0949998 1.733 -1.827 11
4.289 1.788 -1.817 11
4.5209999 1.857 -1.817 12
4.7649999 1.931 -1.814 12
3.72 1.601 -1.8279999 10
3.9070001 1.653 -1.827 11
4.1059999 1.709 -1.824 10
4.3109999 1.768 -1.819 11
4.5430002 1.836 -1.819 12
4.7810001 1.906 -1.814 11
3.737 1.581 -1.829 9
3.928 1.6339999 -1.8279999 10
4.1240001 1.688 -1.825 11
4.3239999 1.743 -1.818 11
4.5539999 1.8099999 -1.816 12
4.802 1.882 -1.814 11
3.753 1.561 -1.8279999 9
3.948 1.614 -1.83 11
4.1440001 1.6670001 -1.826 11
4.3540001 1.725 -1.822 11
4.5809999 1.789 -1.818 12
4.8239999 1.858 -1.814 11
3.773 1.5420001 -1.829 10
3.961 1.591 -1.827 11
4.1630001 1.645 -1.825 12
4.3699999 1.701 -1.8200001 11
4.6030002 1.765 -1.818 11
4.8509998 1.835 -1.816 11
3.7969999 1.524 -1.831 9
3.9879999 1.573 -1.83 11
4.1890001 1.626 -1.827 11
4.3899999 1.678 -1.819 10
4.6279998 1.743 -1.819 12
4.8730001 1.8099999 -1.8150001 11
3.812 1.502 -1.829 9
4.0050001 1.551 -1.8279999 11
4.21 1.604 -1.826 12
4.4130001 1.656 -1.819 11
4.651 1.72 -1.818 12
4.9050002 1.789 -1.817 11
3.8340001 1.483 -1.829 9
4.0300002 1.5319999 -1.829 10
4.2360001 1.584 -1.8279999 12
4.4460001 1.637 -1.822 11
4.678 1.698 -1.818 11
4.928 1.7640001 -1.8150001 12
3.8570001 1.4630001 -1.829 9
4.0570002 1.513 -1.83 10
4.2600002 1.563 -1.827 11
4.4650002 1.613 -1.819 11
4.7129998 1.678 -1.821 11
4.9569998 1.74 -1.814 11
3.881 1.444 -1.8279999 9
4.0809999 1.493 -1.83 11
4.2909999 1.544 -1.829 12
4.5009999 1.594 -1.821 11
4.7420001 1.655 -1.8200001 11
4.9920001 1.7180001 -1.8150001 11
3.905 1.424 -1.8279999 9
4.1069999 1.473 -1.829 11
4.316 1.523 -1.827 11
4.5250001 1.572 -1.819 12
4.7729998 1.633 -1.8200001 11
5.0300002 1.697 -1.816 12
3.931 1.405 -1.8279999 10
4.1389999 1.454 -1.831 11
4.342 1.5 -1.826 11
4.5599999 1.551 -1.821 12
4.8070002 1.6109999 -1.8200001 11
5.0679998 1.675 -1.817 12
3.967 1.388 -1.831 10
4.1690001 1.434 -1.831 12
4.3829999 1.483 -1.829 11
4.599 1.5319999 -1.823 11
4.8439999 1.59 -1.8200001 12
5.1059999 1.652 -1.817 11
3.9960001 1.369 -1.831 10
4.2049999 1.416 -1.8329999 11
4.4089999 1.461 -1.827 11
4.631 1.51 -1.821 11
4.882 1.568 -1.8200001 11
5.1399999 1.628 -1.814 11
4.0359998 1.353 -1.835 10
4.2340002 1.395 -1.831 12
4.4439998 1.441 -1.827 12
4.671 1.4910001 -1.823 11
4.921 1.5470001 -1.8200001 12
5.1799998 1.605 -1.813 12
4.0640001 1.3329999 -1.8329999 10
4.2709999 1.377 -1.8329999 11
4.4749999 1.419 -1.824 11
4.7080002 1.47 -1.822 11
4.967 1.527 -1.822 12
5.2309999 1.585 -1.8150001 12
4.099 1.3150001 -1.834 10
4.303 1.3559999 -1.831 10
4.5170002 1.4 -1.826 11
4.7470002 1.449 -1.821 12
5.006 1.505 -1.8200001 12
5.276 1.563 -1.8150001 12
4.1370001 1.2970001 -1.835 10
4.3439999 1.3380001 -1.8329999 12
4.5570002 1.381 -1.827 11
4.7979999 1.431 -1.825 11
5.0489998 1.482 -1.819 12
5.3280001 1.5420001 -1.8150001 12
4.1680002 1.276 -1.8329999 10
4.3790002 1.318 -1.831 12
4.598 1.3609999 -1.826 11
4.8439999 1.411 -1.825 12
5.1069999 1.465 -1.822 12
5.3779998 1.52 -1.814 12
4.2049999 1.257 -1.8329999 10
4.4200001 1.299 -1.831 12
4.645 1.342 -1.8279999 11
4.8899999 1.391 -1.825 12
5.1570001 1.444 -1.822 11
5.4330001 1.499 -1.8150001 12
4.2529998 1.2410001 -1.836 9
4.4590001 1.279 -1.83 12
4.6900001 1.323 -1.827 11
4.9400001 1.3710001 -1.825 13
5.2010002 1.421 -1.819 12
5.4949999 1.479 -1.816 12
4.2940001 1.223 -1.836 10
4.5079999 1.261 -1.832 11
4.73 1.301 -1.825 11
4.9949999 1.352 -1.826 12
5.2610002 1.402 -1.821 12
5.5570002 1.459 -1.816 12
4.3340001 1.2029999 -1.835 10
4.5489998 1.2410001 -1.83 12
4.7919998 1.285 -1.829 11
5.046 1.332 -1.826 11
5.3270001 1.3839999 -1.823 12
5.6079998 1.4349999 -1.812 11
4.3790002 1.1849999 -1.835 10
4.5910001 1.221 -1.8279999 11
4.842 1.265 -1.829 12
5.099 1.311 -1.824 12
5.3769999 1.3609999 -1.819 12
5.6719999 1.414 -1.812 11
4.4330001 1.168 -1.8380001 10
4.6490002 1.204 -1.831 11
4.8969998 1.247 -1.829 11
5.1690001 1.295 -1.8279999 11
5.4499998 1.3430001 -1.823 12
5.763 1.399 -1.819 13
4.473 1.148 -1.835 10
4.6919999 1.183 -1.827 11
4.9569998 1.229 -1.831 12
5.2220001 1.273 -1.826 12
5.5120001 1.323 -1.821 12
5.829 1.378 -1.816 13
4.5250001 1.131 -1.835 10
4.75 1.166 -1.829 11
5.0159998 1.21 -1.831 13
5.2810001 1.253 -1.824 13
5.5809999 1.303 -1.821 12
5.9089999 1.358 -1.817 13
4.572 1.1109999 -1.8329999 10
4.802 1.146 -1.827 12
5.0689998 1.189 -1.8279999 12
5.3559999 1.235 -1.827 12
5.6620002 1.285 -1.824 13
5.9640002 1.3329999 -1.8099999 13
4.6240001 1.092 -1.832 10
4.8670001 1.1289999 -1.83 12
5.1430001 1.173 -1.832 13
5.421 1.216 -1.826 13
5.7150002 1.26 -1.816 12
6.0549998 1.3150001 -1.812 13
4.6820002 1.075 -1.8329999 11
4.9299998 1.112 -1.831 12
5.2069998 1.154 -1.831 13
5.4850001 1.1950001 -1.823 12
5.8200002 1.247 -1.825 11
6.151 1.2970001 -1.8150001 12
4.7350001 1.056 -1.831 11
4.9889998 1.0930001 -1.829 13
5.2810001 1.136 -1.8329999 11
5.5700002 1.178 -1.826 12
5.9039998 1.228 -1.825 14
6.2319999 1.276 -1.811 13
4.8010001 1.039 -1.8329999 11
5.059 1.075 -1.831 11
5.3449998 1.1160001 -1.83 11
5.6560001 1.16 -1.8279999 12
5.974 1.205 -1.819 12
6.3439999 1.2589999 -1.816 13
4.8590002 1.02 -1.831 11
5.1300001 1.057 -1.832 12
5.415 1.096 -1.8279999 12
5.73 1.14 -1.826 12
6.0489998 1.183 -1.814 13
6.447 1.2410001 -1.816 13
4.928 1.003 -1.832 11
5.1989999 1.039 -1.831 12
5.4860001 1.077 -1.826 11
5.8200002 1.122 -1.827 12
6.131 1.1619999 -1.811 13
6.5510001 1.221 -1.8150001 14
4.9980001 0.986 -1.8329999 11
5.2820001 1.022 -1.8329999 11
5.5879998 1.062 -1.832 11
5.9159999 1.105 -1.8279999 11
6.2680001 1.151 -1.821 13
6.664 1.2029999 -1.816 14
5.0689998 0.96799999 -1.8329999 11
5.3559999 1.0039999 -1.832 13
5.6750002 1.044 -1.8329999 11
6.007 1.086 -1.827 12
6.3870001 1.135 -1.826 13
6.777 1.184 -1.8150001 14
5.1440001 0.95099998 -1.8329999 11
5.4369998 0.986 -1.832 13
5.7480001 1.023 -1.827 13
6.1040001 1.067 -1.827 11
6.4899998 1.115 -1.824 13
6.8990002 1.165 -1.814 14
5.2210002 0.93300003 -1.8329999 11
5.5110002 0.96600002 -1.829 12
5.8499999 1.007 -1.83 12
6.2049999 1.049 -1.826 13
6.612 1.098 -1.825 12
7.0440001 1.149 -1.818 13
5.2950001 0.91500002 -1.831 10
5.598 0.94800001 -1.8279999 11
5.948 0.98900002 -1.83 12
6.3169999 1.031 -1.827 12
6.73 1.079 -1.824 13
7.177 1.13 -1.817 13
5.3870001 0.898 -1.8329999 11
5.6919999 0.93099999 -1.8279999 13
6.052 0.97100002 -1.83 11
6.434 1.013 -1.827 13
6.8460002 1.059 -1.821 12
7.3200002 1.112 -1.816 13
5.473 0.88099998 -1.832 12
5.802 0.91500002 -1.832 12
6.164 0.954 -1.832 12
6.5500002 0.995 -1.826 12
6.9889998 1.0420001 -1.823 13
7.4640002 1.0930001 -1.8150001 12
5.5640001 0.86299998 -1.8329999 11
5.895 0.89600003 -1.83 11
6.2659998 0.935 -1.829 11
6.6750002 0.977 -1.827 12
7.131 1.024 -1.823 13
7.6279998 1.076 -1.8150001 13
5.6680002 0.847 -1.835 11
6.013 0.88099998 -1.834 11
6.3940001 0.91799998 -1.832 11
6.8179998 0.95999998 -1.829 13
7.276 1.006 -1.822 13
7.7930002 1.058 -1.814 14
5.7659998 0.829 -1.834 10
6.1110001 0.86199999 -1.83 11
6.5250001 0.90200001 -1.834 12
6.9380002 0.94 -1.824 13
7.4320002 0.98799998 -1.821 14
7.9559999 1.038 -1.8099999 12
5.8769999 0.81300002 -1.837 10
6.2249999 0.84399998 -1.829 11
6.6399999 0.88200003 -1.83 12
7.0970001 0.92400002 -1.827 13
7.586 0.96899998 -1.818 13
8.1639996 1.023 -1.814 14
5.9879999 0.796 -1.837 10
6.3520002 0.82700002 -1.831 11
6.7740002 0.86400002 -1.829 12
7.243 0.90600002 -1.825 13
7.7589998 0.95099998 -1.818 15
8.3500004 1.0039999 -1.8099999 11
6.1009998 0.77899998 -1.836 11
6.4790001 0.81 -1.83 11
6.915 0.84600002 -1.8279999 13
7.4039998 0.88800001 -1.825 13
7.9520001 0.935 -1.819 13
8.5699997 0.98799998 -1.812 12
6.2179999 0.76099998 -1.835 11
6.605 0.79100001 -1.8279999 12
7.0749998 0.82999998 -1.83 13
7.5669999 0.86900002 -1.822 14
8.1470003 0.917 -1.818 13
8.7869997 0.97000003 -1.809 12
6.3460002 0.74400002 -1.835 11
6.7459998 0.77399999 -1.8279999 12
7.2350001 0.81199998 -1.829 13
7.75 0.852 -1.822 14
8.3450003 0.89899999 -1.816 12
9.0220003 0.95200002 -1.807 12
6.473 0.72600001 -1.834 11
6.8889999 0.75599998 -1.826 11
7.395 0.79500002 -1.8279999 13
7.9380002 0.83499998 -1.821 13
