# .PCD v0.7 - Point Cloud Data file format
VERSION 0.7
FIELDS x y z intensity
SIZE 4 4 4 4
TYPE F F F F
COUNT 1 1 1 1
WIDTH 1773
HEIGHT 1
VIEWPOINT 0 0 0 1 0 0 0
POINTS 1773
DATA ascii
4.112 -0.57499999 -1.86 10
4.3499999 -0.60799998 -1.863 10
4.5890002 -0.64200002 -1.857 10
4.8530002 -0.68000001 -1.853 10
5.1469998 -0.722 -1.852 10
3.9719999 -0.55800003 -1.863 9
4.1919999 -0.58899999 -1.863 10
4.4310002 -0.62199998 -1.862 10
4.6760001 -0.65700001 -1.857 10
4.9499998 -0.69700003 -1.853 10
5.2470002 -0.74000001 -1.849 11
4.039 -0.56900001 -1.8609999 9
4.27 -0.602 -1.862 10
4.5120001 -0.63599998 -1.86 9
4.7600002 -0.67199999 -1.853 10
5.0489998 -0.713 -1.852 10
5.3590002 -0.75800002 -1.849 10
4.112 -0.58200002 -1.86 9
4.3460002 -0.61500001 -1.86 10
4.5910001 -0.64899999 -1.8559999 10
4.8610001 -0.68800002 -1.854 10
5.1290002 -0.727 -1.842 10
5.4460001 -0.773 -1.8380001 11
4.204 -0.59600002 -1.865 9
4.4369998 -0.62900001 -1.862 10
4.6859999 -0.66399997 -1.857 10
4.974 -0.70499998 -1.858 10
5.2360001 -0.74299997 -1.84 10
5.586 -0.79400003 -1.8430001 10
4.2810001 -0.60799998 -1.863 9
4.5229998 -0.64200002 -1.8609999 10
4.777 -0.67799997 -1.855 10
5.0869999 -0.72299999 -1.8609999 10
5.3400002 -0.759 -1.837 10
5.7189999 -0.81400001 -1.845 10
4.3699999 -0.62099999 -1.865 9
4.6100001 -0.65499997 -1.859 11
4.8779998 -0.69300002 -1.855 11
5.1729999 -0.736 -1.852 10
5.4840002 -0.77999997 -1.845 10
5.8530002 -0.83399999 -1.845 10
4.4439998 -0.63200003 -1.86 9
4.6999998 -0.66799998 -1.857 11
4.9899998 -0.70899999 -1.858 9
5.3000002 -0.75400001 -1.857 10
5.6269999 -0.801 -1.85 9
6 -0.85500002 -1.846 11
4.5409999 -0.64600003 -1.862 9
4.7909999 -0.68099999 -1.854 10
5.085 -0.72299999 -1.854 10
5.4070001 -0.76899999 -1.853 10
5.757 -0.81900001 -1.849 10
6.1370001 -0.87400001 -1.8430001 10
4.631 -0.65799999 -1.8609999 10
4.8979998 -0.69499999 -1.8559999 11
5.2049999 -0.73900002 -1.8559999 10
5.5229998 -0.78399998 -1.85 11
5.8889999 -0.83700001 -1.847 10
6.2839999 -0.89399999 -1.841 11
4.7249999 -0.67000002 -1.86 10
4.994 -0.708 -1.852 10
5.3270001 -0.755 -1.858 11
5.658 -0.80199999 -1.852 10
6.0339999 -0.85600001 -1.847 10
6.4419999 -0.91399997 -1.84 11
4.8150001 -0.68099999 -1.855 10
5.1110001 -0.72299999 -1.854 10
5.4380002 -0.76899999 -1.854 10
5.789 -0.81800002 -1.85 10
6.1760001 -0.87300003 -1.845 10
6.599 -0.93400002 -1.836 10
4.921 -0.69400001 -1.8559999 10
5.2259998 -0.73699999 -1.854 10
5.5560002 -0.78299999 -1.851 11
5.934 -0.83600003 -1.851 11
6.3280001 -0.89200002 -1.8430001 12
6.763 -0.954 -1.832 12
5.026 -0.70599997 -1.854 10
5.3410001 -0.75 -1.853 11
5.6929998 -0.79900002 -1.852 11
6.0689998 -0.852 -1.847 11
6.4889998 -0.91100001 -1.841 11
6.9460001 -0.97600001 -1.83 11
5.1529999 -0.72100002 -1.859 10
5.4679999 -0.764 -1.853 10
5.8249998 -0.81400001 -1.85 10
6.2210002 -0.86900002 -1.845 10
6.6630001 -0.93099999 -1.841 10
7.1339998 -0.99699998 -1.827 12
5.257 -0.73199999 -1.854 10
5.585 -0.77700001 -1.849 11
5.9749999 -0.82999998 -1.851 11
6.3769999 -0.88599998 -1.8430001 11
6.8299999 -0.949 -1.835 12
7.3340001 -1.02 -1.825 12
5.3839998 -0.745 -1.855 10
5.7270002 -0.792 -1.85 10
6.1129999 -0.84500003 -1.846 11
6.5300002 -0.90200001 -1.8380001 12
7.0089998 -0.96799999 -1.832 12
7.5349998 -1.041 -1.8200001 12
5.5040002 -0.75700003 -1.852 11
5.8579998 -0.80400002 -1.846 11
6.2600002 -0.85900003 -1.8430001 11
6.7150002 -0.921 -1.84 12
7.2080002 -0.98900002 -1.83 11
7.7620001 -1.0650001 -1.818 9
5.6370001 -0.76899999 -1.852 10
6.006 -0.81900001 -1.847 10
6.4229999 -0.875 -1.842 11
6.8870001 -0.93699998 -1.835 12
7.4180002 -1.0089999 -1.829 12
8.0039997 -1.089 -1.817 11
5.7740002 -0.78200001 -1.851 10
6.152 -0.83200002 -1.844 11
6.5900002 -0.88999999 -1.84 11
7.073 -0.95499998 -1.832 12
7.5999999 -1.025 -1.819 12
8.2349997 -1.1109999 -1.8099999 11
5.9200001 -0.79400003 -1.852 10
6.3099999 -0.84600002 -1.842 11
6.7620001 -0.90499997 -1.837 11
7.2779999 -0.97299999 -1.832 11
7.8559999 -1.05 -1.823 11
8.4809999 -1.1339999 -1.804 12
6.066 -0.80599999 -1.85 11
6.467 -0.85799998 -1.839 11
6.9429998 -0.92000002 -1.834 12
7.4780002 -0.99000001 -1.827 11
8.0609999 -1.067 -1.812 11
8.7469997 -1.1569999 -1.798 11
6.2140002 -0.81699997 -1.847 11
6.6279998 -0.87 -1.834 12
7.131 -0.935 -1.83 12
7.6859999 -1.006 -1.821 9
8.3149996 -1.0880001 -1.809 12
9.0410004 -1.183 -1.794 12
6.369 -0.82800001 -1.8430001 11
6.8119998 -0.884 -1.8329999 13
7.3429999 -0.95200002 -1.83 11
7.9310002 -1.027 -1.821 11
8.5670004 -1.108 -1.801 11
9.3559999 -1.209 -1.79 12
6.5450001 -0.83999997 -1.8430001 12
6.9959998 -0.89700001 -1.829 12
7.5349998 -0.96399999 -1.822 9
8.1540003 -1.0420001 -1.812 11
8.8529997 -1.13 -1.798 12
9.6759996 -1.235 -1.783 12
6.7140002 -0.85100001 -1.839 11
7.1929998 -0.91000003 -1.827 12
7.7909999 -0.98299998 -1.826 11
8.4020004 -1.059 -1.807 12
9.1389999 -1.151 -1.791 11
10.027 -1.262 -1.777 12
6.882 -0.86000001 -1.8329999 11
7.401 -0.92299998 -1.825 9
7.9970002 -0.995 -1.816 12
8.6529999 -1.075 -1.799 11
9.4540005 -1.173 -1.786 11
10.412 -1.291 -1.773 11
7.0760002 -0.87099999 -1.831 11
7.6129999 -0.935 -1.821 10
8.2309999 -1.008 -1.809 12
8.9440002 -1.094 -1.795 12
9.7950001 -1.197 -1.7819999 11
10.798 -1.318 -1.7640001 11
7.2789998 -0.88200003 -1.83 8
7.842 -0.94700003 -1.818 11
8.4779997 -1.022 -1.802 12
9.2340002 -1.1109999 -1.788 12
10.147 -1.219 -1.775 11
11.24 -1.349 -1.7589999 11
7.5009999 -0.89300001 -1.83 10
8.0719995 -0.958 -1.813 11
8.7539997 -1.0369999 -1.799 12
9.5629997 -1.13 -1.784 12
10.545 -1.245 -1.771 12
11.697 -1.378 -1.749 11
7.7090001 -0.90100002 -1.824 10
8.3210001 -0.96899998 -1.808 13
9.04 -1.051 -1.793 12
9.9090004 -1.149 -1.779 11
10.949 -1.268 -1.763 12
12.193 -1.409 -1.74 12
7.9219999 -0.90700001 -1.816 13
8.5609999 -0.97799999 -1.799 12
9.3380003 -1.064 -1.785 12
10.269 -1.1670001 -1.772 11
11.399 -1.293 -1.758 11
12.748 -1.444 -1.733 11
8.1630001 -0.91600001 -1.812 11
8.8430004 -0.98900002 -1.794 12
9.6709995 -1.0779999 -1.781 12
10.652 -1.1849999 -1.765 12
11.839 -1.314 -1.744 11
13.343 -1.478 -1.724 12
8.4069996 -0.92299998 -1.8049999 12
9.1210003 -0.99800003 -1.7869999 12
10.026 -1.0930001 -1.777 11
11.084 -1.205 -1.76 11
12.36 -1.341 -1.738 12
13.969 -1.512 -1.712 11
8.6669998 -0.92900002 -1.799 12
9.4370003 -1.008 -1.7819999 13
10.398 -1.107 -1.771 12
11.518 -1.223 -1.751 11
12.913 -1.367 -1.729 11
14.637 -1.546 -1.698 12
8.9440002 -0.935 -1.794 12
9.7690001 -1.017 -1.777 12
10.787 -1.119 -1.7640001 12
11.998 -1.2410001 -1.743 11
13.523 -1.395 -1.721 11
15.363 -1.581 -1.6799999 11
9.2360001 -0.94 -1.788 12
10.114 -1.025 -1.77 12
11.206 -1.132 -1.756 13
12.519 -1.26 -1.735 11
14.163 -1.421 -1.7079999 12
16.163 -1.617 -1.6619999 10
9.5559998 -0.94599998 -1.783 12
10.5 -1.034 -1.766 12
11.656 -1.143 -1.748 12
13.084 -1.279 -1.726 12
14.834 -1.4450001 -1.692 11
17.018999 -1.653 -1.64 10
9.8920002 -0.94999999 -1.778 12
10.883 -1.04 -1.758 11
12.131 -1.155 -1.739 12
13.664 -1.296 -1.714 12
15.563 -1.47 -1.675 12
18.01 -1.6950001 -1.6210001 12
10.233 -0.95200002 -1.771 11
11.306 -1.046 -1.75 12
12.65 -1.165 -1.7309999 12
14.32 -1.314 -1.704 11
16.353001 -1.494 -1.656 10
19.011999 -1.7309999 -1.592 13
10.606 -0.954 -1.765 12
11.75 -1.051 -1.742 12
13.219 -1.177 -1.723 12
14.992 -1.3279999 -1.688 11
17.233 -1.52 -1.636 11
20.172001 -1.772 -1.563 15
11.02 -0.95599997 -1.761 11
12.223 -1.054 -1.733 12
13.807 -1.1849999 -1.711 12
15.719 -1.342 -1.67 10
18.219 -1.548 -1.6160001 12
21.542999 -1.821 -1.534 16
11.433 -0.954 -1.752 11
12.745 -1.057 -1.724 11
14.46 -1.193 -1.7 12
16.514 -1.354 -1.65 10
19.24 -1.569 -1.585 13
23.077 -1.873 -1.5 19
11.881 -0.95099998 -1.742 11
13.318 -1.059 -1.716 13
15.142 -1.196 -1.683 12
17.424 -1.368 -1.63 11
20.407 -1.5930001 -1.5549999 15
24.841 -1.929 -1.4630001 17
12.367 -0.94700003 -1.734 11
13.913 -1.058 -1.704 12
15.858 -1.197 -1.664 10
18.385 -1.3789999 -1.608 12
21.811001 -1.625 -1.528 17
26.691999 -1.977 -1.411 13
12.888 -0.94099998 -1.726 12
14.535 -1.053 -1.6900001 11
16.662001 -1.198 -1.645 10
19.409 -1.386 -1.579 14
23.289 -1.651 -1.492 19
28.652 -2.0179999 -1.3430001 9
13.448 -0.93300003 -1.716 12
15.214 -1.046 -1.674 12
17.549999 -1.197 -1.625 11
20.582001 -1.393 -1.549 15
25.039 -1.682 -1.455 19
31.277 -2.086 -1.283 6
14.042 -0.921 -1.705 11
15.924 -1.035 -1.655 11
18.499001 -1.192 -1.602 12
21.9 -1.4 -1.52 17
26.951 -1.707 -1.4069999 17
34.068001 -2.1400001 -1.197 4
14.676 -0.90600002 -1.692 12
16.73 -1.023 -1.638 10
19.52 -1.182 -1.574 14
23.42 -1.405 -1.4859999 19
28.773001 -1.71 -1.334 8
39.481998 -2.326 -1.16 16
15.332 -0.88700002 -1.675 12
17.566999 -1.005 -1.615 11
20.663 -1.169 -1.544 15
25.153999 -1.409 -1.449 16
31.325001 -1.737 -1.272 6
40.033001 -2.197 -0.94700003 10
16.045 -0.86400002 -1.6569999 10
18.507 -0.98500001 -1.5930001 12
21.955999 -1.155 -1.5140001 17
26.989 -1.402 -1.401 18
33.966 -1.744 -1.186 4
44.502998 -2.26 -0.80299997 56
16.823999 -0.83700001 -1.6390001 11
19.504 -0.958 -1.566 14
23.419001 -1.135 -1.482 19
28.702999 -1.373 -1.3279999 7
0 0 0 0
46.548 -2.1689999 -0.57999998 10
17.660999 -0.80400002 -1.618 11
20.58 -0.92400002 -1.535 15
25.040001 -1.108 -1.442 17
31.424999 -1.369 -1.277 9
39.541 -1.699 -0.94099998 7
50.188 -2.1240001 -0.34999999 2
18.596001 -0.76800001 -1.597 12
21.855 -0.88800001 -1.506 17
26.82 -1.0700001 -1.393 19
34.124001 -1.339 -1.198 4
42.666 -1.646 -0.77999997 150
42.637001 -1.618 -0.066 18
19.552 -0.72299999 -1.5700001 14
23.201 -0.84200001 -1.471 19
28.573999 -1.016 -1.329 9
36.049999 -1.257 -1.071 1
42.667 -1.459 -0.551 150
42.612999 -1.427 0.161 3
20.621 -0.67000002 -1.541 15
24.802999 -0.78799999 -1.4349999 21
30.754 -0.95499998 -1.262 5
39.569 -1.2 -0.95999998 10
42.708 -1.266 -0.32300001 150
47.088001 -1.362 0.42899999 37
21.855 -0.611 -1.513 17
26.573999 -0.72299999 -1.3940001 18
33.563999 -0.889 -1.198 4
42.695 -1.099 -0.81 65
43.426998 -1.086 -0.098999999 79
47.007 -1.141 0.67400002 12
23.200001 -0.542 -1.482 19
28.148001 -0.63499999 -1.326 11
37.744999 -0.82300001 -1.147 7
42.714001 -0.89899999 -0.58600003 51
43.507 -0.88300002 0.126 69
95.291 -1.865 1.8559999 29
24.599001 -0.45899999 -1.4400001 21
30.118999 -0.53799999 -1.261 7
39.577999 -0.676 -0.99800003 16
43.983002 -0.71899998 -0.37900001 56
44.028999 -0.685 0.34999999 65
63.368 -0.93599999 1.5549999 42
26.42 -0.36700001 -1.409 22
32.358002 -0.42300001 -1.188 4
43.636002 -0.53600001 -0.87699997 68
43.879002 -0.50400001 -0.155 68
44.335999 -0.47299999 0.57700002 21
63.055 -0.62400001 1.8609999 58
27.781 -0.252 -1.34 11
35.431 -0.292 -1.122 4
44.433998 -0.331 -0.67299998 59
43.898998 -0.28999999 0.061000001 69
47.155998 -0.27200001 0.84399998 1
40.442001 -0.2 1.392 10
29.752001 -0.122 -1.285 7
0 0 0 0
40.228001 -0.098999999 -0.41 43
40.181999 -0.063000001 0.25400001 132
40.189999 -0.030999999 0.91500002 93
40.201 0.0040000002 1.5779999 8
31.593 0.028999999 -1.207 4
40.055 0.071000002 -0.87 33
44.481998 0.119 -0.233 10
49.508999 0.17200001 0.551 3
49.504002 0.21699999 1.3660001 45
63.548 0.33199999 2.7969999 40
0 0 0 0
44.097 0.30199999 -0.74800003 70
49.616001 0.384 -0.027000001 75
49.595001 0.426 0.78500003 83
49.597 0.47 1.599 5
63.995998 0.66299999 3.1110001 44
0 0 0 0
45.030998 0.54100001 -0.55199999 72
49.647999 0.64099997 0.20299999 19
49.701 0.685 1.016 76
63.819 0.93800002 2.3499999 14
0 0 0 0
39.769001 0.65100002 -0.95300001 17
45.891998 0.79100001 -0.35100001 19
49.792 0.90399998 0.43099999 7
49.77 0.94999999 1.244 104
110.902 2.2179999 4.5830002 16
113.618 2.3800001 6.553 30
43.512001 0.94300002 -0.84399998 67
49.487 1.118 -0.154 19
49.833 1.174 0.65799999 5
51.272999 1.255 1.511 22
111.831 2.845 5.1209998 35
113.965 3.006 7.0770001 24
44.477001 1.205 -0.66100001 70
0 0 0 0
49.926998 1.446 0.87800002 19
51.299 1.535 1.737 6
111.939 3.4649999 5.618 12
113.528 3.628 7.5489998 30
45.791 1.492 -0.479 74
50.021999 1.678 0.287 16
51.424999 1.775 1.1289999 26
95.324997 3.385 3.641 20
112.878 4.1170001 6.1440001 13
113.746 4.2659998 8.0439997 34
0 0 0 0
79.600998 3.1129999 0.79699999 9
0 0 0 0
96.213997 3.9519999 4.079 20
0 0 0 0
115.999 5.006 8.6870003 10
49.268002 2.1559999 -0.093999997 7
51.548 2.3050001 0.73100001 2
95.710999 4.3769999 2.9030001 21
112.922 5.2839999 5.256 13
0 0 0 0
0 0 0 0
51.687 2.559 0.115 8
96.053001 4.8520002 1.76 27
94.488998 4.8670001 3.253 33
0 0 0 0
0 0 0 0
75.921997 4.1550002 6.302 13
50.015999 2.7650001 0.31299999 16
0 0 0 0
95.455002 5.474 3.668 19
0 0 0 0
75.847 4.5110002 5.3629999 23
77.685997 4.7080002 6.7519999 18
52.790001 3.2290001 0.54000002 7
50.105999 3.1159999 1.316 5
95.155998 6.0159998 4.027 24
76.017998 4.8889999 4.441 13
77.678001 5.0799999 5.7909999 40
0 0 0 0
81.387001 5.4559999 1.1440001 4
50.133999 3.415 1.5089999 68
77.397003 5.3569999 3.5710001 21
77.502998 5.4450002 4.8179998 22
0 0 0 0
76.893997 5.579 7.2649999 11
50.238998 3.671 0.89600003 41
50.220001 3.723 1.698 35
75.952003 5.7150002 3.7850001 33
75.612999 5.777 4.9850001 14
0 0 0 0
77.008003 6.0619998 7.5609999 8
50.362 3.987 1.084 39
50.290001 4.033 1.883 3
75.938004 6.1760001 4.0580001 17
75.305 6.211 5.2329998 35
74.375999 6.2199998 6.3639998 37
61.041 5.1789999 6.2090001 5
50.444 4.2979999 1.263 58
76.014 6.5630002 3.1159999 42
75.956001 6.645 4.3270001 26
75.973 6.7319999 5.5440001 20
75.832001 6.8109999 6.7540002 31
60.812 5.5380001 6.3969998 22
76.432999 6.9889998 2.1800001 58
76.101997 7.0440001 3.381 45
75.663002 7.0929999 4.5710001 11
74.801003 7.1009998 5.717 14
62.589001 6.0190001 5.789 2
60.750999 5.9169998 6.598 23
41.008999 4.0079999 1.308 52
76.132004 7.5240002 3.6370001 35
75.075996 7.507 4.783 5
40.870998 4.1360002 3.2579999 19
40.769001 4.1750002 3.904 52
40.661999 4.217 4.5489998 1
40.983002 4.2639999 1.442 35
40.938 4.3049998 2.089 48
91.306 9.71 6.1129999 11
77.169998 8.2980003 6.3990002 40
71.980003 7.8319998 7.1240001 16
61.889999 6.816 7.1230001 31
101.391 11.194 3.8870001 25
75.629997 8.434 4.0960002 36
88.852997 10.016 6.2259998 8
86.058998 9.8109999 7.408 10
61.785999 7.1209998 6.3080001 2
60.466 7.0510001 7.1479998 4
46.379002 5.4190001 1.921 1
75.624001 8.9250002 4.329 10
75.541 9.0080004 5.5240002 26
88.357002 10.645 7.8709998 8
61.660999 7.5100002 6.4809999 4
61.736 7.605 7.4860001 7
65.980003 8.1420002 2.9300001 7
87.707001 10.924 5.2810001 21
87.418999 10.996 6.652 27
87.751999 11.151 8.0769997 16
65.347 8.3879995 7.0609999 27
58.724998 7.6230001 7.2919998 39
45.617001 5.927 2.1559999 3
66.514999 8.7250004 4.197 3
86.492996 11.454 6.8299999 21
61.618999 8.2379999 5.8470001 10
63.596001 8.5860004 7.053 7
58.688999 8.0059996 7.454 27
65.5 8.9420004 3.277 32
66.060997 9.099 4.348 13
86.774002 12.058 7.0869999 18
65.342003 9.1700001 6.3790002 20
58.919998 8.3500004 6.6960001 13
58.254002 8.3369999 7.5570002 37
65.513 9.3800001 3.4519999 30
86.769997 12.533 5.9429998 7
74.570999 10.867 6.29 7
65.612999 9.6490002 6.5799999 14
58.833 8.7320004 6.842 12
57.896 8.6780005 7.665 25
65.801003 9.868 3.638 28
61.785 9.3439999 4.3920002 28
62.944 9.6000004 5.4699998 22
73.876999 11.367 7.599 34
59.629002 9.2589998 7.0879998 23
57.758999 9.0550003 7.796 30
61.741001 9.6820002 3.5669999 31
84.531998 13.358 6.2160001 5
0 0 0 0
86.539001 13.909 9.1129999 7
60.702 9.8459997 7.3670001 8
58.321999 9.5450001 8.0170002 28
85.444 13.985 5.1409998 9
61.943001 10.217 4.7030001 9
61.062 10.153 5.6030002 21
61.948002 10.387 6.671 4
58.597 9.908 7.2490001 26
57.921001 9.8830004 8.0979996 30
61.386002 10.472 3.832 41
87.595001 15.052 6.8470001 20
60.794998 10.53 5.717 21
0 0 0 0
58.608002 10.319 7.3839998 22
57.973999 10.295 8.2379999 38
61.873001 10.983 3.997 12
98.744003 17.650999 7.934 19
60.766998 10.945 5.8449998 6
64.486 11.708 7.23 8
0 0 0 0
58.306999 10.766 8.4119997 33
98.563004 18.188 6.5739999 24
100.191 18.618999 8.2600002 36
64.322998 12.042 6.3210001 7
60.805 11.472 6.9450002 9
58.948002 11.211 7.678 3
59.220001 11.355 8.6680002 36
96.992996 18.586 6.658 16
97.693001 18.843 8.2440004 10
62.787998 12.2 6.2950001 13
60.736 11.89 7.0580001 2
59.813 11.799 7.9099998 5
59.097 11.754 8.7690001 29
96.556999 19.190001 6.8099999 12
96.586998 19.323999 8.3330002 41
64.887001 13.069 6.6259999 5
60.818001 12.34 7.1799998 4
59.543999 12.174 7.9860001 31
60.258999 12.417 9.0550003 35
0 0 0 0
96.286003 19.948999 8.4790001 45
64.224998 13.397 6.6739998 17
60.429001 12.693 7.243 24
59.314999 12.553 8.0620003 47
60.334 12.867 9.1759996 35
96.113998 20.475 7.1079998 42
97.297997 20.858 8.7279997 13
60.030998 12.955 6.3369999 7
60.174 13.077 7.3130002 27
60.237 13.189 8.29 39
61.158001 13.491 9.4069996 39
99.984001 22.031 7.553 23
62.763 13.914 5.73 9
62.714001 13.993 6.7199998 24
42.976002 9.6549997 5.2919998 2
60.317001 13.646 8.3970003 42
40.080002 9.1339998 6.2280002 10
41.855 9.5270004 3.2219999 52
98.718002 22.599001 9.1549997 25
42.824001 9.8669996 4.6529999 34
60.201 13.963 7.5029998 38
41.471001 9.6870003 5.836 11
39.855999 9.3769999 6.2550001 52
97.825996 22.985001 7.665 39
41.675999 9.849 3.9230001 39
41.301998 9.8249998 4.5450001 2
43.155998 10.329 5.4380002 14
43.176998 10.405 6.138 7
39.939999 9.6949997 6.3249998 14
96.820999 23.469 7.71 51
98.551003 24.024 9.4029999 44
0 0 0 0
43.091 10.633 5.4860001 9
0 0 0 0
40.401001 10.109 6.4510002 25
97.619003 24.385 7.8839998 36
98.657997 24.784 9.5299997 39
98.609001 24.917999 11.094 7
0 0 0 0
0 0 0 0
0 0 0 0
96.928001 24.941 7.9310002 28
96.932999 25.072001 9.4639997 28
98.5 25.618999 11.186 13
0 0 0 0
0 0 0 0
43.091 11.43 6.9829998 4
96.233002 25.483999 7.9679999 26
0 0 0 0
0 0 0 0
0 0 0 0
0 0 0 0
0 0 0 0
96.677002 26.330999 8.0880003 34
0 0 0 0
0 0 0 0
0 0 0 0
0 0 0 0
0 0 0 0
0 0 0 0
0 0 0 0
0 0 0 0
0 0 0 0
0 0 0 0
39.327999 11.329 6.4850001 18
96.040001 27.612 8.1680002 34
95.206001 27.506001 9.6079998 19
0 0 0 0
0 0 0 0
0 0 0 0
39.191002 11.589 6.4899998 11
94.862999 27.995001 8.1169996 26
94.582001 28.045 9.5959997 22
0 0 0 0
0 0 0 0
0 0 0 0
41.674 12.641 6.9299998 1
94.594002 28.639999 8.1370001 27
94.697998 28.799999 9.6540003 10
0 0 0 0
0 0 0 0
0 0 0 0
0 0 0 0
94.767998 29.419001 8.1820002 20
94.541 29.476 9.6689997 39
96.699997 30.302 11.447 6
0 0 0 0
0 0 0 0
42.693001 13.609 7.1420002 21
48.813999 15.529 4.2270002 24
95.573997 30.541 9.8000002 22
96.561996 31.01 11.459 13
0 0 0 0
0 0 0 0
43.049 14.061 7.217 28
47.762001 15.567 4.1420002 40
47.316002 15.489 4.8600001 1
0 0 0 0
0 0 0 0
42.009998 13.965 6.362 6
41.228001 13.787 6.9229999 23
47.410999 15.824 4.1139998 37
93.203003 31.233 9.5799999 21
0 0 0 0
0 0 0 0
41.977001 14.281 6.3610001 21
41.599998 14.238 6.993 16
48.061001 16.417 4.1669998 15
91.224998 31.285 9.3730001 30
0 0 0 0
0 0 0 0
41.376999 14.397 6.2729998 3
42.444 14.852 7.138 18
47.056 16.434 4.072 37
54.709999 19.184 5.6129999 18
63.376999 22.318001 7.5289998 6
42.127998 14.907 5.691 14
40.605999 14.445 6.1529999 67
39.948002 14.29 6.7160001 14
47.528999 16.969 4.099 34
46.370998 16.618 4.7459998 38
42.226002 15.199 5.0079999 4
42.049 15.208 5.6739998 28
40.145 14.595 6.0780001 55
39.671001 14.504 6.665 43
47.266998 17.247 4.059 10
47.710999 17.473 4.8670001 8
42.223999 15.53 4.993 20
41.931 15.496 5.6459999 12
41.113998 15.271 6.2150002 36
39.679001 14.818 6.658 20
42.492001 15.838 3.6289999 27
62.861 23.518 6.3839998 39
63.573002 23.879999 7.4920001 35
41.785 15.768 5.6100001 14
41.709 15.819 6.2909999 31
39.490002 15.06 6.6139998 4
47.630001 18.129 4.0409999 29
42.460999 16.218 4.29 7
50.292999 19.288 5.902 5
0 0 0 0
44.712002 17.308001 6.723 13
39.141998 15.231 6.54 41
48.033001 18.655001 4.0430002 65
50.396 19.642 5.059 35
42.273998 16.542 4.934 12
0 0 0 0
42.466 16.771 6.3629999 13
38.942001 15.459 6.487 64
48.012001 19.024 4.0050001 46
50.452 20.059999 5.0279999 11
50.212002 20.042 5.8260002 16
41.778999 16.746 5.5380001 2
39.634998 15.962 5.9130001 42
39.144001 15.845 6.4959998 65
51.727001 20.9 4.2680001 25
62.551998 25.356001 6.1820002 13
0 0 0 0
0 0 0 0
39.556999 16.239 5.8740001 31
39.778999 16.412001 6.5760002 46
72.732002 29.954 5.9349999 24
51.726002 21.372 5.0650001 31
51.924999 21.534 5.9380002 24
45.290001 18.858 5.9299998 29
39.349998 16.462999 5.809 3
39.487999 16.601999 6.4949999 20
72.555 30.452999 5.8429999 16
73.918999 31.125 7.1609998 8
0 0 0 0
45.000999 19.091999 5.849 38
39.751999 16.938999 5.8330002 1
39.092999 16.742001 6.3959999 37
72.768997 31.111 5.7729998 6
0 0 0 0
0 0 0 0
0 0 0 0
40.060001 17.386 5.8379998 9
38.921001 16.972 6.3309999 50
0 0 0 0
0 0 0 0
0 0 0 0
47.41 20.855 6.0570002 26
40.191002 17.754 5.8109999 9
38.702 17.18 6.2540002 14
0 0 0 0
0 0 0 0
0 0 0 0
46.999001 21.041 5.9460001 3
40.214001 18.079 5.7659998 2
43.657001 19.718 7.0019999 11
0 0 0 0
0 0 0 0
0 0 0 0
0 0 0 0
39.775002 18.188999 5.6529999 34
39.851002 18.306999 6.3429999 12
91.074997 41.778 6.7150002 40
0 0 0 0
0 0 0 0
43.778 20.271999 5.4190001 4
39.82 18.516001 5.6030002 12
39.717999 18.551001 6.2670002 13
58.449001 27.261999 4.211 7
98.252998 45.943001 8.7130003 26
0 0 0 0
43.569 20.507999 5.329 8
44.034 20.811001 6.1329999 2
40.213001 19.091999 6.2880001 3
58.692001 27.827 4.1279998 21
97.649002 46.410999 8.4969997 36
0 0 0 0
44.008999 21.052999 5.309 40
43.691002 20.986 6.0159998 42
40.203999 19.395 6.2259998 14
58.611 28.239 4.0170002 7
96.438004 46.573002 8.2209997 25
43.595001 21.115 4.4489999 15
42.964001 20.878 5.1129999 12
43.466 21.204 5.9130001 20
40.673 19.929001 6.2309999 30
43.827999 21.447001 2.9189999 25
43.557999 21.365 3.6300001 16
43.838001 21.562 4.3930001 21
44.409 21.915001 5.204 16
43.745998 21.67 5.8730001 11
40.529999 20.165001 6.1409998 12
95.164001 47.291 6.1500001 22
95.361 47.497002 7.763 27
43.129002 21.541 4.2389998 6
43.105999 21.599001 4.9699998 16
43.423 21.839001 5.75 24
41.001999 20.707001 6.138 5
98.170998 49.532001 6.1370001 12
95.916 48.5 7.6100001 27
96.193001 48.77 9.2609997 25
96.818001 49.242001 10.971 15
43.098 21.997999 5.625 13
40.171001 20.589001 5.9369998 1
95.874001 49.094002 5.777 6
95.305 48.900002 7.3540001 31
95.862999 49.316002 9.0299997 23
96.718002 49.908001 10.763 20
0 0 0 0
39.234001 20.399 5.7220001 12
97.125999 50.458 5.6339998 28
96.788002 50.377998 7.2550001 28
95.422997 49.796001 8.7729998 21
0 0 0 0
0 0 0 0
39.019001 20.575001 5.6100001 18
96.593002 50.895 5.3759999 15
97.169998 51.296001 7.0570002 26
97.084999 51.368999 8.7119999 16
101.906 54.076 10.895 17
0 0 0 0
45.323002 24.225 6.4200001 14
95.842003 51.192001 5.0999999 8
97.074997 51.939999 6.8210001 22
45.001999 24.136 3.9300001 8
44.818001 24.101999 4.6880002 2
101.896 54.980999 12.425 26
44.668999 24.197001 6.2290001 7
85.226997 46.145 4.3179998 7
44.728001 24.256001 3.0309999 35
44.598999 24.24 3.7869999 37
44.449001 24.225 4.5419998 20
44.412998 24.283001 5.3099999 59
44.153999 24.23 6.053 4
44.476002 24.398001 2.135 9
44.411999 24.403 2.892 60
44.159 24.313 3.6370001 25
44.007 24.295 4.3889999 31
0 0 0 0
0 0 0 0
44.153999 24.535 2.0009999 12
43.801998 24.377001 2.737 11
43.701 24.368999 3.4849999 41
43.563999 24.353001 4.2319999 34
0 0 0 0
0 0 0 0
53.605999 30.164 2.2820001 2
95.944 54.063 5.7360001 12
95.838997 54.108002 7.3889999 25
94.481003 53.467999 8.9320002 34
0 0 0 0
0 0 0 0
52.091 29.67 2.0669999 3
96.587997 55.087002 5.5 9
95.542 54.591 7.099 29
94.509003 54.131001 8.6759996 12
0 0 0 0
0 0 0 0
51.773998 29.847 1.899 27
96.052002 55.437 5.191 31
94.665001 54.734001 6.7680001 9
95.385002 55.276001 8.4879999 21
0 0 0 0
0 0 0 0
51.488998 30.028999 1.735 38
95.969002 56.033001 4.9000001 7
94.040001 54.993 6.4460001 15
0 0 0 0
0 0 0 0
0 0 0 0
49.106998 28.961 1.503 6
101.289 59.796001 4.8649998 14
95.293999 56.34 6.2490001 16
104.102 61.679001 8.6619997 11
0 0 0 0
0 0 0 0
48.883999 29.148001 1.3430001 27
0 0 0 0
98.922997 59.118 6.1859999 10
99.549004 59.605999 7.9840002 10
102.114 61.297001 9.9980001 14
0 0 0 0
37.532001 22.617001 0.90899998 20
53.025002 31.976999 2.2149999 11
97.832001 59.078999 5.8140001 65
98.764 59.759998 7.6100001 13
101.336 61.460999 9.6110001 18
0 0 0 0
37.352001 22.742001 0.78200001 78
52.619999 32.061001 2.027 23
97.073997 59.215 5.4549999 26
98.531998 60.212002 7.2820001 32
101.155 61.964001 9.2810001 18
45.078999 27.691999 4.9439998 18
37.380001 22.988001 0.65799999 31
44.806999 27.572001 1.5779999 27
44.772999 27.582001 2.369 37
44.689999 27.577999 3.158 11
45.008999 27.837 3.983 6
44.651001 27.691999 4.7529998 11
37.442001 23.250999 0.528 4
44.667999 27.75 1.424 31
44.709999 27.805 2.2179999 30
44.584999 27.77 3.007 11
44.347 27.683001 3.7809999 16
44.806999 28.046 4.6240001 11
44.535999 27.915001 0.47400001 12
46.632 29.24 1.322 54
0 0 0 0
95.890999 60.269001 6.138 24
98.073997 61.771 8.04 17
0 0 0 0
13.688 8.658 0.096000001 0
66.323997 41.959 1.65 24
0 0 0 0
95.786003 60.733002 5.803 24
98.970001 62.877998 7.777 10
43.784 27.889 4.2270002 21
13.458 8.5869999 0.046 28
62.563999 39.925999 1.33 3
0 0 0 0
95.231003 60.891998 5.4359999 23
96.032997 61.521999 7.2150002 29
96.778 62.151001 9.0170002 24
13.274 8.5410004 -0.0020000001 52
58.221001 37.463001 1.028 6
105.05 67.636002 3.737 20
95.244003 61.394001 5.099 24
95.458 61.638 6.835 17
96.416 62.401001 8.6459999 28
13.155 8.533 -0.050999999 43
41.59 26.976 0.579 4
41.551998 26.962999 1.327 51
0 0 0 0
95.000999 61.813 6.4629998 26
95.865997 62.514999 8.2580004 17
13.054 8.5319996 -0.101 41
13.323 8.7060003 0.13600001 16
41.424 27.08 1.169 53
0 0 0 0
0 0 0 0
96.226997 63.201 7.948 13
12.942 8.5220003 -0.149 41
13.239 8.7139997 0.086000003 36
41.632999 27.410999 1.021 2
0 0 0 0
94.945 62.653 5.77 41
94.943001 62.779999 7.494 13
12.889 8.5459995 -0.199 46
13.097 8.6800003 0.034000002 44
35.293999 23.395 0.73400003 31
100.201 66.470001 3.898 150
94.429001 62.724998 5.3870001 31
95.389999 63.484001 7.1820002 17
12.842 8.5710001 -0.248 55
12.983 8.6610003 -0.015 53
13.194 8.802 0.223 0
35.573002 23.746 1.248 1
94.047997 62.858002 5.0100002 24
95.182999 63.736 6.8099999 38
12.782 8.585 -0.296 44
12.921 8.6730003 -0.064999998 42
13.182 8.8479996 0.17200001 8
35.458 23.811001 1.11 5
95.989998 64.531998 4.7529998 10
0 0 0 0
12.714 8.5909996 -0.34599999 48
12.863 8.684 -0.116 47
13.154 8.8800001 0.121 29
35.349998 23.872999 0.96899998 19
111.773 75.559998 5.1040001 13
94.505997 63.990002 6.0419998 13
12.752 8.665 -0.398 43
12.781 8.6759996 -0.16599999 50
13.044 8.8520002 0.068000004 44
35.269001 23.943001 0.83099997 39
0 0 0 0
94.483002 64.292999 5.6789999 17
12.684 8.6639996 -0.447 42
12.728 8.6850004 -0.215 50
12.927 8.8170004 0.017000001 49
35.238998 24.038 0.69300002 35
77.485001 52.897999 2.941 53
103.923 71.046997 5.8470001 11
12.785 8.7749996 -0.50199997 38
12.768 8.7530003 -0.26699999 40
12.839 8.7980003 -0.034000002 49
13.232 9.0679998 0.207 0
77.335999 53.030998 2.6300001 151
111.142 76.309998 5.822 18
12.667 8.7329998 -0.54900002 38
12.636 8.7010002 -0.31600001 50
12.782 8.7950001 -0.083999999 49
13.187 9.0740004 0.154 9
77.250999 53.183998 2.323 45
110.993 76.504997 5.3730001 10
12.657 8.7620001 -0.60100001 41
12.626 8.7279997 -0.36700001 46
12.752 8.809 -0.13500001 50
13.016 8.9899998 0.101 34
0 0 0 0
0 0 0 0
12.76 8.8669996 -0.65799999 37
12.608 8.7480001 -0.41800001 51
12.669 8.7819996 -0.186 54
12.922 8.9549999 0.048 41
81.866997 56.755001 1.808 19
81.614998 56.634998 3.306 39
12.721 8.8699999 -0.708 29
12.607 8.7749996 -0.46799999 54
12.641 8.7910004 -0.236 51
12.814 8.908 -0.003 43
0 0 0 0
81.515999 56.726002 2.9779999 63
13.542 9.4709997 -0.80900002 39
12.642 8.8260002 -0.52200001 47
12.611 8.7939997 -0.28799999 48
12.766 8.8979998 -0.055 49
13.135 9.1560001 0.184 0
81.488998 56.847 2.648 50
13.471 9.4460001 -0.861 38
12.668 8.8660002 -0.574 40
12.6 8.8070002 -0.338 48
12.716 8.8830004 -0.107 45
13.025 9.099 0.13 16
0 0 0 0
13.136 9.2320004 -0.89300001 35
12.639 8.8649998 -0.625 41
12.591 8.8190002 -0.389 53
12.659 8.8599997 -0.15800001 51
12.926 9.0459995 0.077 35
0 0 0 0
12.759 8.9840002 -0.92000002 28
12.635 8.8769999 -0.676 28
12.612 8.849 -0.44100001 44
12.63 8.8529997 -0.208 44
12.838 8.9980001 0.024 40
0 0 0 0
12.46 8.7869997 -0.95099998 34
13.354 9.3959999 -0.76999998 37
12.599 8.8509998 -0.49200001 42
12.62 8.8570004 -0.25999999 43
12.771 8.96 -0.027000001 41
0 0 0 0
12.322 8.6990004 -0.991 36
13.321 9.382 -0.82300001 37
12.623 8.875 -0.54500002 43
12.574 8.8310003 -0.31 51
12.716 8.927 -0.078000002 41
13.092 9.1920004 0.16 1
12.215 8.6300001 -1.0319999 24
13.185 9.2930002 -0.86799997 35
12.618 8.8769999 -0.59600002 42
12.574 8.835 -0.361 57
12.688 8.9099998 -0.12899999 43
12.974 9.1110001 0.106 24
12.01 8.4879999 -1.064 11
12.95 9.1289997 -0.90499997 29
12.618 8.8769999 -0.64700001 36
12.581 8.8400002 -0.412 54
12.644 8.8789997 -0.18000001 46
12.872 9.0380001 0.052999999 40
11.986 8.4709997 -1.1109999 14
12.57 8.8599997 -0.93099999 30
13.262 9.3290005 -0.73400003 44
12.604 8.8529997 -0.463 43
12.634 8.8669996 -0.23100001 42
12.798 8.9799995 0 41
11.987 8.4680004 -1.159 14
12.378 8.7200003 -0.96600002 35
13.539 9.5170002 -0.80400002 38
12.627 8.8620005 -0.51499999 39
12.597 8.8330002 -0.28200001 48
12.743 8.9329996 -0.050000001 40
11.993 8.4650002 -1.2079999 14
12.299 8.6560001 -1.008 29
13.393 9.4049997 -0.84899998 37
12.66 8.875 -0.56800002 40
12.602 8.8249998 -0.33199999 49
12.706 8.8950005 -0.101 40
11.988 8.4519997 -1.256 16
12.13 8.526 -1.043 17
13.147 9.2200003 -0.88499999 37
12.671 8.8699999 -0.61799997 41
12.597 8.8079996 -0.382 52
12.659 8.8470001 -0.15000001 50
7.5929999 5.3449998 -0.82499999 1
11.981 8.408 -1.077 13
12.896 9.0270004 -0.91900003 33
12.648 8.8369999 -0.667 31
12.609 8.7989998 -0.43200001 54
12.623 8.8030005 -0.2 49
7.5469999 5.302 -0.85000002 18
11.981 8.3909998 -1.124 15
12.629 8.8210001 -0.949 30
12.845 8.9540005 -0.727 26
12.631 8.7930002 -0.48199999 51
12.62 8.7790003 -0.25 47
7.487 5.2480001 -0.87300003 33
11.971 8.3620005 -1.17 15
12.383 8.6269999 -0.97899997 35
13.107 9.1120005 -0.79299998 35
12.621 8.7620001 -0.53100002 55
12.608 8.7449999 -0.29899999 47
7.3249998 5.1199999 -0.88099998 30
11.973 8.3409996 -1.216 14
12.273 8.526 -1.018 28
13.038 9.0369997 -0.83999997 37
12.655 8.7580004 -0.58099997 41
12.621 8.7259998 -0.34799999 45
7.1799998 5.0029998 -0.89099997 32
7.6090002 5.2839999 -0.801 0
12.089 8.3699999 -1.048 15
13.062 9.0229998 -0.88999999 37
12.788 8.8190002 -0.63700002 27
12.669 8.7270002 -0.398 38
7.0040002 4.8639998 -0.89600003 29
7.612 5.2670002 -0.82999998 9
11.949 8.243 -1.08 15
12.907 8.882 -0.92799997 32
12.938 8.8870001 -0.69199997 27
12.748 8.7460003 -0.449 35
6.849 4.7379999 -0.90100002 29
7.4349999 5.1240001 -0.83899999 12
11.948 8.2080002 -1.125 19
12.537 8.592 -0.949 32
13.094 8.9560003 -0.75 40
12.694 8.6719999 -0.49399999 38
6.6989999 4.6149998 -0.90600002 32
7.4289999 5.098 -0.86500001 34
11.946 8.1709995 -1.169 19
12.332 8.4130001 -0.97799999 36
13.233 9.0100002 -0.80599999 43
12.817 8.7139997 -0.54699999 33
6.6389999 4.552 -0.921 27
7.3099999 4.9920001 -0.87699997 31
11.94 8.1280003 -1.211 17
12.253 8.3179998 -1.016 31
13.172 8.9230003 -0.85000002 38
12.89 8.7189999 -0.597 38
6.52 4.4489999 -0.92699999 27
7.2179999 4.9050002 -0.89200002 40
11.935 8.0819998 -1.253 17
12.117 8.1820002 -1.048 20
13.134 8.849 -0.89600003 36
12.934 8.7010002 -0.64700001 38
6.441 4.3720002 -0.93900001 28
7.0560002 4.7690001 -0.89600003 36
11.931 8.0349998 -1.294 18
11.952 8.026 -1.076 14
12.909 8.6490002 -0.92500001 30
13.3 8.8950005 -0.71200001 36
6.3319998 4.2729998 -0.94400001 27
6.941 4.664 -0.90499997 35
7.513 5.0300002 -0.84100002 5
11.92 7.9559999 -1.114 16
12.59 8.3839998 -0.94599998 34
13.314 8.849 -0.759 35
6.1849999 4.1490002 -0.94300002 25
6.7779999 4.526 -0.90600002 33
7.4990001 4.9889998 -0.86400002 24
11.914 7.902 -1.154 15
12.424 8.2189999 -0.977 34
13.251 8.75 -0.801 42
6.1539998 4.1009998 -0.958 26
6.6589999 4.4180002 -0.912 35
7.4060001 4.895 -0.87800002 37
11.902 7.842 -1.192 17
12.288 8.0749998 -1.007 34
13.24 8.6829996 -0.84500003 41
6.1669998 4.0819998 -0.98000002 25
6.5890002 4.3410001 -0.92400002 33
7.2979999 4.79 -0.889 36
11.898 7.783 -1.2309999 16
12.22 7.973 -1.0420001 28
13.418 8.7349997 -0.90100002 31
6.1900001 4.0679998 -1.003 28
6.4689999 4.2309999 -0.92699999 36
7.1539998 4.6609998 -0.89399999 38
11.89 7.7210002 -1.267 17
12.066 7.8130002 -1.067 16
13.092 8.4589996 -0.92199999 32
6.198 4.0430002 -1.023 25
6.4050002 4.158 -0.93800002 34
7.0430002 4.5539999 -0.90200001 42
11.876 7.652 -1.303 18
11.895 7.6420002 -1.09 12
12.843 8.2329998 -0.94599998 35
6.237 4.0359998 -1.048 26
6.3379998 4.0819998 -0.94700003 37
6.9060001 4.4299998 -0.90499997 38
7.5279999 4.8109999 -0.84799999 5
11.851 7.552 -1.122 15
12.379 7.8699999 -0.94999999 34
6.335 4.066 -1.0829999 27
6.2820001 4.013 -0.95700002 36
6.8200002 4.3379998 -0.91399997 35
7.395 4.6859999 -0.85600001 11
11.856 7.4899998 -1.158 15
12.348 7.7820001 -0.98500001 32
6.3940001 4.0689998 -1.1109999 28
6.3410001 4.0159998 -0.98400003 35
6.7540002 4.2589998 -0.92400002 34
7.3800001 4.6360002 -0.875 34
11.843 7.4169998 -1.191 17
12.274 7.6669998 -1.016 33
6.3670001 4.0159998 -1.124 25
6.3889999 4.0100002 -1.0089999 34
6.6609998 4.1620002 -0.93000001 37
7.3470001 4.573 -0.89200002 33
11.834 7.3429999 -1.224 18
12.212 7.5570002 -1.046 31
6.4829998 4.0510001 -1.161 26
6.4450002 4.007 -1.035 33
6.6490002 4.1160002 -0.94599998 33
7.198 4.4380002 -0.89399999 41
11.822 7.2659998 -1.256 20
12.138 7.4390001 -1.073 21
6.6269999 4.1020002 -1.204 31
6.474 3.987 -1.057 33
6.494 3.9809999 -0.94099998 39
7.1199999 4.3470001 -0.903 41
11.808 7.1849999 -1.2869999 18
11.963 7.2589998 -1.092 12
6.5890002 4.0380001 -1.2130001 30
6.5320001 3.9820001 -1.0829999 34
6.5190001 3.9560001 -0.96100003 33
7.066 4.27 -0.91500002 36
11.8 7.1069999 -1.317 19
11.8 7.086 -1.108 11
6.6570001 4.0380001 -1.242 29
6.6269999 3.9990001 -1.115 32
6.5609999 3.9400001 -0.98400003 34
6.9489999 4.1560001 -0.917 33
11.79 7.026 -1.347 13
11.781 6.9990001 -1.138 11
6.6570001 3.9960001 -1.257 26
6.7020001 4.0009999 -1.143 39
6.691 3.9749999 -1.0190001 34
6.8709998 4.0650001 -0.92299998 37
7.428 4.3790002 -0.866 3
11.77 6.9169998 -1.165 15
6.7080002 3.9820001 -1.2819999 28
6.7410002 3.9809999 -1.165 30
6.711 3.944 -1.038 33
6.7810001 3.9679999 -0.92699999 34
7.362 4.2919998 -0.87599999 11
11.76 6.8340001 -1.193 17
6.7420001 3.9579999 -1.303 31
6.7659998 3.95 -1.184 31
6.7249999 3.9070001 -1.0549999 31
6.7519999 3.905 -0.93900001 32
7.3150001 4.2150002 -0.88700002 26
11.758 6.7529998 -1.221 16
6.7290001 3.904 -1.314 25
6.7930002 3.9189999 -1.2029999 21
6.7740002 3.8889999 -1.077 34
6.8169999 3.8970001 -0.96200001 34
7.3249998 4.1700001 -0.90499997 35
11.765 6.6760001 -1.248 12
6.8260002 3.914 -1.347 26
6.8449998 3.9030001 -1.226 31
6.7969999 3.855 -1.095 38
6.8270001 3.855 -0.97799999 32
7.1849999 4.0409999 -0.903 29
11.869 6.6529999 -1.285 20
6.8730001 3.892 -1.369 30
6.8889999 3.8789999 -1.247 40
6.869 3.848 -1.12 36
6.8590002 3.825 -0.99699998 40
7.1090002 3.948 -0.90799999 33
11.895 6.5840001 -1.312 36
7.0180001 3.925 -1.41 29
6.9330001 3.855 -1.267 37
6.8990002 3.816 -1.137 40
6.9130001 3.806 -1.017 40
7.0910001 3.888 -0.91900003 34
11.878 6.4899998 -1.334 39
6.987 3.858 -1.416 2
6.9889998 3.836 -1.29 31
6.9910002 3.8169999 -1.165 38
7.0640001 3.839 -1.052 39
7.0500002 3.8150001 -0.92699999 38
11.874 6.4029999 -1.3559999 38
7.026 3.8280001 -1.4349999 2
7.3130002 3.961 -1.3609999 15
7.0279999 3.786 -1.183 33
7.0960002 3.8050001 -1.0700001 34
7.1659999 3.826 -0.95499998 35
11.847 6.302 -1.375 38
8.1680002 4.3909998 -1.6799999 11
8.7840004 4.6939998 -1.649 10
7.098 3.773 -1.206 36
7.1059999 3.7590001 -1.0829999 39
7.105 3.7420001 -0.95899999 31
11.826 6.2049999 -1.392 29
8.1260004 4.3080001 -1.683 11
8.0839996 4.2610002 -1.529 9
7.3280001 3.8410001 -1.256 25
7.1599998 3.734 -1.102 32
7.1589999 3.7179999 -0.977 34
11.783 6.0949998 -1.406 27
8.0950003 4.2319999 -1.688 12
0 0 0 0
7.3049998 3.7750001 -1.263 3
7.2680001 3.7360001 -1.1289999 34
7.2750001 3.723 -1.0039999 33
11.747 5.9889998 -1.42 26
8.0699997 4.1570001 -1.692 13
8.6639996 4.4359999 -1.6619999 10
9.3800001 4.776 -1.6339999 10
10.217 5.1760001 -1.601 9
7.323 3.694 -1.021 7
11.69 5.8720002 -1.4299999 22
8.0410004 4.0819998 -1.6950001 11
8.6429996 4.3600001 -1.668 10
9.3380003 4.684 -1.637 10
10.157 5.0689998 -1.604 9
7.3530002 3.6530001 -1.035 10
11.684 5.7810001 -1.4450001 17
8.0190001 4.0100002 -1.699 11
8.6120005 4.2789998 -1.671 10
9.3170004 4.6030002 -1.6440001 10
10.114 4.9710002 -1.609 10
11.087 5.4239998 -1.574 10
11.649 5.6750002 -1.455 12
7.9959998 3.9360001 -1.701 11
8.5830002 4.198 -1.674 11
9.2880001 4.5170002 -1.649 11
10.076 4.875 -1.614 9
11.033 5.3130002 -1.5779999 10
11.631 5.5770001 -1.467 12
7.9720001 3.8629999 -1.7029999 11
8.5649996 4.1240001 -1.678 12
9.2390003 4.4229999 -1.649 10
10.046 4.7839999 -1.619 10
10.99 5.2090001 -1.584 9
11.601 5.474 -1.476 11
7.9559999 3.7939999 -1.706 11
8.5509996 4.052 -1.683 11
9.2360001 4.3499999 -1.656 11
10.007 4.6880002 -1.622 10
10.957 5.1079998 -1.589 10
11.595 5.382 -1.4859999 10
7.9349999 3.7219999 -1.706 10
8.526 3.973 -1.683 10
9.2159996 4.2690001 -1.659 11
9.9860001 4.6009998 -1.627 10
10.918 5.0050001 -1.5930001 10
11.571 5.2810001 -1.493 14
7.9320002 3.658 -1.71 11
8.5139999 3.901 -1.686 10
9.1999998 4.1900001 -1.663 11
9.9659996 4.513 -1.63 10
10.881 4.9029999 -1.595 10
11.559 5.1849999 -1.501 12
7.9219999 3.5899999 -1.712 10
8.4960003 3.825 -1.687 9
9.1940002 4.1139998 -1.6670001 11
9.9540005 4.4299998 -1.6339999 9
10.887 4.8210001 -1.603 10
11.546 5.0890002 -1.507 10
7.914 3.5250001 -1.7130001 15
8.4860001 3.7539999 -1.689 10
9.1780005 4.0349998 -1.668 12
9.9300003 4.3410001 -1.635 9
10.859 4.723 -1.605 11
11.531 4.9920001 -1.512 12
7.9190001 3.464 -1.716 15
8.4820004 3.6860001 -1.691 11
9.1789999 3.964 -1.6720001 11
9.9350004 4.2659998 -1.64 9
10.848 4.6339998 -1.608 10
11.526 4.9000001 -1.517 15
7.9050002 3.395 -1.715 16
8.4879999 3.6210001 -1.694 10
9.1739998 3.8889999 -1.673 11
9.948 4.1939998 -1.645 10
10.846 4.5479999 -1.612 9
11.501 4.7989998 -1.518 14
7.9089999 3.3340001 -1.717 14
8.493 3.556 -1.696 9
9.1719999 3.816 -1.675 10
9.9490004 4.1149998 -1.648 12
10.85 4.4640002 -1.615 9
11.488 4.7030001 -1.52 12
7.9050002 3.2690001 -1.716 13
8.5150003 3.4979999 -1.701 9
9.1719999 3.744 -1.675 11
9.9580002 4.04 -1.651 11
10.87 4.3870001 -1.62 10
11.482 4.6110001 -1.521 12
7.881 3.197 -1.71 12
8.5159998 3.431 -1.7 11
9.1899996 3.6789999 -1.678 12
9.9689999 3.9660001 -1.652 11
10.878 4.3049998 -1.622 9
11.474 4.5170002 -1.521 14
7.9120002 3.1470001 -1.715 13
8.5310001 3.369 -1.702 13
9.2049999 3.6110001 -1.6799999 12
9.9849997 3.8940001 -1.654 11
10.891 4.224 -1.623 9
11.453 4.4190001 -1.518 13
7.9099998 3.0829999 -1.712 11
8.54 3.3050001 -1.702 13
9.2209997 3.546 -1.681 11
10.002 3.822 -1.656 11
10.919 4.1500001 -1.626 10
11.459 4.3319998 -1.518 13
7.9349999 3.0309999 -1.715 12
8.559 3.2449999 -1.702 13
9.2519999 3.4849999 -1.684 10
10.022 3.7509999 -1.656 12
10.95 4.0749998 -1.628 10
11.453 4.2399998 -1.515 11
7.9660001 2.9790001 -1.717 12
8.5790005 3.1849999 -1.7029999 13
9.2670002 3.4170001 -1.683 10
10.052 3.684 -1.6569999 12
10.991 4.0050001 -1.63 10
11.463 4.1539998 -1.513 13
7.9790001 2.9200001 -1.716 11
8.599 3.1240001 -1.702 13
9.2980003 3.355 -1.684 11
10.079 3.615 -1.658 13
11.038 3.9360001 -1.633 11
11.469 4.0669999 -1.51 17
8.0089998 2.868 -1.717 11
8.6020002 3.0580001 -1.697 12
9.3299999 3.2939999 -1.684 12
10.138 3.556 -1.661 13
11.102 3.8710001 -1.637 12
11.514 3.9920001 -1.51 20
8.0480003 2.819 -1.719 12
8.6309996 3 -1.697 12
9.382 3.2379999 -1.687 15
10.184 3.4920001 -1.6619999 13
11.131 3.7939999 -1.6339999 12
11.573 3.9219999 -1.511 29
8.0780001 2.7650001 -1.719 11
8.6700001 2.9449999 -1.698 11
9.4250002 3.1800001 -1.688 15
10.246 3.434 -1.664 13
11.198 3.73 -1.636 12
11.578 3.835 -1.503 25
8.1169996 2.7149999 -1.719 11
8.7159996 2.8940001 -1.699 11
9.4709997 3.122 -1.688 16
10.305 3.375 -1.666 13
11.256 3.6630001 -1.635 13
11.581 3.747 -1.495 34
8.1529999 2.6630001 -1.7180001 11
8.7530003 2.8369999 -1.697 12
9.5200005 3.0639999 -1.687 16
10.381 3.319 -1.668 12
11.301 3.5899999 -1.631 12
11.552 3.6489999 -1.48 44
8.1999998 2.615 -1.719 11
8.8109999 2.789 -1.699 11
9.5780001 3.01 -1.687 16
10.447 3.26 -1.668 10
11.324 3.5109999 -1.623 12
11.638 3.586 -1.48 40
8.257 2.5680001 -1.72 12
8.8620005 2.7360001 -1.698 11
9.625 2.9489999 -1.684 14
10.497 3.194 -1.663 12
11.329 3.425 -1.6109999 12
11.705 3.517 -1.476 32
8.3129997 2.5220001 -1.721 12
8.9289999 2.687 -1.699 11
9.6800003 2.892 -1.681 14
10.579 3.1389999 -1.664 14
11.319 3.3369999 -1.596 10
11.519 3.3740001 -1.439 6
8.3730001 2.4760001 -1.722 12
8.9890003 2.6370001 -1.698 11
9.7510004 2.839 -1.6799999 13
10.687 3.089 -1.666 17
11.315 3.25 -1.581 21
11.559 3.299 -1.429 5
8.4300003 2.4289999 -1.721 11
9.059 2.589 -1.698 11
9.8219995 2.786 -1.679 13
10.78 3.036 -1.666 17
11.318 3.1659999 -1.5650001 22
11.941 3.319 -1.46 47
8.4919996 2.3829999 -1.72 12
9.1490002 2.546 -1.701 12
9.9209995 2.74 -1.6799999 14
10.894 2.987 -1.6670001 16
11.393 3.1010001 -1.559 5
12.067 3.2639999 -1.457 38
8.566 2.339 -1.72 11
9.2259998 2.4979999 -1.7 12
10.002 2.688 -1.678 14
11.005 2.9349999 -1.666 16
11.708 3.1010001 -1.5829999 4
12.21 3.2119999 -1.456 42
8.6409998 2.2939999 -1.72 11
9.3079996 2.451 -1.699 13
10.108 2.6400001 -1.678 13
11.149 2.8900001 -1.669 16
12.088 3.112 -1.614 4
12.677 3.2409999 -1.49 29
8.7270002 2.2520001 -1.721 11
9.3940001 2.4030001 -1.697 12
10.209 2.5910001 -1.676 13
11.264 2.8369999 -1.666 14
12.419 3.105 -1.636 8
13.012 3.2309999 -1.506 31
8.8100004 2.207 -1.72 12
9.5039997 2.3610001 -1.698 13
10.34 2.5469999 -1.678 13
11.437 2.7950001 -1.669 15
12.77 3.098 -1.658 9
13.331 3.2119999 -1.518 13
8.9119997 2.1659999 -1.721 11
9.6079998 2.3150001 -1.697 12
10.463 2.5009999 -1.676 13
11.542 2.737 -1.6619999 12
12.995 3.0580001 -1.661 9
13.988 3.2679999 -1.5650001 4
9.007 2.1229999 -1.72 12
9.7209997 2.2720001 -1.696 13
10.602 2.457 -1.676 13
11.71 2.6919999 -1.661 12
13.178 3.007 -1.658 13
14.585 3.303 -1.602 15
9.1099997 2.0810001 -1.719 12
9.8369999 2.2279999 -1.6950001 13
10.741 2.4119999 -1.675 13
11.896 2.6500001 -1.6619999 12
13.391 2.9590001 -1.655 15
14.84 3.2550001 -1.598 14
9.2130003 2.039 -1.717 13
9.9689999 2.1860001 -1.694 11
10.898 2.369 -1.674 13
12.091 2.6070001 -1.6619999 13
13.573 2.9030001 -1.648 15
15.1 3.2060001 -1.5930001 14
9.3280001 1.997 -1.716 13
10.11 2.145 -1.694 12
11.07 2.3280001 -1.674 13
12.275 2.5599999 -1.658 14
13.766 2.8469999 -1.638 13
15.359 3.154 -1.584 14
9.4530001 1.957 -1.716 12
10.263 2.105 -1.694 12
11.238 2.2839999 -1.6720001 13
12.484 2.516 -1.656 14
13.945 2.7869999 -1.626 13
15.674 3.108 -1.5779999 12
9.5790005 1.916 -1.714 12
10.417 2.063 -1.692 12
11.435 2.2449999 -1.6720001 14
12.72 2.4749999 -1.654 13
14.201 2.74 -1.619 12
16.033001 3.069 -1.574 12
9.7329998 1.878 -1.715 12
10.57 2.02 -1.689 12
11.65 2.2060001 -1.6720001 14
12.972 2.434 -1.652 12
14.482 2.6930001 -1.613 13
16.368999 3.0190001 -1.563 13
9.8690004 1.835 -1.711 12
10.75 1.979 -1.688 13
11.859 2.1630001 -1.67 15
13.233 2.392 -1.65 12
14.791 2.6500001 -1.607 12
16.76 2.9779999 -1.5549999 10
10.016 1.793 -1.7079999 12
10.937 1.939 -1.686 12
12.104 2.125 -1.67 15
13.496 2.3469999 -1.6440001 13
15.133 2.608 -1.601 13
17.239 2.947 -1.551 11
10.196 1.756 -1.709 12
11.154 1.901 -1.687 12
12.354 2.085 -1.668 14
13.769 2.3010001 -1.637 12
15.496 2.5669999 -1.594 12
17.681999 2.9030001 -1.538 11
10.377 1.717 -1.707 12
11.352 1.859 -1.682 14
12.622 2.046 -1.666 13
14.066 2.257 -1.6289999 13
15.919 2.5309999 -1.59 11
18.209 2.869 -1.529 12
10.56 1.676 -1.704 12
11.572 1.818 -1.679 14
12.899 2.0050001 -1.6619999 13
14.409 2.2179999 -1.625 13
16.358 2.493 -1.5829999 13
18.709999 2.826 -1.5140001 13
10.762 1.636 -1.702 12
11.831 1.78 -1.678 13
13.216 1.967 -1.661 11
14.776 2.177 -1.619 13
16.747 2.4430001 -1.567 10
19.302999 2.789 -1.499 13
10.981 1.598 -1.701 12
12.103 1.7410001 -1.677 13
13.516 1.924 -1.654 11
15.173 2.1370001 -1.612 12
17.267 2.408 -1.559 11
20.002001 2.763 -1.488 14
11.207 1.558 -1.698 12
12.386 1.7029999 -1.675 13
13.85 1.883 -1.648 12
15.593 2.098 -1.605 11
17.781 2.368 -1.546 11
20.705999 2.7290001 -1.471 15
11.445 1.518 -1.6950001 13
12.695 1.664 -1.673 12
14.185 1.839 -1.64 13
16.058001 2.059 -1.598 10
18.316999 2.323 -1.529 12
21.474001 2.6949999 -1.451 16
11.678 1.475 -1.687 12
13.002 1.622 -1.6670001 12
14.546 1.794 -1.63 12
16.548 2.0179999 -1.587 10
19.018999 2.293 -1.52 13
22.378 2.6689999 -1.431 18
11.988 1.438 -1.688 12
13.34 1.58 -1.661 10
14.994 1.755 -1.625 12
17.028999 1.97 -1.571 10
19.701 2.253 -1.502 14
23.354 2.642 -1.409 19
12.299 1.399 -1.687 12
13.695 1.538 -1.655 12
15.477 1.717 -1.62 8
17.584 1.927 -1.557 11
20.441 2.214 -1.483 15
24.343 2.6059999 -1.377 17
12.639 1.36 -1.6849999 12
14.073 1.495 -1.647 12
15.979 1.676 -1.612 9
18.191999 1.8839999 -1.5420001 12
21.344 2.184 -1.467 16
25.344999 2.562 -1.337 14
12.976 1.318 -1.6799999 12
14.474 1.45 -1.638 11
16.473 1.628 -1.597 10
18.940001 1.848 -1.531 13
22.243999 2.1429999 -1.441 17
26.638 2.536 -1.301 12
13.347 1.276 -1.675 11
14.927 1.4069999 -1.63 10
16.982 1.579 -1.58 10
19.636999 1.802 -1.51 14
23.362 2.1140001 -1.421 19
27.940001 2.497 -1.253 8
13.716 1.23 -1.666 11
15.42 1.363 -1.622 8
17.608999 1.535 -1.567 11
20.552 1.766 -1.497 15
24.504999 2.0769999 -1.391 19
29.598 2.474 -1.206 7
14.131 1.1849999 -1.658 11
15.95 1.317 -1.612 9
18.309999 1.489 -1.553 12
21.393999 1.715 -1.47 16
25.718 2.0320001 -1.353 12
31.240999 2.434 -1.143 6
14.547 1.137 -1.647 11
16.504999 1.2690001 -1.599 10
19.062 1.443 -1.538 13
22.49 1.676 -1.45 18
26.865 1.972 -1.299 10
33.856998 2.448 -1.094 3
15.047 1.09 -1.6390001 11
17.096001 1.2180001 -1.5829999 10
19.912001 1.396 -1.521 14
23.660999 1.632 -1.424 18
28.525 1.936 -1.257 8
36.089001 2.4119999 -1.011 1
15.576 1.0420001 -1.6289999 10
17.738001 1.166 -1.566 11
20.794001 1.344 -1.498 16
24.917 1.582 -1.391 14
30.139999 1.881 -1.196 6
38.372002 2.3529999 -0.903 1
16.159 0.991 -1.618 9
18.51 1.114 -1.551 12
21.915001 1.295 -1.48 15
26.204 1.52 -1.345 13
32.174999 1.834 -1.131 4
41.151001 2.303 -0.78299999 9
16.742001 0.93699998 -1.601 10
19.332001 1.0599999 -1.533 13
22.962999 1.235 -1.448 19
27.768999 1.4630001 -1.299 9
34.749001 1.795 -1.062 7
44.298 2.244 -0.63800001 71
17.440001 0.88200003 -1.5880001 11
20.249001 1.002 -1.513 15
24.289 1.176 -1.418 21
29.540001 1.402 -1.245 7
0 0 0 0
45.120998 2.053 -0.44 43
18.190001 0.824 -1.571 12
21.191 0.93699998 -1.483 13
25.655001 1.109 -1.377 21
31.518999 1.332 -1.179 6
40.284 1.6619999 -0.852 10
47.852001 1.929 -0.236 33
19.037001 0.76300001 -1.554 13
22.384001 0.875 -1.461 17
27.135 1.034 -1.3279999 11
33.827999 1.255 -1.102 3
44.188 1.599 -0.72100002 70
51.354 1.8099999 -0.003 29
19.962 0.69800001 -1.533 14
23.746 0.80699998 -1.4349999 20
28.809 0.95200002 -1.2690001 7
38.060001 1.223 -1.056 7
45.139999 1.409 -0.51599997 51
51.276001 1.553 0.249 44
21.021 0.62900001 -1.512 16
25.132 0.72899997 -1.396 20
31.136999 0.875 -1.219 6
39.780998 1.08 -0.90499997 11
45.326 1.1900001 -0.28999999 6
59.021 1.499 0.58399999 53
22.16 0.55400002 -1.484 17
26.587 0.64099997 -1.344 13
33.370998 0.77399999 -1.1390001 4
43.647999 0.97600001 -0.77499998 69
0 0 0 0
49.738998 1.026 0.745 48
23.528 0.47400001 -1.457 20
28.441999 0.54799998 -1.294 9
37.898998 0.69800001 -1.102 6
45.259998 0.79699999 -0.57300001 65
61.077999 1.022 0.23 7
49.729 0.79100001 1.0039999 56
25.021 0.38499999 -1.4220001 21
30.546 0.44400001 -1.233 6
39.710999 0.54400003 -0.949 14
45.287998 0.583 -0.33700001 1
49.597 0.597 0.449 88
49.584 0.55800003 1.263 34
26.756001 0.285 -1.38 14
33 0.32499999 -1.159 4
43.866001 0.398 -0.81800002 72
49.547001 0.412 -0.109 48
49.511002 0.37200001 0.708 55
49.481998 0.33399999 1.524 13
28.344 0.17399999 -1.316 9
36.458 0.19499999 -1.09 7
44.491001 0.20299999 -0.59500003 35
44.339001 0.167 0.141 48
49.426998 0.147 0.97600001 59
62.986 0.14 2.2869999 38
30.73 0.048 -1.261 6
39.847 0.032000002 -0.97600001 41
40.160999 0.001 -0.317 63
40.159 -0.026000001 0.345 95
40.157001 -0.056000002 1.013 98
40.178001 -0.085000001 1.6799999 93
33.431 -0.094999999 -1.192 5
43.564999 -0.156 -0.82999998 69
43.881001 -0.18799999 -0.108 62
44.389999 -0.222 0.62699997 5
