# .PCD v0.7 - Point Cloud Data file format
VERSION 0.7
FIELDS x y z intensity
SIZE 4 4 4 4
TYPE F F F F
COUNT 1 1 1 1
WIDTH 1735
HEIGHT 1
VIEWPOINT 0 0 0 1 0 0 0
POINTS 1735
DATA ascii
20.531 -2.096 -1.696 15
24.691999 -2.4909999 -1.619 14
30.660999 -3.0569999 -1.4910001 7
42.839001 -4.2249999 -1.362 3
50.042 -4.881 -0.75 34
18.257 -1.7819999 -1.739 12
21.436001 -2.0669999 -1.677 16
25.945 -2.47 -1.59 8
32.792 -3.0840001 -1.456 8
43.037998 -4.0019999 -1.1900001 4
51.131001 -4.697 -0.55699998 14
18.968 -1.744 -1.725 13
22.440001 -2.0350001 -1.661 18
27.155001 -2.4300001 -1.551 7
34.262001 -3.0280001 -1.383 5
44.841 -3.9130001 -1.058 5
54.508999 -4.698 -0.377 18
19.76 -1.702 -1.714 14
23.384001 -1.9859999 -1.6339999 16
28.895 -2.4200001 -1.533 9
0 0 0 0
49.188999 -4.0100002 -0.96700001 50
0 0 0 0
20.524 -1.647 -1.696 15
24.429001 -1.931 -1.608 13
30.429001 -2.3699999 -1.493 8
38.826 -2.98 -1.257 1
50.187 -3.7980001 -0.792 60
68.583 -5.1160002 0.054000001 3
21.370001 -1.589 -1.6799999 16
25.577 -1.872 -1.5829999 12
31.761999 -2.286 -1.4349999 6
43.265999 -3.0650001 -1.2359999 4
50.341 -3.51 -0.60299999 15
0 0 0 0
22.278 -1.522 -1.664 17
26.927 -1.809 -1.562 8
33.666 -2.2219999 -1.3940001 6
45.159 -2.928 -1.12 12
50.405998 -3.2119999 -0.417 15
56.771 -3.5569999 0.465 37
23.224001 -1.446 -1.645 19
28.037001 -1.712 -1.521 8
35.355 -2.1199999 -1.3329999 5
46.249001 -2.721 -0.97899997 7
54.583 -3.151 -0.25600001 3
120.727 -6.8429999 1.414 24
24.184999 -1.358 -1.624 14
29.572001 -1.626 -1.4960001 8
36.917 -1.988 -1.2589999 1
49.243 -2.598 -0.86900002 78
55.278999 -2.855 -0.067000002 46
55.254002 -2.7939999 0.838 33
25.266001 -1.2640001 -1.6059999 13
30.739 -1.502 -1.447 7
39.799999 -1.899 -1.219 1
49.625999 -2.313 -0.70499998 69
0 0 0 0
55.417999 -2.4619999 1.026 55
26.266001 -1.152 -1.5779999 13
32.161999 -1.373 -1.404 7
43.705002 -1.816 -1.191 5
51.353001 -2.075 -0.55800003 41
85.217003 -3.352 0.46399999 9
55.563999 -2.125 1.209 8
27.339001 -1.026 -1.549 8
33.52 -1.221 -1.351 6
45.484001 -1.607 -1.091 13
0 0 0 0
55.696999 -1.845 0.47999999 19
55.723 -1.783 1.388 41
28.594999 -0.89300001 -1.527 9
35.298 -1.064 -1.3099999 5
46.396 -1.347 -0.96499997 6
55.862999 -1.562 -0.25400001 30
55.881001 -1.501 0.653 57
55.834999 -1.439 1.559 28
29.792999 -0.745 -1.499 8
36.724998 -0.87699997 -1.249 4
46.450001 -1.057 -0.82499999 46
55.987 -1.214 -0.086999997 32
55.990002 -1.153 0.81999999 36
46.459999 -0.90399998 1.434 5
30.795 -0.574 -1.455 8
39.48 -0.69099998 -1.225 2
46.407001 -0.76300001 -0.68900001 96
46.400002 -0.71100003 0.061999999 99
46.429001 -0.66299999 0.81199998 46
46.358002 -0.611 1.5599999 42
32.055 -0.391 -1.421 7
40.764999 -0.45199999 -1.148 1
46.553001 -0.465 -0.55800003 26
61.794998 -0.55199999 0.255 16
53.486 -0.419 1.084 2
81.250999 -0.55199999 2.9560001 3
33.153999 -0.192 -1.377 6
44.080002 -0.206 -1.119 7
50.391998 -0.18000001 -0.46700001 3
53.073002 -0.132 0.36199999 5
52.707001 -0.075999998 1.2079999 8
106.049 -0.032000002 4.1389999 41
34.532001 0.026000001 -1.34 6
45.860001 0.083999999 -1.0420001 12
55.314999 0.16 -0.368 19
51.911999 0.207 0.48899999 33
52.214001 0.26499999 1.331 13
71.608002 0.442 2.9760001 6
35.584999 0.25799999 -1.289 5
46.041 0.384 -0.92900002 5
50.158001 0.47499999 -0.206 2
51.514999 0.542 0.61299998 62
51.942001 0.60299999 1.451 19
71.942001 0.91100001 3.1630001 30
36.477001 0.505 -1.2309999 4
49.626999 0.741 -0.88 35
51.919998 0.83099997 -0.089000002 7
51.41 0.87699997 0.73299998 58
52.021999 0.94400001 1.574 7
71.491997 1.378 3.3099999 35
0 0 0 0
49.926998 1.076 -0.76899999 34
52.199001 1.181 0.028999999 2
51.479 1.22 0.85100001 56
52.306 1.2970001 1.701 8
72.252998 1.8710001 3.5039999 34
40.546001 1.103 -1.1799999 1
50.119999 1.4170001 -0.65899998 41
56.158001 1.645 0.155 48
51.894001 1.576 0.97100002 34
71.404999 2.2460001 2.4749999 29
67.685997 2.2 3.425 15
44.507999 1.508 -1.2 3
50.008999 1.747 -0.55299997 21
56.310001 2.026 0.27200001 25
51.959 1.928 1.079 37
52.41 1.999 1.923 2
91.954002 3.608 4.8390002 15
44.653999 1.816 -1.113 5
51.957001 2.165 -0.47099999 39
51.948002 2.2190001 0.354 12
51.637001 2.2590001 1.1720001 21
67.703003 3.0350001 2.6129999 19
91.396004 4.1929998 4.98 8
44.688 2.1170001 -1.029 4
54.382 2.632 -0.391 39
58.188 2.8770001 0.50400001 10
51.887001 2.6229999 1.273 12
67.531998 3.487 2.7290001 46
67.82 3.573 3.8180001 12
44.949001 2.438 -0.95300001 2
54.689999 3.02 -0.296 65
57.896 3.257 0.60299999 4
105.482 6.046 2.77 8
103.724 6.052 4.3670001 37
68.088997 4.0469999 3.947 17
46.742001 2.852 -0.91399997 12
54.444 3.3770001 -0.204 72
107.178 6.7540002 1.29 8
111.247 7.132 3.1010001 23
103.979 6.7680001 4.5419998 43
105.781 7.006 6.2989998 30
46.847 3.1789999 -0.84200001 7
54.311001 3.74 -0.12 58
106.62 7.447 1.446 11
102.948 7.2979999 3.023 10
102.329 7.3629999 4.6230001 7
108.067 7.8940001 6.5929999 15
46.910999 3.507 -0.77499998 6
54.375 4.118 -0.041999999 65
108.012 8.2860003 1.617 12
104.347 8.1169996 3.211 21
101.638 8.0150003 4.7329998 45
103.331 8.2609997 6.4460001 26
48.395 3.9590001 -0.73299998 1
53.999001 4.467 0.029999999 68
80.035004 6.7020001 1.304 21
104.04 8.8240004 3.3369999 14
102.364 8.7910004 4.8990002 39
102.686 8.9259996 6.5370002 42
50.854 4.5159998 -0.708 28
53.483002 4.8010001 0.094999999 46
78.099998 7.0840001 1.367 13
0 0 0 0
103.467 9.6009998 5.0710001 14
47.868999 4.4959998 3.1029999 12
48.044998 4.6059999 -0.61400002 35
53.491001 5.1760001 0.154 33
79.710999 7.7919998 1.482 11
48.158001 4.757 1.653 39
48.141998 4.8060002 2.411 3
47.800999 4.8239999 3.148 11
19.893 2.0480001 -0.234 9
19.917999 2.0680001 0.077 114
48.043999 5.0359998 0.94 57
61.028 6.4590001 2.154 3
90.436996 9.6669998 4.6160002 6
48.771999 5.2639999 3.2579999 5
18.906 2.079 -0.206 35
19.016001 2.108 0.090000004 99
60.855 6.8060002 1.243 9
89.677002 10.12 3.2409999 52
90.723 10.332 4.7080002 16
104.155 11.975 7.046 26
18.327999 2.1459999 -0.185 37
24.547001 2.8959999 0.13500001 43
60.98 7.2519999 1.2920001 3
89.707001 10.754 3.309 44
90.288002 10.917 4.75 6
104.42 12.739 7.138 34
24.753 3.0739999 -0.234 17
54.492001 6.8140001 0.33500001 29
59.763 7.5320001 1.3049999 29
80.314003 10.202 3.0139999 6
104.102 13.326 5.5430002 41
104.304 13.464 7.1960001 19
25.635 3.3670001 -0.228 24
25.809 3.4119999 0.17200001 2
59.734001 7.9520001 1.335 2
80.042 10.734 3.0450001 8
103.36 13.962 5.5560002 30
103.798 14.137 7.2150002 28
25.968 3.5969999 -0.22 28
64.110001 8.9379997 0.45699999 3
59.673 8.3739996 1.359 17
89.57 12.652 3.4449999 37
90.231003 12.837 4.8870001 21
104.078 14.913 7.276 39
52.084 7.5869999 -0.426 16
59.812 8.7629995 0.44400001 9
59.706001 8.802 1.378 55
89.405998 13.269 3.4660001 48
103.247 15.428 5.6240001 14
103.854 15.629 7.2909999 14
27.419001 4.1950002 -0.21799999 23
27.459999 4.224 0.20900001 27
87.768997 13.579 2.0420001 29
87.870003 13.674 3.4219999 26
103.075 16.138 5.6329999 48
103.441 16.304001 7.2810001 20
27.735001 4.4439998 -0.21799999 41
27.914 4.4959998 0.215 35
74.957001 12.138 1.751 23
87.182999 14.195 3.4030001 34
101.819 16.679001 5.5739999 31
102.909 16.966 7.2519999 25
52.872002 8.8549995 -0.419 23
63.056999 10.608 0.484 52
74.751999 12.639 1.744 34
87.441002 14.861 3.411 31
103.483 17.698 5.6630001 14
55.418999 9.533 3.905 9
28.408001 4.9650002 -0.229 10
28.667999 5.0320001 0.21600001 24
74.101997 13.067 1.719 32
87.653 15.54 3.4070001 33
101.025 18.004 5.5139999 32
55.106998 9.8800001 3.8759999 23
28.848 5.2540002 -0.23999999 9
28.968 5.296 0.211 29
28.52 5.2379999 0.65399998 1
28.490999 5.2579999 1.1 18
55.028999 10.211 2.9890001 20
54.344002 10.14 3.809 24
28.881001 5.473 -0.25099999 31
62.667 11.922 0.433 15
167.22 31.938999 3.777 29
0 0 0 0
54.213001 10.451 2.927 37
55.435001 10.743 3.8659999 32
29.038 5.7129998 -0.266 3
29.653999 5.8540001 0.191 2
87.948997 17.433001 1.9450001 18
54.717999 10.893 2.0680001 41
54.676998 10.936 2.927 40
54.403 10.933 3.7690001 29
29.937 6.1100001 -0.292 49
29.992001 6.1420002 0.175 53
87.399002 17.962999 1.883 20
55.044998 11.36 2.05 25
53.983002 11.19 2.859 37
54.313 11.313 3.733 37
30.139999 6.3740001 -0.317 32
30.291 6.4250002 0.155 18
49.376999 10.51 1.028 29
49.375999 10.549 1.804 33
49.400002 10.596 2.5840001 13
54.035999 11.646 3.6789999 7
49.257 10.778 -0.55699998 49
54.320999 11.919 0.236 80
54.481998 11.994 1.092 13
54.640999 12.071 1.955 24
49.179001 10.908 2.5339999 4
49.196999 10.96 3.3110001 7
30.693001 6.9419999 -0.37599999 13
30.799999 6.9860001 0.105 82
71.361 16.238001 1.365 39
55.254002 12.616 1.926 4
54.84 12.57 2.776 24
54.702 12.591 3.6329999 26
31.014999 7.2459998 -0.41299999 19
53.882 12.62 0.127 5
31.031 7.29 0.56099999 5
58.717999 13.841 1.988 24
55.271 13.076 2.743 21
55.022999 13.07 3.5999999 37
31.208 7.5240002 -0.45199999 9
31.264999 7.5549998 0.037 20
31.358 7.5970001 0.53100002 2
58.641998 14.251 1.919 3
58.935001 14.375 2.8610001 30
70.341003 17.219 4.5289998 16
29.580999 7.3499999 -0.46599999 2
0 0 0 0
80.719002 20.150999 1.27 9
69.786003 17.475 2.198 22
59.23 14.878 2.803 2
58.859001 14.836 3.7190001 36
30.229 7.7350001 -0.51899999 40
31.759001 8.1429996 -0.045000002 17
31.854 8.1879997 0.458 52
69.362999 17.879 2.0929999 3
69.447998 17.954 3.1960001 27
0 0 0 0
26.135 6.8829999 -0.48800001 4
32.006001 8.4429998 -0.092 69
32.068001 8.4779997 0.41299999 29
75.064003 19.903999 2.1570001 36
69.736 18.542999 3.1099999 30
81.056 21.621 4.9039998 9
25.677999 6.954 -0.52100003 25
32.171001 8.7250004 -0.14300001 4
76.206001 20.709999 0.86500001 4
83.827003 22.836 2.28 20
70.032997 19.132 3.016 12
84.403999 23.131001 4.9759998 5
19.191999 5.3410001 -0.42300001 39
31.972 8.9099998 -0.197 1
0 0 0 0
0 0 0 0
138.091 38.743 5.7220001 27
0 0 0 0
19.028 5.4369998 -0.45500001 43
32.640999 9.3380003 -0.26199999 74
32.691002 9.3669996 0.257 21
155.86 44.751999 3.7060001 34
66.519997 19.143999 2.642 27
0 0 0 0
18.864 5.5279999 -0.48699999 43
19.084 5.5999999 -0.189 30
32.891998 9.665 0.198 49
32.962002 9.7040005 0.72299999 3
65.931999 19.457001 2.4979999 10
66.666 19.726999 3.5899999 24
18.746 5.6339998 -0.52200001 44
18.955 5.7010002 -0.226 43
33.076 9.9639997 0.133 21
55.167999 16.65 1.102 18
66.190002 20.02 2.3789999 20
66.049004 20.025999 3.4319999 31
18.672001 5.75 -0.56099999 47
18.808001 5.7969999 -0.264 51
55.195 17.032 0.105 23
55.057999 17.018 0.98500001 27
100.54 31.135 3.411 25
66.058998 20.504 3.3 27
18.622999 5.8720002 -0.60100001 48
18.707001 5.902 -0.30399999 55
51.328999 16.212 -0.013 22
51.300999 16.23 0.80900002 10
51.264999 16.249001 1.63 51
51.147999 16.25 2.447 32
18.690001 6.033 -0.648 42
18.702999 6.04 -0.34900001 60
51.044998 16.504999 -0.131 56
51.209 16.58 0.68900001 20
0 0 0 0
66.417999 21.586 3.03 31
18.792 6.2059999 -0.699 43
18.738001 6.1900001 -0.39500001 52
51.034 16.872999 -0.255 23
70.199997 23.235001 0.77999997 4
0 0 0 0
108.917 36.176998 4.7189999 26
19.385 6.5450001 -0.77100003 18
19.059 6.4369998 -0.44999999 50
19.552 6.6079998 -0.147 36
68.410004 23.143999 0.58999997 6
0 0 0 0
0 0 0 0
20.530001 7.0830002 -0.87199998 24
19.358999 6.6799998 -0.509 42
19.268999 6.651 -0.19499999 59
19.462 6.7249999 0.118 0
74.178001 25.669001 1.649 17
108.179 37.501999 4.1529999 35
20.437 7.2020001 -0.92500001 20
19.011 6.6989999 -0.55199999 57
19.059 6.7189999 -0.245 60
19.4 6.8449998 0.064000003 10
73.778999 26.059999 1.444 21
124.639 44.098 4.4590001 23
19.256001 6.927 -0.92799997 48
18.954 6.816 -0.60399997 50
18.952 6.8179998 -0.296 54
19.261999 6.934 0.012 45
73.584 26.521 1.2410001 49
67.983002 24.535999 2.2520001 9
19.107 7.0139999 -0.97799999 44
19.209 7.0489998 -0.67000002 43
18.816999 6.9050002 -0.34799999 56
19.086 7.0079999 -0.041999999 57
52.061001 19.134001 0.73000002 18
51.84 19.08 1.574 47
18.774 7.0289998 -1.0190001 43
18.964001 7.0970001 -0.71799999 39
18.733 7.0100002 -0.403 58
18.927999 7.086 -0.097999997 57
58.105 21.771 0.64600003 55
95.132004 35.685001 2.6129999 18
18.458 7.0450001 -1.061 36
18.954 7.23 -0.778 29
18.684 7.125 -0.46000001 62
18.837999 7.1849999 -0.155 52
58.167999 22.202999 0.472 41
60.271 23.032 1.475 19
13.531 5.263 -0.82200003 6
19.9 7.7350001 -0.88200003 19
18.681 7.2579999 -0.51999998 56
18.797001 7.3039999 -0.214 50
19.243999 7.4819999 0.096000001 3
59.860001 23.299 1.28 36
13.281 5.263 -0.85299999 26
19.610001 7.7639999 -0.93400002 34
18.739 7.4159999 -0.583 50
18.783001 7.4330001 -0.27399999 51
19.121 7.5689998 0.034000002 11
41.063999 16.271 0.74900001 3
12.92 5.2129998 -0.875 39
18.959999 7.6430001 -0.97000003 14
18.731001 7.5450001 -0.64700001 44
18.767 7.559 -0.338 45
19.069 7.6820002 -0.028000001 11
48.243 19.450001 0.72299999 2
12.637 5.1900001 -0.90100002 51
18.906 7.756 -1.033 35
18.968 7.7750001 -0.72100002 28
18.799 7.704 -0.40200001 51
19.058001 7.8119998 -0.092 2
54.626999 22.405001 0.63599998 81
12.297 5.1389999 -0.92299998 49
13.713 5.723 -0.79900002 7
19.177 7.9970002 -0.79799998 13
19.007999 7.9229999 -0.47400001 17
49.936001 20.818001 -0.417 3
52.887001 22.056999 0.43599999 1
11.855 5.039 -0.935 48
13.211 5.6079998 -0.81900001 27
18.952999 8.0369997 -0.85799998 11
19.143 8.1140003 -0.54699999 1
0 0 0 0
52.723999 22.351999 0.248 51
11.56 4.9959998 -0.95700002 49
13.225 5.7069998 -0.87099999 51
18.653999 8.04 -0.91500002 9
18.620001 8.0209999 -0.60000002 4
24.860001 10.708 -0.38699999 2
52.504002 22.618999 0.057999998 24
10.879 4.7800002 -0.94400001 42
12.827 5.6259999 -0.89600003 52
18.358999 8.0419998 -0.972 11
18.368 8.0389996 -0.66299999 14
25.167 11.011 -0.48500001 9
52.282001 22.879 -0.134 5
10.588 4.7270002 -0.96200001 45
12.563 5.598 -0.92799997 40
13.741 6.1139998 -0.78200001 6
18.385 8.1719999 -0.73500001 19
25.452 11.308 -0.58899999 7
34.936001 15.522 -0.22 28
10.319 4.6789999 -0.98000002 41
12.262 5.5479999 -0.95499998 42
13.308 6.0120001 -0.81 29
18.400999 8.3039999 -0.80800003 18
25.677 11.581 -0.69400001 9
34.672001 15.635 -0.35299999 40
10.063 4.632 -0.99800003 35
11.464 5.2649999 -0.94099998 41
13.181 6.0450001 -0.85600001 44
20.209999 9.257 -0.96899998 10
25.641001 11.736 -0.79500002 12
25.957001 11.876 -0.36500001 4
9.6829996 4.5240002 -1.002 37
0 0 0 0
12.734 5.9250002 -0.88 45
19.298 8.967 -1.005 16
23.839001 11.066 -0.83499998 6
26.087 12.105 -0.47099999 8
9.4870005 4.4980001 -1.024 38
0 0 0 0
12.306 5.8080001 -0.903 47
13.238 6.2379999 -0.74299997 0
22.672001 10.673 -0.88700002 6
26.295 12.371 -0.58099997 14
9.4379997 4.5380001 -1.061 35
10.331 4.954 -0.98199999 41
11.98 5.7340002 -0.93099999 49
13.21 6.3119998 -0.79799998 23
21.334999 10.183 -0.92500001 6
26.417 12.599 -0.69400001 13
9.4619999 4.6139998 -1.107 38
9.7639999 4.7470002 -0.972 44
11.927 5.7859998 -0.97899997 40
12.834 6.2160001 -0.83200002 30
20.128 9.7360001 -0.958 7
25.948 12.54 -0.79000002 6
9.4700003 4.6810002 -1.152 33
9.5059996 4.6849999 -0.98900002 42
11.643 5.724 -1.0089999 39
12.61 6.1880002 -0.87300003 45
19.146999 9.3809996 -0.995 9
23.674 11.59 -0.82200003 5
9.3400002 4.678 -1.181 39
9.3450003 4.6659999 -1.016 43
0 0 0 0
12.376 6.151 -0.912 44
18.025999 8.9449997 -1.015 14
22.319 11.064 -0.87199998 6
9.2740002 4.7059999 -1.217 38
9.2650003 4.6859999 -1.051 49
10.153 5.1220002 -0.972 47
12.157 6.118 -0.95099998 40
17.26 8.6719999 -1.049 13
21.073 10.575 -0.917 6
9.2200003 4.7379999 -1.2539999 38
9.2819996 4.7540002 -1.097 43
9.6949997 4.9510002 -0.97399998 53
11.592 5.9050002 -0.95999998 46
12.539 6.3759999 -0.81999999 13
19.888 10.1 -0.95300001 11
9.1920004 4.7820001 -1.296 39
9.1960001 4.7670002 -1.131 49
9.4449997 4.881 -0.99299997 34
11.275 5.8130002 -0.986 44
12.292 6.3239999 -0.85900003 25
18.784 9.6499996 -0.98500001 15
9.198 4.8429999 -1.342 34
9.1199999 4.7839999 -1.166 48
9.1389999 4.7779999 -1.005 48
11.08 5.777 -1.021 39
12.228 6.3629999 -0.91100001 33
17.801001 9.2489996 -1.015 14
9.1949997 4.8990002 -1.388 37
9.0880003 4.823 -1.207 45
9.1070004 4.816 -1.045 50
10.212 5.3850002 -0.99000001 40
11.8 6.2080002 -0.93400002 36
16.878 8.8640003 -1.039 13
9.1459999 4.928 -1.427 39
9.1269999 4.8979998 -1.257 45
9.0930004 4.862 -1.0880001 47
9.6540003 5.1459999 -0.98199999 38
11.505 6.118 -0.96499997 44
16.153 8.5740004 -1.0700001 9
9.1420002 4.9809999 -1.474 41
9.1049995 4.9400001 -1.301 41
9.0880003 4.9120002 -1.133 49
9.3439999 5.0349998 -0.99599999 32
11.316 6.0819998 -1.0039999 40
12.252 6.5710001 -0.86900002 12
9.0970001 5.0110002 -1.5140001 37
8.9940004 4.9320002 -1.33 48
0 0 0 0
9.04 4.9219999 -1.008 40
10.887 5.9109998 -1.0190001 43
11.991 6.4970002 -0.90899998 40
9.1789999 5.1090002 -1.576 37
8.9960003 4.9840002 -1.378 42
8.9560003 4.9429998 -1.206 46
9.052 4.9780002 -1.054 32
0 0 0 0
11.64 6.368 -0.93800002 42
9.1070004 5.1220002 -1.612 32
8.9250002 4.9949999 -1.413 39
8.9329996 4.9790001 -1.249 43
8.8999996 4.9419999 -1.081 43
9.4980001 5.2579999 -0.98199999 40
11.214 6.1929998 -0.958 40
8.9569998 5.0879998 -1.633 14
8.9460001 5.0560002 -1.4630001 33
8.9460001 5.0339999 -1.2970001 54
8.8640003 4.9689999 -1.122 47
9.1090002 5.0900002 -0.98699999 36
10.885 6.0669999 -0.98400003 42
8.8500004 5.0749998 -1.661 11
9.1400003 5.2150002 -1.543 30
8.8690004 5.0370002 -1.331 45
8.8319998 4.9970002 -1.1619999 44
8.8870001 5.0110002 -1.007 40
10.306 5.7950001 -0.98100001 41
8.8240004 5.1079998 -1.704 12
9.007 5.1849999 -1.568 28
8.8389997 5.0650001 -1.372 50
8.802 5.0229998 -1.2029999 37
8.8140001 5.0120001 -1.043 40
9.717 5.5089998 -0.97299999 36
8.75 5.1100001 -1.737 14
8.9490004 5.198 -1.605 27
8.8310003 5.1040001 -1.4170001 35
8.7930002 5.0599999 -1.247 38
8.7869997 5.039 -1.084 43
9.2910004 5.3109999 -0.97600001 34
8.5629997 5.0450001 -1.747 12
8.849 5.1830001 -1.6339999 17
9.0170002 5.2550001 -1.494 36
8.776 5.092 -1.289 38
8.7489996 5.0570002 -1.123 45
8.9449997 5.1539998 -0.98500001 38
8.3269997 4.947 -1.744 12
8.7480001 5.1669998 -1.663 9
9.0550003 5.3200002 -1.548 41
8.7130003 5.0960002 -1.325 40
8.776 5.112 -1.171 40
8.7639999 5.0869999 -1.008 37
8.1140003 4.8590002 -1.744 11
8.7139997 5.1869998 -1.7029999 10
8.9169998 5.2800002 -1.572 36
8.7410002 5.1500001 -1.375 39
8.7550001 5.138 -1.2130001 35
8.7110004 5.0939999 -1.046 36
7.927 4.7849998 -1.748 11
8.651 5.1890001 -1.737 11
8.8520002 5.2800002 -1.607 32
8.7819996 5.2119999 -1.427 40
8.717 5.151 -1.252 38
8.6870003 5.1149998 -1.087 39
7.757 4.717 -1.753 10
8.4379997 5.098 -1.74 10
8.7460003 5.2529998 -1.633 16
8.8240004 5.2740002 -1.479 37
8.7340002 5.1960001 -1.299 41
8.6700001 5.1389999 -1.128 37
7.585 4.645 -1.756 10
8.2200003 5.0009999 -1.739 11
8.6610003 5.2379999 -1.663 13
8.7969999 5.2919998 -1.52 37
8.6850004 5.1999998 -1.336 39
8.7980003 5.2470002 -1.189 38
7.4159999 4.573 -1.758 10
8.0109997 4.9060001 -1.739 12
8.6350002 5.257 -1.705 12
8.8389997 5.3509998 -1.574 33
8.8520002 5.3330002 -1.408 38
8.8030005 5.2810001 -1.234 41
7.27 4.5120001 -1.7640001 10
7.8379998 4.8309999 -1.744 12
8.5780001 5.2540002 -1.739 11
8.7749996 5.3439999 -1.608 35
8.7419996 5.2979999 -1.4349999 37
8.6750002 5.2350001 -1.26 39
7.1129999 4.4419999 -1.765 10
7.665 4.7529998 -1.747 11
8.3900003 5.1690001 -1.745 11
8.7040005 5.3309999 -1.64 19
8.8780003 5.4099998 -1.502 30
8.6560001 5.2509999 -1.3 39
6.9780002 4.3829999 -1.7690001 10
7.5180001 4.6880002 -1.7539999 10
8.1459999 5.046 -1.738 12
8.5959997 5.2930002 -1.664 13
8.8059998 5.3940001 -1.535 38
8.8830004 5.415 -1.3789999 40
6.836 4.3179998 -1.771 9
7.3470001 4.6059999 -1.753 10
7.9640002 4.9590001 -1.7410001 12
8.5830002 5.3119998 -1.707 12
8.7340002 5.375 -1.567 41
8.7299995 5.3470001 -1.399 44
6.7010002 4.2550001 -1.772 9
7.2119999 4.5440001 -1.7589999 10
7.803 4.882 -1.7460001 11
8.533 5.3049998 -1.74 12
8.665 5.3559999 -1.598 35
8.7060003 5.355 -1.439 39
6.5799999 4.198 -1.776 9
7.0679998 4.474 -1.761 10
7.6490002 4.8070002 -1.751 11
8.349 5.2129998 -1.745 12
8.6499996 5.369 -1.6390001 18
8.6520004 5.3429999 -1.472 32
6.4580002 4.1389999 -1.778 9
6.9349999 4.4089999 -1.7640001 10
7.493 4.7280002 -1.7539999 11
8.132 5.0970001 -1.74 12
8.5559998 5.3309999 -1.663 12
8.7299995 5.4099998 -1.528 32
6.3379998 4.079 -1.779 9
6.8130002 4.348 -1.7690001 10
7.3429999 4.651 -1.756 10
7.9359999 4.9920001 -1.738 12
8.5469999 5.3439999 -1.7029999 12
8.7080002 5.415 -1.566 34
6.2350001 4.027 -1.7819999 9
6.6929998 4.2870002 -1.772 10
7.2119999 4.5840001 -1.761 10
7.7989998 4.9219999 -1.747 12
8.507 5.335 -1.737 13
8.6719999 5.408 -1.601 36
6.1220002 3.9679999 -1.7819999 8
6.566 4.2189999 -1.772 9
7.0770001 4.5110002 -1.763 10
7.6440001 4.8379998 -1.75 11
8.349 5.25 -1.745 12
8.6140003 5.3850002 -1.632 20
6.0279999 3.9189999 -1.785 9
6.46 4.1620002 -1.776 9
6.9569998 4.4460001 -1.767 10
7.5009999 4.7589998 -1.753 10
8.1359997 5.1279998 -1.739 11
8.533 5.3470001 -1.6569999 9
5.9320002 3.8670001 -1.7869999 9
6.348 4.1009998 -1.777 9
6.8319998 4.3769999 -1.77 9
7.3600001 4.6799998 -1.756 10
7.9640002 5.0300002 -1.74 11
8.5279999 5.3540001 -1.696 11
5.8509998 3.823 -1.7920001 9
6.2379999 4.0380001 -1.777 9
6.7119999 4.309 -1.771 9
7.23 4.6059999 -1.7589999 10
7.8189998 4.9460001 -1.745 12
8.5080004 5.349 -1.7309999 13
5.7280002 3.75 -1.783 10
6.1479998 3.987 -1.781 9
6.5999999 4.243 -1.773 9
7.1090002 4.5349998 -1.763 10
7.6789999 4.8639998 -1.749 11
8.382 5.276 -1.743 13
5.652 3.7060001 -1.786 10
6.0580001 3.934 -1.784 9
6.4949999 4.1810002 -1.775 9
6.994 4.4660001 -1.767 10
7.5419998 4.7820001 -1.753 10
8.1800003 5.152 -1.738 12
5.566 3.654 -1.786 9
5.9679999 3.8800001 -1.785 9
6.3990002 4.1230001 -1.778 9
6.8769999 4.395 -1.7690001 10
7.4089999 4.6999998 -1.755 10
8.007 5.046 -1.737 12
5.4889998 3.6059999 -1.7869999 10
5.8899999 3.8310001 -1.789 9
6.2989998 4.0609999 -1.779 9
6.7740002 4.3309999 -1.772 10
7.296 4.6290002 -1.76 11
7.8720002 4.961 -1.742 12
5.4050002 3.553 -1.785 10
5.7729998 3.756 -1.779 9
6.2090001 4.0029998 -1.781 9
6.6669998 4.2620001 -1.773 10
7.171 4.5489998 -1.761 10
7.7389998 4.875 -1.745 12
5.3390002 3.5090001 -1.7869999 10
5.7030001 3.711 -1.784 11
6.1360002 3.9549999 -1.7869999 9
6.572 4.1989999 -1.776 10
7.052 4.4710002 -1.761 10
7.625 4.8000002 -1.751 11
5.277 3.467 -1.79 10
5.6279998 3.6600001 -1.784 9
6.0580001 3.901 -1.79 9
6.4699998 4.131 -1.776 9
6.9590001 4.408 -1.766 10
7.4970002 4.7140002 -1.752 10
5.2210002 3.428 -1.793 11
5.5500002 3.6059999 -1.7819999 11
5.9759998 3.845 -1.79 9
6.3889999 4.0749998 -1.779 9
6.8610001 4.3400002 -1.7690001 10
7.381 4.6350002 -1.7539999 10
5.1609998 3.385 -1.794 10
5.4889998 3.562 -1.785 10
5.8670001 3.7690001 -1.781 10
6.3010001 4.0120001 -1.78 9
6.7750001 4.2779999 -1.773 10
7.2849998 4.566 -1.76 11
5.1059999 3.3440001 -1.795 10
5.4180002 3.51 -1.784 11
5.8309999 3.7390001 -1.793 8
6.2309999 3.96 -1.784 9
6.6799998 4.2090001 -1.774 10
7.1750002 4.487 -1.761 10
5.053 3.303 -1.796 10
5.362 3.4660001 -1.786 11
5.73 3.6659999 -1.784 10
6.158 3.904 -1.786 9
6.5999999 4.1490002 -1.778 9
7.079 4.415 -1.763 10
4.9970002 3.2590001 -1.795 9
5.2979999 3.4159999 -1.784 10
5.677 3.6229999 -1.788 9
6.0809999 3.845 -1.786 9
6.5120001 4.0819998 -1.777 9
6.9949999 4.3499999 -1.767 10
4.954 3.2219999 -1.798 9
5.2509999 3.3770001 -1.788 11
5.6149998 3.573 -1.789 9
5.9899998 3.7750001 -1.781 10
6.4330001 4.0190001 -1.779 9
6.9060001 4.2800002 -1.7690001 10
4.9089999 3.1819999 -1.799 9
5.197 3.3310001 -1.788 11
5.5500002 3.5190001 -1.7869999 10
5.9569998 3.7409999 -1.791 9
6.355 3.9560001 -1.779 9
6.8270001 4.2160001 -1.772 10
4.8629999 3.141 -1.799 9
5.1589999 3.2939999 -1.7920001 10
5.5029998 3.477 -1.791 11
5.868 3.671 -1.783 9
6.296 3.904 -1.7819999 9
6.7529998 4.1529999 -1.774 9
4.8200002 3.1010001 -1.798 9
5.1199999 3.256 -1.794 10
5.4510002 3.4300001 -1.79 10
5.8179998 3.6240001 -1.786 10
6.2389998 3.852 -1.786 9
6.6750002 4.086 -1.775 9
4.783 3.0639999 -1.799 10
5.0700002 3.21 -1.793 10
5.3979998 3.381 -1.79 12
5.7519999 3.5669999 -1.784 10
6.1810002 3.7969999 -1.788 9
6.6069999 4.0250001 -1.777 10
4.744 3.0250001 -1.799 10
5.0279999 3.168 -1.793 10
5.355 3.3369999 -1.791 11
5.7059999 3.52 -1.7869999 10
6.1020002 3.73 -1.783 10
6.5489998 3.9690001 -1.78 9
4.71 2.987 -1.799 9
4.987 3.1259999 -1.7920001 9
5.3099999 3.2920001 -1.791 13
5.6589999 3.473 -1.788 11
6.0840001 3.698 -1.794 9
6.5 3.9170001 -1.785 10
4.6859999 2.9560001 -1.803 10
4.9650002 3.095 -1.7970001 9
5.276 3.2520001 -1.794 12
5.6129999 3.424 -1.788 11
5.9879999 3.618 -1.7819999 11
6.4320002 3.8529999 -1.784 9
4.6570001 2.9200001 -1.803 10
4.9250002 3.0510001 -1.795 10
5.2389998 3.21 -1.795 11
5.585 3.3859999 -1.793 11
5.9390001 3.566 -1.783 10
6.349 3.779 -1.776 10
4.6290002 2.8840001 -1.804 10
4.901 3.017 -1.799 11
5.2069998 3.1689999 -1.796 12
5.5370002 3.335 -1.791 11
5.901 3.52 -1.785 10
6.3319998 3.743 -1.7869999 9
4.6059999 2.8510001 -1.8049999 10
4.8699999 2.977 -1.798 11
5.1810002 3.131 -1.799 12
5.4970002 3.2869999 -1.791 11
5.8590002 3.47 -1.786 10
6.2470002 3.6659999 -1.777 10
4.5760002 2.812 -1.803 10
4.8449998 2.941 -1.799 10
5.1430001 3.086 -1.796 11
5.4590001 3.2409999 -1.79 12
5.8210001 3.421 -1.7869999 10
6.2020001 3.612 -1.778 11
4.5549998 2.7780001 -1.804 11
4.8200002 2.9030001 -1.799 10
5.1170001 3.0469999 -1.798 10
5.4369998 3.2030001 -1.793 11
5.7849998 3.3740001 -1.788 11
6.171 3.566 -1.781 10
4.5370002 2.7460001 -1.8049999 10
4.7969999 2.8670001 -1.799 10
5.0929999 3.0079999 -1.798 10
5.4089999 3.1600001 -1.794 12
5.7579999 3.3299999 -1.79 10
6.132 3.5139999 -1.7819999 10
4.5190001 2.7119999 -1.8049999 9
4.7740002 2.829 -1.799 10
5.0710001 2.97 -1.799 10
5.3790002 3.1159999 -1.793 11
5.7270002 3.2839999 -1.79 11
6.1020002 3.467 -1.784 11
4.5 2.677 -1.804 10
4.756 2.7939999 -1.8 10
5.052 2.9330001 -1.801 12
5.362 3.0780001 -1.796 12
5.6900001 3.234 -1.788 11
6.0599999 3.4119999 -1.7819999 11
4.487 2.645 -1.8049999 9
4.7399998 2.7590001 -1.8 11
5.0339999 2.895 -1.801 11
5.3369999 3.036 -1.796 11
5.6760001 3.1960001 -1.7920001 11
6.0339999 3.365 -1.783 11
4.4850001 2.619 -1.8099999 10
4.7389998 2.7320001 -1.8049999 10
5.013 2.8559999 -1.8 11
5.3239999 3 -1.798 12
5.6539998 3.1530001 -1.793 12
6.0100002 3.319 -1.785 10
4.4780002 2.589 -1.811 10
4.7199998 2.694 -1.803 10
4.9980001 2.819 -1.801 11
5.3109999 2.9619999 -1.8 10
5.6350002 3.1099999 -1.794 12
5.9819999 3.27 -1.784 11
4.4559999 2.549 -1.806 10
4.7090001 2.6600001 -1.804 12
4.9840002 2.7820001 -1.8 12
5.2919998 2.921 -1.8 12
5.6170001 3.0680001 -1.794 13
5.9679999 3.2279999 -1.786 11
4.4489999 2.5190001 -1.807 9
4.7020001 2.628 -1.8049999 11
4.9689999 2.744 -1.799 11
5.2820001 2.8840001 -1.801 11
5.598 3.0250001 -1.793 12
5.948 3.1830001 -1.786 11
4.4450002 2.4890001 -1.808 11
4.6880002 2.5910001 -1.802 10
4.9710002 2.7149999 -1.804 11
5.2670002 2.845 -1.8 11
5.5749998 2.9779999 -1.791 13
5.9349999 3.1400001 -1.788 11
4.4460001 2.461 -1.8099999 10
4.6900001 2.563 -1.806 11
4.967 2.681 -1.8049999 11
5.2519999 2.8039999 -1.798 9
5.5809999 2.948 -1.7970001 11
5.9320002 3.102 -1.791 11
4.4390001 2.428 -1.809 10
4.6919999 2.5339999 -1.809 12
4.9559999 2.6440001 -1.803 11
5.2540002 2.7709999 -1.802 10
5.5710001 2.9070001 -1.7970001 12
5.9099998 3.053 -1.788 12
4.4359999 2.3970001 -1.809 10
4.6830001 2.4979999 -1.806 10
4.954 2.6099999 -1.804 11
5.2470002 2.733 -1.801 11
5.5650001 2.868 -1.7970001 12
5.8969998 3.0090001 -1.7869999 12
4.4400001 2.369 -1.811 10
4.6849999 2.4679999 -1.807 12
4.9510002 2.5769999 -1.804 11
5.2459998 2.6989999 -1.802 11
5.5510001 2.825 -1.795 13
5.8940001 2.97 -1.789 11
4.4429998 2.3410001 -1.811 10
4.6859999 2.437 -1.808 11
4.9559999 2.546 -1.806 11
5.244 2.6630001 -1.802 11
5.5619998 2.7939999 -1.799 12
5.902 2.9349999 -1.7920001 12
4.4460001 2.3110001 -1.812 10
4.6919999 2.408 -1.8099999 12
4.9510002 2.51 -1.804 11
5.243 2.6270001 -1.802 12
5.5640001 2.7579999 -1.8 11
5.8959999 2.8929999 -1.791 13
4.447 2.2809999 -1.811 10
4.7010002 2.3800001 -1.812 10
4.9640002 2.4820001 -1.808 11
5.2449999 2.592 -1.802 12
5.5469999 2.7119999 -1.794 13
5.901 2.855 -1.793 14
4.454 2.253 -1.812 10
4.6989999 2.346 -1.809 11
4.9629998 2.4460001 -1.806 11
5.2550001 2.5599999 -1.804 11
5.5570002 2.678 -1.7970001 13
5.8959999 2.812 -1.791 13
4.46 2.223 -1.811 11
4.7049999 2.3150001 -1.809 11
4.9689999 2.414 -1.806 11
5.2610002 2.527 -1.804 10
5.5689998 2.645 -1.799 13
5.9089999 2.7780001 -1.793 12
4.4679999 2.1949999 -1.811 10
4.7179999 2.2869999 -1.811 11
4.9860001 2.3870001 -1.809 11
5.2740002 2.4960001 -1.806 12
5.5819998 2.612 -1.8 11
5.9109998 2.7379999 -1.7920001 13
4.4780002 2.1659999 -1.812 10
4.73 2.2579999 -1.812 11
4.9920001 2.3540001 -1.808 11
5.29 2.4649999 -1.809 11
5.6020002 2.582 -1.804 12
5.927 2.704 -1.794 13
4.4920001 2.1400001 -1.813 10
4.7410002 2.2290001 -1.812 12
5.0089998 2.326 -1.8099999 13
5.2940001 2.4289999 -1.806 12
5.6079998 2.5450001 -1.802 12
5.9429998 2.6689999 -1.795 13
4.5089998 2.1140001 -1.8150001 10
4.7540002 2.2 -1.812 11
5.0170002 2.293 -1.808 12
5.3140001 2.4000001 -1.808 11
5.6209998 2.51 -1.802 11
5.948 2.6289999 -1.7920001 14
4.527 2.089 -1.816 11
4.7690001 2.171 -1.813 12
5.0349998 2.2639999 -1.8099999 12
5.3299999 2.368 -1.809 11
5.6440001 2.48 -1.804 12
5.973 2.5969999 -1.795 13
4.54 2.0599999 -1.816 10
4.7880001 2.1440001 -1.814 11
5.052 2.234 -1.8099999 11
5.3449998 2.335 -1.808 11
5.6700001 2.45 -1.807 12
6.0120001 2.5699999 -1.801 11
4.5560002 2.0320001 -1.8150001 11
4.8049998 2.115 -1.814 11
5.079 2.2079999 -1.813 12
5.3579998 2.3010001 -1.806 12
5.6880002 2.4159999 -1.806 11
6.0190001 2.53 -1.7970001 13
4.572 2.0039999 -1.814 10
4.8249998 2.0869999 -1.814 12
5.0929999 2.1760001 -1.811 12
5.3800001 2.2709999 -1.806 12
5.6999998 2.3789999 -1.803 13
6.0349998 2.4920001 -1.795 13
4.5939999 1.979 -1.8150001 10
4.8460002 2.0599999 -1.814 12
5.118 2.1489999 -1.812 13
5.4120002 2.2449999 -1.809 12
5.737 2.3529999 -1.807 12
6.0710001 2.4630001 -1.7970001 13
4.6199999 1.954 -1.817 11
4.8720002 2.0339999 -1.816 12
5.1399999 2.119 -1.812 11
5.4369998 2.214 -1.809 11
5.7649999 2.3210001 -1.808 11
6.085 2.424 -1.794 14
4.6399999 1.928 -1.817 10
4.8940001 2.006 -1.8150001 12
5.165 2.0899999 -1.812 12
5.4569998 2.1819999 -1.807 12
5.796 2.2909999 -1.808 12
6.131 2.398 -1.798 13
4.6620002 1.901 -1.816 10
4.9219999 1.98 -1.816 12
5.1960001 2.0639999 -1.813 12
5.4990001 2.158 -1.812 11
5.8330002 2.263 -1.8099999 11
6.1659999 2.3659999 -1.798 14
4.6890001 1.875 -1.817 11
4.948 1.9529999 -1.816 12
5.2249999 2.036 -1.813 12
5.5289998 2.128 -1.811 11
5.862 2.2309999 -1.809 12
6.1950002 2.332 -1.7970001 13
4.724 1.853 -1.8200001 11
4.98 1.927 -1.817 12
5.256 2.0079999 -1.813 12
5.5700002 2.102 -1.814 12
5.8839998 2.1949999 -1.8049999 13
6.2249999 2.2969999 -1.794 14
4.7509999 1.826 -1.819 11
5.0079999 1.899 -1.816 12
5.2870002 1.98 -1.813 13
5.605 2.0739999 -1.814 11
5.9330001 2.1700001 -1.808 11
6.2750001 2.27 -1.796 13
4.7880001 1.804 -1.822 11
5.0450001 1.875 -1.818 13
5.3249998 1.954 -1.814 12
5.6469998 2.0469999 -1.816 12
5.9759998 2.141 -1.809 11
6.3260002 2.2420001 -1.799 13
4.8200002 1.779 -1.822 11
5.0799999 1.849 -1.818 12
5.3569999 1.925 -1.813 12
5.6760001 2.0150001 -1.812 12
6.0089998 2.109 -1.806 13
6.3699999 2.211 -1.798 14
4.8499999 1.753 -1.821 11
5.1090002 1.821 -1.816 11
5.4070001 1.903 -1.817 11
5.7189999 1.988 -1.813 13
6.0619998 2.0829999 -1.808 13
6.4239998 2.1830001 -1.799 14
4.8930001 1.7309999 -1.824 12
5.1440001 1.795 -1.8150001 12
5.4419999 1.875 -1.8150001 12
5.7680001 1.9630001 -1.814 13
6.1090002 2.0550001 -1.808 12
6.4829998 2.1559999 -1.801 14
4.9239998 1.704 -1.821 10
5.191 1.772 -1.818 12
5.4970002 1.853 -1.819 12
5.8119998 1.9349999 -1.813 13
6.1690001 2.029 -1.8099999 12
6.539 2.1270001 -1.8 11
4.9660001 1.6799999 -1.823 11
5.2329998 1.747 -1.818 13
5.5339999 1.824 -1.816 12
5.869 1.91 -1.816 13
6.2090001 1.997 -1.807 12
6.5999999 2.098 -1.801 13
4.9959998 1.653 -1.819 11
5.2670002 1.719 -1.8150001 13
5.5869999 1.8 -1.818 13
5.9039998 1.878 -1.8099999 13
6.2729998 1.972 -1.809 13
6.6560001 2.069 -1.799 12
5.0430002 1.631 -1.821 11
5.3210001 1.697 -1.818 11
5.6389999 1.775 -1.819 13
5.9510002 1.85 -1.809 12
6.335 1.946 -1.809 12
6.7360001 2.046 -1.803 12
5.0869999 1.607 -1.8200001 11
5.3720002 1.673 -1.819 11
5.6919999 1.75 -1.819 12
6.0229998 1.829 -1.813 11
6.4089999 1.923 -1.812 14
6.802 2.017 -1.802 12
5.131 1.582 -1.8200001 11
5.427 1.651 -1.8200001 11
5.75 1.726 -1.8200001 12
6.0830002 1.803 -1.813 12
6.4629998 1.893 -1.809 13
6.8649998 1.987 -1.799 15
5.1859999 1.561 -1.822 11
5.4679999 1.623 -1.816 12
5.7969999 1.698 -1.817 13
6.1529999 1.78 -1.8150001 13
6.539 1.868 -1.8099999 13
6.9530001 1.9630001 -1.802 14
5.2309999 1.536 -1.821 11
5.5349998 1.603 -1.821 11
5.8699999 1.677 -1.821 13
6.2160001 1.753 -1.814 12
6.605 1.84 -1.808 14
7.0380001 1.938 -1.802 13
5.2870002 1.513 -1.822 10
5.5830002 1.576 -1.817 12
5.9289999 1.651 -1.8200001 13
6.289 1.729 -1.8150001 11
6.6820002 1.814 -1.808 14
7.132 1.914 -1.804 13
5.3449998 1.4910001 -1.822 11
5.6539998 1.5549999 -1.821 12
5.9879999 1.625 -1.817 11
6.3660002 1.705 -1.816 12
6.7690001 1.79 -1.809 14
7.2140002 1.885 -1.801 13
5.4050002 1.4680001 -1.823 10
5.7160001 1.531 -1.8200001 13
6.0580001 1.601 -1.817 12
6.4429998 1.6799999 -1.816 12
6.8569999 1.766 -1.8099999 13
7.3119998 1.8609999 -1.802 14
5.454 1.442 -1.819 11
5.7750001 1.506 -1.818 11
6.1350002 1.5779999 -1.819 12
6.5190001 1.655 -1.8150001 12
6.941 1.7410001 -1.809 14
7.4180002 1.837 -1.803 13
5.5120001 1.419 -1.818 12
5.8540001 1.485 -1.821 12
6.2179999 1.556 -1.8200001 12
6.6090002 1.632 -1.816 13
7.053 1.72 -1.813 13
7.5209999 1.812 -1.802 13
5.5939999 1.4 -1.824 12
5.927 1.4630001 -1.822 12
6.3000002 1.534 -1.821 12
6.684 1.605 -1.812 12
7.1490002 1.6950001 -1.812 13
7.6389999 1.789 -1.803 14
5.6599998 1.377 -1.822 11
5.9990001 1.439 -1.821 12
6.3860002 1.51 -1.821 12
6.7880001 1.5829999 -1.814 12
7.243 1.668 -1.809 14
7.7639999 1.765 -1.804 12
5.7360001 1.355 -1.824 12
6.0760002 1.415 -1.8200001 11
6.4699998 1.4859999 -1.8200001 13
6.882 1.559 -1.814 13
7.3600001 1.646 -1.811 14
7.8790002 1.74 -1.802 14
5.8119998 1.3329999 -1.824 10
6.1550002 1.392 -1.819 11
6.5580001 1.462 -1.819 12
6.9980001 1.539 -1.817 14
7.48 1.623 -1.811 14
8.0200005 1.7180001 -1.804 12
5.8959999 1.312 -1.826 12
6.2449999 1.37 -1.819 11
6.6560001 1.439 -1.819 13
7.1030002 1.515 -1.816 13
7.5900002 1.597 -1.808 13
8.1660004 1.696 -1.8049999 12
5.9770002 1.29 -1.825 12
6.3429999 1.349 -1.821 11
6.756 1.416 -1.819 12
7.2210002 1.493 -1.816 11
7.737 1.5779999 -1.812 12
8.302 1.6720001 -1.802 12
6.0669999 1.2690001 -1.827 11
6.4390001 1.327 -1.822 12
6.8540001 1.393 -1.817 13
7.3270001 1.4680001 -1.813 13
7.881 1.558 -1.814 11
8.4659996 1.652 -1.804 12
6.1500001 1.247 -1.825 12
6.5250001 1.303 -1.819 13
6.973 1.372 -1.819 12
7.46 1.447 -1.8150001 14
8.0139999 1.534 -1.811 11
8.6199999 1.628 -1.802 12
6.2470002 1.225 -1.826 11
6.6300001 1.281 -1.819 12
7.0970001 1.352 -1.821 13
7.598 1.426 -1.816 15
8.1689997 1.512 -1.812 12
8.7860003 1.605 -1.8 12
6.3530002 1.205 -1.8279999 11
6.7360001 1.2589999 -1.817 12
7.2220001 1.329 -1.821 13
7.743 1.405 -1.817 12
8.3179998 1.489 -1.809 12
8.9659996 1.5829999 -1.798 13
6.454 1.183 -1.8279999 12
6.8579998 1.238 -1.819 11
7.3499999 1.308 -1.821 13
7.9029999 1.385 -1.8200001 14
8.4680004 1.4630001 -1.8049999 11
9.1630001 1.562 -1.798 13
6.5679998 1.1619999 -1.829 12
6.973 1.215 -1.818 12
7.4850001 1.285 -1.819 14
8.0530005 1.362 -1.818 13
8.6529999 1.442 -1.8049999 12
9.3590002 1.539 -1.795 11
6.6620002 1.138 -1.824 12
7.1079998 1.1950001 -1.8200001 11
7.6300001 1.2640001 -1.8200001 13
8.2030001 1.3380001 -1.8150001 12
8.8240004 1.419 -1.801 12
9.5930004 1.52 -1.796 13
6.7919998 1.118 -1.827 13
7.2389998 1.173 -1.819 12
7.79 1.243 -1.821 13
8.3629999 1.314 -1.811 12
9.0299997 1.398 -1.802 12
9.8170004 1.498 -1.793 11
6.9109998 1.096 -1.825 12
7.3790002 1.152 -1.818 12
7.9489999 1.222 -1.821 12
8.5389996 1.2920001 -1.809 12
9.2320004 1.376 -1.799 12
10.077 1.4809999 -1.794 12
7.0450001 1.075 -1.826 12
7.5349998 1.132 -1.8200001 12
8.1000004 1.197 -1.816 11
8.7180004 1.2690001 -1.8049999 12
9.4700003 1.357 -1.8 11
10.34 1.461 -1.793 12
7.1789999 1.054 -1.825 11
7.7030001 1.112 -1.823 11
8.2709999 1.175 -1.814 11
8.9180002 1.247 -1.804 12
9.7069998 1.337 -1.799 11
10.627 1.442 -1.7920001 12
7.3280001 1.033 -1.826 12
7.8699999 1.091 -1.824 11
8.4549999 1.153 -1.813 12
9.1260004 1.226 -1.801 12
9.9659996 1.318 -1.798 12
10.914 1.421 -1.7869999 13
7.4809999 1.012 -1.826 13
8.0270004 1.068 -1.819 11
8.6490002 1.132 -1.811 12
9.3660002 1.206 -1.801 12
10.253 1.3 -1.799 12
11.223 1.401 -1.783 12
7.6339998 0.99000001 -1.824 13
8.198 1.045 -1.816 12
8.8409996 1.109 -1.807 12
9.6160002 1.186 -1.802 12
10.524 1.277 -1.794 12
11.548 1.38 -1.777 14
7.823 0.972 -1.829 11
8.3830004 1.023 -1.814 12
9.0629997 1.0880001 -1.806 12
9.8780003 1.166 -1.8 11
10.846 1.2589999 -1.795 13
11.896 1.36 -1.771 13
7.9860001 0.949 -1.825 13
8.5819998 1.002 -1.812 11
9.2950001 1.067 -1.804 12
10.168 1.147 -1.801 11
11.159 1.238 -1.789 13
12.279 1.34 -1.765 13
8.1829996 0.92900002 -1.826 12
8.7919998 0.98000002 -1.8099999 12
9.5600004 1.0470001 -1.8049999 12
10.476 1.128 -1.801 12
11.477 1.215 -1.78 12
12.677 1.3200001 -1.756 14
8.3529997 0.90399998 -1.819 12
9.0109997 0.958 -1.807 12
9.8339996 1.027 -1.804 11
10.775 1.1059999 -1.795 12
11.859 1.196 -1.777 13
13.12 1.3 -1.748 14
8.559 0.88300002 -1.817 12
9.2589998 0.93699998 -1.807 12
10.132 1.007 -1.804 12
11.118 1.085 -1.7920001 13
12.25 1.175 -1.77 13
13.585 1.281 -1.739 14
8.7849998 0.861 -1.817 11
9.507 0.91500002 -1.803 11
10.439 0.986 -1.802 12
11.452 1.062 -1.784 12
12.672 1.154 -1.763 13
14.118 1.263 -1.7309999 14
9.0100002 0.83899999 -1.813 12
9.809 0.89600003 -1.806 11
10.765 0.96399999 -1.799 12
11.859 1.043 -1.7819999 12
13.12 1.133 -1.7539999 14
14.689 1.245 -1.721 14
9.2679996 0.81800002 -1.813 12
10.1 0.87400001 -1.803 11
11.1 0.94199997 -1.794 12
12.237 1.0190001 -1.771 12
13.629 1.114 -1.747 14
15.341 1.2309999 -1.7130001 14
9.5380001 0.796 -1.812 11
10.424 0.85299999 -1.802 12
11.464 0.92000002 -1.788 12
12.69 0.99800003 -1.766 13
14.181 1.094 -1.739 13
16.056 1.215 -1.7029999 13
9.8369999 0.77499998 -1.812 12
10.747 0.82999998 -1.7970001 12
11.853 0.89700001 -1.7819999 11
13.168 0.977 -1.7589999 14
14.758 1.074 -1.726 14
16.912001 1.206 -1.699 10
10.133 0.75199997 -1.808 12
11.114 0.80800003 -1.794 12
12.283 0.875 -1.776 12
13.664 0.954 -1.747 14
15.444 1.057 -1.719 13
18.155001 1.217 -1.721 12
10.471 0.73100001 -1.808 11
11.476 0.78500003 -1.7869999 12
12.732 0.852 -1.768 13
14.253 0.93400002 -1.7410001 12
16.200001 1.04 -1.71 12
19.138 1.204 -1.706 13
10.807 0.708 -1.803 12
11.89 0.76200002 -1.7819999 12
13.209 0.82800001 -1.758 13
14.876 0.91299999 -1.7309999 14
17.125999 1.029 -1.709 11
20.063999 1.1799999 -1.6720001 14
11.183 0.685 -1.8 12
12.32 0.73799998 -1.775 11
13.752 0.80500001 -1.75 12
15.567 0.89200002 -1.722 13
18.167 1.018 -1.7079999 12
21.261999 1.166 -1.648 16
11.567 0.66100001 -1.793 11
12.786 0.71399999 -1.766 12
14.37 0.78399998 -1.744 13
16.344999 0.87199998 -1.711 10
19.246 1.003 -1.696 13
22.677 1.155 -1.625 18
11.984 0.63599998 -1.786 12
13.307 0.68900001 -1.758 12
15.038 0.76099998 -1.735 13
17.349001 0.85699999 -1.7130001 11
20.322001 0.98100001 -1.669 15
24.306999 1.146 -1.596 16
12.445 0.61199999 -1.78 12
13.873 0.66500002 -1.75 12
15.78 0.73799998 -1.726 12
18.389 0.83899999 -1.704 12
21.666 0.96399999 -1.649 17
25.98 1.1289999 -1.55 8
12.952 0.58700001 -1.773 12
14.499 0.63999999 -1.7410001 13
16.65 0.71600002 -1.72 11
19.496 0.81800002 -1.6900001 14
23.177 0.94800001 -1.625 19
28.105 1.12 -1.505 7
13.49 0.56099999 -1.7640001 12
15.187 0.61400002 -1.73 13
17.577 0.69300002 -1.709 11
20.655001 0.79299998 -1.664 15
24.813 0.92799997 -1.589 10
30.51 1.1109999 -1.45 7
14.091 0.53500003 -1.756 12
16 0.58999997 -1.725 12
18.673 0.671 -1.702 12
22.069 0.77100003 -1.642 18
26.861 0.912 -1.554 8
33.130001 1.094 -1.369 7
14.736 0.50700003 -1.744 12
16.881001 0.56400001 -1.715 10
19.818001 0.64399999 -1.682 14
23.747 0.75 -1.6210001 18
28.872 0.88499999 -1.492 7
36.176998 1.077 -1.272 4
15.49 0.48100001 -1.738 12
17.921 0.53899997 -1.709 12
21.138 0.61699998 -1.663 16
25.336 0.71700001 -1.572 11
31.360001 0.86199999 -1.426 6
41.106998 1.095 -1.189 1
16.341999 0.45300001 -1.7309999 12
19.051001 0.51099998 -1.698 13
22.650999 0.588 -1.6390001 18
27.483999 0.69099998 -1.531 7
34.456001 0.838 -1.347 6
46.140999 1.087 -1.0420001 12
17.294001 0.42399999 -1.721 11
20.191 0.47799999 -1.671 15
24.289 0.55599999 -1.605 14
29.917 0.66100001 -1.478 6
36.962002 0.78799999 -1.211 1
50.039001 1.03 -0.81 45
18.396 0.39300001 -1.7130001 12
21.620001 0.44600001 -1.652 17
26.172001 0.51999998 -1.562 8
32.623001 0.62400001 -1.403 6
44.240002 0.815 -1.1670001 4
53.063 0.94199997 -0.52100003 27
19.558001 0.361 -1.698 14
23.162001 0.41 -1.622 19
28.490999 0.484 -1.518 7
35.737999 0.58399999 -1.311 6
46.027 0.72100002 -0.92000002 3
53.254002 0.80000001 -0.182 51
20.843 0.32499999 -1.676 16
24.924 0.37099999 -1.586 11
30.983999 0.44100001 -1.454 7
0 0 0 0
51.035999 0.66299999 -0.69199997 25
53.134998 0.65899998 0.16 13
22.363001 0.28600001 -1.653 18
26.986 0.32800001 -1.541 8
33.741001 0.38999999 -1.363 6
44.224998 0.48500001 -1.048 4
50.040001 0.52200001 -0.35299999 4
51.492001 0.50800002 0.49399999 48
23.957001 0.242 -1.614 14
29.379 0.28099999 -1.487 7
36.935001 0.33199999 -1.249 6
49.820999 0.42199999 -0.85399997 68
56.841999 0.45199999 -0.026000001 47
51.848999 0.38600001 0.84100002 48
26.091999 0.197 -1.586 10
32.095001 0.226 -1.413 7
44.153999 0.289 -1.206 4
50.134998 0.30399999 -0.52999997 5
51.898998 0.289 0.31999999 15
52.071999 0.26699999 1.189 6
28.278 0.145 -1.5319999 7
35.122002 0.163 -1.314 6
45.942001 0.193 -0.95200002 2
57.901001 0.21799999 -0.23 24
51.758999 0.17299999 0.66100001 55
51.952 0.153 1.531 2
30.877001 0.086000003 -1.471 7
0 0 0 0
49.798 0.097999997 -0.699 61
58.783001 0.092 0.15899999 21
52.294998 0.061999999 1.0190001 15
96.864998 0.081 3.5120001 5
33.848 0.018999999 -1.386 6
45.862 0.0089999996 -1.11 19
0 0 0 0
52.987999 -0.024 0.493 18
53.011002 -0.041999999 1.3839999 2
81.350998 -0.089000002 3.4879999 33
36.960999 -0.056000002 -1.268 1
46.372002 -0.085000001 -0.81300002 42
58.790001 -0.126 -0.043000001 10
51.811001 -0.126 0.83200002 12
106.822 -0.29100001 3.5139999 36
93.093002 -0.278 4.631 19
44.011002 -0.155 -1.2130001 6
46.729 -0.178 -0.50099999 2
58.699001 -0.23800001 0.354 16
53.132999 -0.228 1.215 2
81.250999 -0.368 3.224 11
107.456 -0.50999999 6.0780001 24
46.155998 -0.25 -0.96200001 41
60.006001 -0.33899999 -0.242 41
61.998001 -0.36300001 0.79299998 12
97.102997 -0.58700001 2.8789999 7
93.335999 -0.58099997 4.3439999 23
82.806 -0.52999997 5.2550001 49
46.564999 -0.33500001 -0.65600002 32
61.220001 -0.45100001 0.164 3
61.977001 -0.46599999 1.211 14
81.347 -0.62400001 2.9630001 11
93.588997 -0.73100001 4.9970002 6
80.848999 -0.64099997 5.6849999 13
46.448002 -0.412 -0.34 41
111.517 -1.003 1.062 22
46.401001 -0.42199999 1.223 13
46.317001 -0.42500001 2.0039999 46
46.273998 -0.42899999 2.7869999 47
46.221001 -0.43200001 3.572 37
46.419998 -0.48500001 -0.018999999 63
46.466999 -0.48800001 0.76099998 20
46.332001 -0.48899999 1.54 47
46.292 -0.491 2.323 58
46.210999 -0.491 3.1029999 50
46.18 -0.49200001 3.888 51
46.402 -0.551 0.292 58
46.356998 -0.55199999 1.077 47
46.355 -0.551 1.857 48
46.278 -0.551 2.642 42
46.208 -0.54900002 3.4260001 44
46.157001 -0.54699999 4.211 46
46.362999 -0.61299998 0.61199999 51
46.356998 -0.611 1.393 41
82.564003 -1.084 3.878 24
80.165001 -1.048 5.1300001 31
46.185001 -0.60100001 3.744 20
46.129002 -0.597 4.5310001 59
46.346001 -0.66900003 0.93000001 47
81.872002 -1.175 3.0250001 40
80.803001 -1.152 4.3590002 31
83.449997 -1.181 5.9250002 15
46.220001 -0.64899999 4.0710001 6
46.152 -0.64200002 4.8590002 55
46.395 -0.72100002 1.249 47
82.422997 -1.27 3.6159999 43
80.448997 -1.227 4.895 44
0 0 0 0
46.131001 -0.69 4.3870001 2
46.108002 -0.68099999 5.178 76
81.960999 -1.355 2.7690001 32
81.137001 -1.327 4.119 29
0 0 0 0
67.933998 -1.084 5.7680001 4
46.213001 -0.727 4.717 12
46.130001 -0.71600002 5.507 59
81.391998 -1.4170001 3.3099999 11
81.120003 -1.393 4.6789999 20
0 0 0 0
66.431 -1.109 6.1110001 24
46.099998 -0.75700003 5.0370002 38
46.054001 -0.74400002 5.8309999 46
81.218002 -1.477 3.8710001 19
81.374001 -1.457 5.2649999 4
0 0 0 0
46.137001 -0.79799998 4.5669999 2
46.124001 -0.78399998 5.3629999 60
46.178001 -0.76999998 6.1739998 62
81.529999 -1.5369999 4.4530001 8
81.348999 -1.506 5.8319998 21
66.443001 -1.2079999 5.9039998 19
46.083 -0.82099998 4.888 6
46.063 -0.80400002 5.6869998 60
43.402 -0.741 6.1170001 13
81.449997 -1.58 5.0209999 15
82.539001 -1.5700001 6.5 21
66.099998 -1.2309999 6.3429999 34
46.181999 -0.84100002 5.2309999 39
46.049999 -0.81999999 6.0170002 76
43.312 -0.75300002 6.4190001 50
81.330002 -1.614 5.585 45
82.657997 -1.604 7.0929999 21
46.174999 -0.87599999 4.7589998 3
46.178001 -0.85500002 5.559 10
43.416 -0.78299999 5.9860001 3
43.365002 -0.76200002 6.7410002 33
82.627998 -1.665 6.2490001 13
66.292999 -1.304 6.1529999 31
46.122002 -0.884 5.0760002 8
46.002998 -0.85900003 5.8649998 64
43.361 -0.787 6.2870002 51
44.597 -0.787 7.257 65
81.07 -1.651 6.6999998 4
66.064003 -1.3099999 6.5970001 43
46.117001 -0.88999999 5.4050002 12
46.167999 -0.86500001 6.2160001 77
43.304001 -0.787 6.5929999 57
44.208 -0.778 7.5180001 58
66.276001 -1.3559999 5.9460001 26
65.908997 -1.3099999 7.0510001 51
45.974998 -0.88700002 5.7179999 26
43.397999 -0.81099999 6.158 13
44.606998 -0.80599999 7.1170001 62
44.131001 -0.76899999 7.8280001 65
66.182999 -1.353 6.4000001 46
46.186001 -0.91500002 5.2670002 43
46.200001 -0.88599998 6.0749998 69
43.325001 -0.80199999 6.4590001 60
44.544998 -0.79500002 7.4320002 49
43.837002 -0.75199997 8.099 70
65.999001 -1.341 6.8499999 42
45.938 -0.90200001 5.5669999 2
45.889 -0.87 6.3639998 76
43.637001 -0.796 6.822 59
44.133999 -0.773 7.684 68
43.887001 -0.73699999 8.4309998 71
46.198002 -0.92699999 5.1230001 22
46.077999 -0.89099997 5.9109998 76
43.353001 -0.80599999 6.3200002 50
44.709 -0.79799998 7.3150001 56
44.096001 -0.75300002 8.0010004 71
44.299999 -0.72100002 8.8389997 64
46.168999 -0.91100001 5.4450002 8
46.169998 -0.875 6.2509999 77
43.306999 -0.78600001 6.6259999 47
44.146 -0.76599997 7.5370002 53
43.682999 -0.72100002 8.243 62
44.094002 -0.69099998 9.1210003 74
46.002998 -0.88599998 5.75 33
43.381001 -0.80000001 6.1810002 17
44.598 -0.78500003 7.1430001 72
44.035999 -0.73699999 7.8369999 59
44.016998 -0.69800001 8.6280003 72
0 0 0 0
46.230999 -0.86299998 6.105 53
43.282001 -0.77100003 6.473 65
44.535999 -0.75300002 7.4510002 73
43.743 -0.69999999 8.1040001 68
43.986 -0.66299999 8.9469995 72
45.418999 -0.64099997 10.071 23
43.407001 -0.78100002 6.0409999 8
43.591999 -0.74299997 6.8340001 54
44.014999 -0.70899999 7.6820002 66
43.755001 -0.66299999 8.4239998 65
44.396 -0.63 9.3559999 38
45.272999 -0.59600002 10.375 1
43.362 -0.74599999 6.3410001 59
44.609001 -0.72399998 7.309 73
43.813999 -0.667 7.9619999 57
44.171001 -0.62699997 8.8249998 68
45.511002 -0.59899998 9.9250002 58
0 0 0 0
43.279999 -0.70499998 6.6329999 47
44.286999 -0.676 7.5739999 73
43.57 -0.62 8.2309999 59
44.441002 -0.58399999 9.2019997 54
0 0 0 0
0 0 0 0
44.625999 -0.68199998 7.1539998 72
43.915001 -0.62400001 7.8189998 58
43.873001 -0.57499999 8.6020002 72
0 0 0 0
0 0 0 0
0 0 0 0
44.604 -0.63099998 7.461 73
43.694 -0.56900001 8.0889997 67
44.146 -0.52399999 8.9689999 73
45.966999 -0.49200001 10.183 12
0 0 0 0
0 0 0 0
43.995998 -0.56900001 7.6700001 69
43.611 -0.51300001 8.382 70
0 0 0 0
0 0 0 0
0 0 0 0
0 0 0 0
43.758999 -0.50800002 7.9330001 58
44.174 -0.458 8.8030005 59
46.054001 -0.41999999 10.019 53
0 0 0 0
0 0 0 0
0 0 0 0
43.726002 -0.44400001 8.2349997 62
44.362 -0.39300001 9.1560001 72
46.634998 -0.35299999 10.477 2
0 0 0 0
0 0 0 0
0 0 0 0
44.256001 -0.38 8.6440001 64
0 0 0 0
0 0 0 0
0 0 0 0
0 0 0 0
0 0 0 0
44.345001 -0.308 8.9729996 54
45.994999 -0.255 10.145 24
0 0 0 0
0 0 0 0
0 0 0 0
0 0 0 0
44.806 -0.23199999 9.3809996 69
0 0 0 0
0 0 0 0
0 0 0 0
0 0 0 0
0 0 0 0
45.195999 -0.148 9.7790003 56
0 0 0 0
0 0 0 0
0 0 0 0
0 0 0 0
0 0 0 0
45.105999 -0.057999998 10.074 29
0 0 0 0
0 0 0 0
0 0 0 0
0 0 0 0
0 0 0 0
0 0 0 0
0 0 0 0
0 0 0 0
0 0 0 0
0 0 0 0
0 0 0 0
0 0 0 0
0 0 0 0
