# .PCD v0.7 - Point Cloud Data file format
VERSION 0.7
FIELDS x y z intensity
SIZE 4 4 4 4
TYPE F F F F
COUNT 1 1 1 1
WIDTH 1732
HEIGHT 1
VIEWPOINT 0 0 0 1 0 0 0
POINTS 1732
DATA ascii
15.921 -0.32300001 -1.7359999 9
18.034 -0.36300001 -1.701 12
20.705999 -0.41299999 -1.65 15
24.069 -0.47600001 -1.568 9
12.229 -0.28 -1.779 10
13.472 -0.30599999 -1.7589999 10
15.049 -0.33899999 -1.742 10
17.034 -0.38100001 -1.721 10
19.409 -0.43000001 -1.676 13
22.458 -0.49399999 -1.613 17
11.733 -0.29699999 -1.786 10
12.869 -0.32300001 -1.766 10
14.331 -0.35699999 -1.7539999 10
16.07 -0.39700001 -1.73 9
18.218 -0.44600001 -1.694 12
20.936001 -0.509 -1.642 15
11.282 -0.31400001 -1.794 11
12.316 -0.34 -1.774 10
13.635 -0.373 -1.761 10
15.248 -0.414 -1.743 10
17.240999 -0.465 -1.7180001 11
19.631001 -0.52499998 -1.669 14
10.877 -0.33199999 -1.803 10
11.829 -0.35800001 -1.783 10
13.025 -0.391 -1.7690001 10
14.497 -0.43200001 -1.7539999 11
16.305 -0.48199999 -1.733 9
18.452999 -0.54100001 -1.691 12
10.492 -0.34900001 -1.8099999 11
11.364 -0.375 -1.79 10
12.471 -0.40799999 -1.777 10
13.799 -0.44800001 -1.762 11
15.434 -0.49700001 -1.742 9
17.444 -0.55699998 -1.7130001 11
10.132 -0.366 -1.816 11
10.959 -0.39300001 -1.798 11
11.94 -0.42399999 -1.78 12
13.182 -0.465 -1.768 11
14.658 -0.51300001 -1.75 11
16.521 -0.57300001 -1.729 10
9.8009996 -0.38299999 -1.822 12
10.58 -0.41 -1.807 11
11.509 -0.44299999 -1.7920001 11
12.63 -0.48199999 -1.777 11
13.969 -0.52899998 -1.758 11
15.625 -0.58700001 -1.7359999 11
9.5030003 -0.40099999 -1.83 11
10.226 -0.428 -1.813 11
11.094 -0.46000001 -1.799 11
12.115 -0.49900001 -1.784 11
13.361 -0.546 -1.768 11
14.881 -0.60399997 -1.75 11
9.191 -0.417 -1.831 11
9.8839998 -0.44499999 -1.818 11
10.706 -0.47799999 -1.807 11
11.653 -0.51700002 -1.7920001 11
12.791 -0.56300002 -1.776 11
14.17 -0.61900002 -1.758 11
8.915 -0.435 -1.836 11
9.5810003 -0.463 -1.825 11
10.353 -0.49599999 -1.814 11
11.219 -0.53299999 -1.7970001 11
12.26 -0.579 -1.78 10
13.541 -0.63499999 -1.766 11
8.6520004 -0.45100001 -1.839 10
9.2889996 -0.47999999 -1.83 11
10.005 -0.514 -1.819 12
10.829 -0.55199999 -1.8049999 12
11.798 -0.59600002 -1.789 11
12.962 -0.64999998 -1.773 10
8.427 -0.46900001 -1.846 12
9.0050001 -0.49700001 -1.8329999 11
9.6940002 -0.53100002 -1.825 12
10.48 -0.56999999 -1.813 12
11.351 -0.61299998 -1.793 11
12.445 -0.667 -1.781 11
8.1859999 -0.486 -1.847 11
8.7370005 -0.514 -1.835 11
9.3950005 -0.54900002 -1.829 12
10.149 -0.588 -1.821 13
10.988 -0.63200003 -1.8049999 12
11.984 -0.68400002 -1.789 11
7.961 -0.50199997 -1.848 10
8.4969997 -0.53200001 -1.839 12
9.1300001 -0.56699997 -1.835 11
9.8260002 -0.60500002 -1.824 12
10.621 -0.64899999 -1.8099999 12
11.536 -0.69999999 -1.794 11
7.7719998 -0.51999998 -1.854 10
8.2700005 -0.54900002 -1.8430001 11
8.8540001 -0.583 -1.836 10
9.5439997 -0.62300003 -1.831 12
10.284 -0.667 -1.817 12
11.146 -0.71799999 -1.802 12
7.5819998 -0.537 -1.857 10
8.052 -0.56599998 -1.846 10
8.6219997 -0.60100001 -1.842 12
9.2609997 -0.64099997 -1.835 12
9.9720001 -0.685 -1.823 13
10.769 -0.73500001 -1.807 12
7.3769999 -0.55299997 -1.854 11
7.8530002 -0.58399999 -1.85 10
8.3959999 -0.61900002 -1.845 12
8.9949999 -0.65799999 -1.8380001 11
9.6709995 -0.70300001 -1.827 12
10.441 -0.75300002 -1.8150001 12
7.2350001 -0.57200003 -1.865 10
7.6669998 -0.60100001 -1.854 10
8.1759996 -0.63599998 -1.848 11
8.75 -0.676 -1.842 12
9.4029999 -0.72100002 -1.834 12
10.112 -0.76999998 -1.819 12
7.0190001 -0.58499998 -1.854 11
7.493 -0.61900002 -1.859 10
7.967 -0.653 -1.85 10
8.5209999 -0.69400001 -1.845 12
9.1370001 -0.73799998 -1.837 11
9.8179998 -0.78799999 -1.824 12
6.875 -0.60299999 -1.859 11
7.3179998 -0.63700002 -1.8609999 10
7.7810001 -0.67199999 -1.854 10
8.2930002 -0.70999998 -1.846 11
8.8920002 -0.75599998 -1.841 12
9.5530005 -0.80699998 -1.831 13
6.7140002 -0.61900002 -1.857 10
7.1129999 -0.64999998 -1.852 11
7.5970001 -0.68900001 -1.857 10
8.092 -0.72799999 -1.85 11
8.6549997 -0.77399999 -1.844 12
9.2840004 -0.824 -1.834 13
6.5819998 -0.63700002 -1.8609999 11
6.9549999 -0.667 -1.853 10
7.4239998 -0.70700002 -1.859 12
7.9070001 -0.74699998 -1.855 11
8.4440002 -0.792 -1.848 11
9.0500002 -0.84299999 -1.841 12
6.4369998 -0.653 -1.86 11
6.8060002 -0.685 -1.855 11
7.2659998 -0.72500002 -1.863 10
7.7290001 -0.76599997 -1.859 11
8.2220001 -0.80900002 -1.848 11
8.8109999 -0.861 -1.844 12
6.3049998 -0.67000002 -1.8609999 11
6.664 -0.70200002 -1.857 12
7.0669999 -0.73900002 -1.854 12
7.5510001 -0.78299999 -1.86 10
8.0360003 -0.82800001 -1.853 10
8.585 -0.87900001 -1.846 11
6.1849999 -0.68699998 -1.864 10
6.5380001 -0.72000003 -1.862 11
6.9289999 -0.75800002 -1.859 12
7.3870001 -0.80199999 -1.863 10
7.8460002 -0.84600002 -1.854 10
8.3850002 -0.898 -1.851 12
6.0640001 -0.704 -1.864 11
6.3979998 -0.73699999 -1.86 11
6.7810001 -0.77499998 -1.86 12
7.2030001 -0.81699997 -1.859 11
7.6950002 -0.866 -1.863 11
8.1890001 -0.91600001 -1.853 11
5.9510002 -0.72100002 -1.865 11
6.2670002 -0.75300002 -1.859 12
6.6370001 -0.79100001 -1.859 12
7.0430002 -0.833 -1.858 12
7.5029998 -0.88099998 -1.858 12
7.993 -0.93300003 -1.853 10
5.8460002 -0.73799998 -1.867 10
6.1609998 -0.77200001 -1.863 11
6.5149999 -0.81 -1.862 12
6.9060001 -0.852 -1.86 12
7.348 -0.89999998 -1.8609999 11
7.829 -0.95200002 -1.858 11
5.7350001 -0.755 -1.865 10
6.0489998 -0.78899997 -1.864 12
6.3889999 -0.82700002 -1.862 11
6.7670002 -0.86900002 -1.8609999 12
7.1939998 -0.917 -1.8609999 12
7.6339998 -0.96700001 -1.853 11
5.6269999 -0.76999998 -1.863 11
5.9369998 -0.80599999 -1.864 12
6.2729998 -0.84500003 -1.864 13
6.631 -0.88599998 -1.86 12
7.0359998 -0.93300003 -1.859 12
7.4790001 -0.986 -1.8559999 12
5.5419998 -0.78899997 -1.867 11
5.8299999 -0.82300001 -1.864 13
6.1620002 -0.86199999 -1.865 14
6.513 -0.90499997 -1.863 13
6.8969998 -0.95099998 -1.859 12
7.3260002 -1.003 -1.8559999 11
5.4510002 -0.80599999 -1.868 11
5.7249999 -0.83899999 -1.862 13
6.0580001 -0.88099998 -1.867 13
6.3920002 -0.92199999 -1.863 12
6.7729998 -0.97000003 -1.862 13
7.2030001 -1.024 -1.863 12
5.3670001 -0.82300001 -1.869 11
5.6370001 -0.85699999 -1.865 12
5.9590001 -0.89899999 -1.869 12
6.2870002 -0.94099998 -1.8660001 12
6.6469998 -0.98799998 -1.862 13
7.0419998 -1.039 -1.858 12
5.289 -0.84100002 -1.872 11
5.5469999 -0.875 -1.8660001 12
5.8590002 -0.91600001 -1.869 13
6.1750002 -0.958 -1.865 13
6.5310001 -1.006 -1.864 12
6.908 -1.057 -1.858 12
5.198 -0.85699999 -1.869 10
5.4619999 -0.89300001 -1.867 12
5.7589998 -0.93300003 -1.868 13
6.072 -0.977 -1.8660001 13
6.4169998 -1.025 -1.864 12
6.7789998 -1.075 -1.857 12
5.1269999 -0.875 -1.872 11
5.3839998 -0.91100001 -1.87 11
5.6609998 -0.94999999 -1.867 13
5.973 -0.995 -1.867 13
6.3080001 -1.043 -1.865 13
6.6739998 -1.096 -1.862 13
5.0570002 -0.89300001 -1.874 11
5.3070002 -0.92900002 -1.8710001 12
5.5819998 -0.96899998 -1.87 12
5.8790002 -1.013 -1.868 12
6.204 -1.061 -1.865 12
6.5619998 -1.115 -1.863 12
4.987 -0.91100001 -1.876 11
5.2290001 -0.94700003 -1.872 12
5.4970002 -0.98699999 -1.87 13
5.7940001 -1.0319999 -1.87 13
6.1030002 -1.079 -1.865 12
6.4549999 -1.133 -1.864 11
4.9159999 -0.92799997 -1.875 10
5.1659999 -0.96700001 -1.876 11
5.4239998 -1.006 -1.872 12
5.71 -1.05 -1.8710001 12
6.007 -1.097 -1.865 12
6.349 -1.152 -1.864 12
4.8520002 -0.94599998 -1.876 10
5.0910001 -0.98299998 -1.875 11
5.3449998 -1.024 -1.872 12
5.619 -1.068 -1.869 12
5.8959999 -1.112 -1.859 13
6.2340002 -1.168 -1.86 13
4.7779999 -0.96200001 -1.873 9
5.027 -1.002 -1.878 13
5.2810001 -1.044 -1.877 11
5.546 -1.0880001 -1.872 13
5.8330002 -1.135 -1.867 11
6.151 -1.189 -1.863 12
4.7199998 -0.98000002 -1.875 10
4.961 -1.02 -1.878 12
5.21 -1.062 -1.877 11
5.4650002 -1.105 -1.8710001 12
5.757 -1.155 -1.869 11
6.0640001 -1.209 -1.865 12
4.664 -0.99800003 -1.877 10
4.8930001 -1.0369999 -1.877 11
5.1420002 -1.081 -1.877 11
5.401 -1.126 -1.875 11
5.6869998 -1.177 -1.873 12
5.9770002 -1.228 -1.865 12
4.6100001 -1.016 -1.878 10
4.8299999 -1.0549999 -1.876 11
5.0760002 -1.099 -1.877 12
5.329 -1.1440001 -1.874 11
5.6020002 -1.194 -1.87 12
5.8959999 -1.248 -1.865 12
4.5640001 -1.036 -1.882 10
4.7800002 -1.075 -1.88 12
5.0170002 -1.118 -1.8789999 12
5.263 -1.163 -1.875 11
5.533 -1.2130001 -1.872 12
5.836 -1.271 -1.872 13
4.5120001 -1.054 -1.883 10
4.723 -1.0930001 -1.88 12
4.954 -1.136 -1.878 11
5.2049999 -1.184 -1.878 12
5.4640002 -1.233 -1.873 13
5.724 -1.283 -1.86 12
4.46 -1.072 -1.883 10
4.6630001 -1.11 -1.878 12
4.8990002 -1.155 -1.88 12
5.1469998 -1.204 -1.8789999 12
5.3920002 -1.251 -1.8710001 12
5.6810002 -1.309 -1.87 12
4.415 -1.091 -1.885 10
4.618 -1.13 -1.881 11
4.8470001 -1.175 -1.881 12
5.0879998 -1.223 -1.88 11
5.3390002 -1.273 -1.875 12
5.618 -1.33 -1.872 12
4.369 -1.109 -1.886 11
4.5679998 -1.148 -1.882 11
4.79 -1.193 -1.881 12
5.027 -1.2410001 -1.8789999 12
5.27 -1.291 -1.872 11
5.552 -1.35 -1.872 12
4.3200002 -1.126 -1.885 10
4.5219998 -1.1670001 -1.883 11
4.7350001 -1.21 -1.8789999 12
4.9699998 -1.26 -1.878 11
5.2220001 -1.313 -1.876 11
5.4959998 -1.3710001 -1.874 12
4.2880001 -1.147 -1.89 10
4.4809999 -1.186 -1.885 11
4.6880002 -1.229 -1.88 12
4.9250002 -1.28 -1.881 12
5.1719999 -1.334 -1.8789999 12
5.4310002 -1.39 -1.873 11
4.2379999 -1.163 -1.887 10
4.4359999 -1.205 -1.885 10
4.6490002 -1.251 -1.8839999 11
4.8759999 -1.301 -1.882 12
5.118 -1.354 -1.8789999 12
5.3769999 -1.4119999 -1.875 11
4.1960001 -1.181 -1.887 9
4.3940001 -1.224 -1.886 10
4.6020002 -1.27 -1.8839999 11
4.829 -1.321 -1.883 11
5.072 -1.375 -1.881 12
5.3210001 -1.432 -1.875 11
4.1609998 -1.2 -1.8890001 10
4.3569999 -1.244 -1.8890001 11
4.5539999 -1.2869999 -1.882 11
4.7800002 -1.339 -1.881 12
5.02 -1.395 -1.88 12
5.2750001 -1.455 -1.877 11
4.1259999 -1.219 -1.891 9
4.316 -1.262 -1.888 11
4.52 -1.309 -1.885 11
4.7389998 -1.36 -1.883 11
4.9770002 -1.416 -1.882 13
5.2290001 -1.477 -1.8789999 11
4.0879998 -1.237 -1.89 9
4.2779999 -1.281 -1.888 10
4.4829998 -1.329 -1.887 11
4.7010002 -1.381 -1.885 11
4.9310002 -1.436 -1.881 11
5.1799998 -1.497 -1.878 12
4.052 -1.255 -1.8890001 9
4.2449999 -1.3 -1.89 10
4.4450002 -1.348 -1.887 11
4.658 -1.4 -1.8839999 10
4.8920002 -1.4579999 -1.883 12
5.1409998 -1.52 -1.881 12
4.0229998 -1.274 -1.892 10
4.211 -1.3200001 -1.891 11
4.4159999 -1.37 -1.891 10
4.619 -1.42 -1.885 11
4.855 -1.48 -1.885 12
5.099 -1.5420001 -1.882 12
3.9879999 -1.2920001 -1.891 10
4.178 -1.339 -1.891 10
4.381 -1.39 -1.891 10
4.585 -1.441 -1.886 11
4.823 -1.503 -1.888 11
5.0599999 -1.564 -1.883 11
3.954 -1.3099999 -1.89 9
4.1479998 -1.359 -1.892 11
4.348 -1.41 -1.891 10
4.552 -1.462 -1.887 11
4.7779999 -1.521 -1.885 12
5.0219998 -1.586 -1.883 11
3.927 -1.329 -1.891 9
4.1160002 -1.377 -1.891 10
4.3150001 -1.429 -1.891 12
4.513 -1.4809999 -1.885 11
4.744 -1.5420001 -1.885 11
4.9829998 -1.607 -1.882 12
3.895 -1.346 -1.8890001 9
4.0910001 -1.398 -1.893 10
4.283 -1.448 -1.891 12
4.4829998 -1.502 -1.886 10
4.7150002 -1.5650001 -1.887 11
4.954 -1.631 -1.885 11
3.8729999 -1.3660001 -1.891 9
4.0650001 -1.418 -1.895 11
4.2550001 -1.4680001 -1.891 12
4.454 -1.523 -1.886 11
4.6820002 -1.586 -1.887 11
4.9229999 -1.654 -1.886 11
3.8469999 -1.385 -1.892 9
4.0430002 -1.439 -1.897 11
4.237 -1.492 -1.896 11
4.4289999 -1.544 -1.888 11
4.6560001 -1.608 -1.888 11
4.8969998 -1.678 -1.888 11
3.825 -1.405 -1.893 9
4.013 -1.457 -1.895 10
4.2160001 -1.5140001 -1.898 11
4.4070001 -1.567 -1.89 11
4.6230001 -1.6289999 -1.887 11
4.8660002 -1.7 -1.888 11
3.7980001 -1.4220001 -1.891 9
3.9909999 -1.477 -1.896 9
4.1880002 -1.533 -1.897 10
4.3839998 -1.589 -1.891 11
4.599 -1.651 -1.888 10
4.8390002 -1.723 -1.888 11
3.776 -1.441 -1.891 9
3.97 -1.497 -1.897 10
4.165 -1.554 -1.897 11
4.362 -1.6109999 -1.892 10
4.5799999 -1.676 -1.89 11
4.8169999 -1.747 -1.89 11
3.763 -1.4630001 -1.895 9
3.9449999 -1.516 -1.896 10
4.1430001 -1.574 -1.897 10
4.3410001 -1.633 -1.893 10
4.5560002 -1.697 -1.89 10
4.79 -1.7690001 -1.8890001 11
3.74 -1.4809999 -1.8940001 9
3.931 -1.538 -1.898 10
4.1220002 -1.595 -1.897 11
4.3189998 -1.654 -1.893 10
4.5310001 -1.719 -1.8890001 11
4.7729998 -1.794 -1.891 11
3.7260001 -1.502 -1.896 8
3.9100001 -1.557 -1.898 11
4.1079998 -1.617 -1.9 11
4.2989998 -1.675 -1.893 10
4.5180001 -1.744 -1.892 10
4.7470002 -1.816 -1.8890001 10
3.7090001 -1.521 -1.897 9
3.895 -1.5779999 -1.899 10
4.0869999 -1.637 -1.898 11
4.2839999 -1.698 -1.8940001 10
4.4980001 -1.766 -1.892 10
4.744 -1.846 -1.896 11
3.6949999 -1.541 -1.898 9
3.8800001 -1.599 -1.9 9
4.073 -1.659 -1.9 10
4.27 -1.721 -1.895 10
4.4889998 -1.7920001 -1.895 10
4.7150002 -1.865 -1.891 10
3.6800001 -1.561 -1.898 9
3.8670001 -1.62 -1.901 10
4.0570002 -1.6799999 -1.899 11
4.2519999 -1.742 -1.895 10
4.4679999 -1.813 -1.893 11
4.7090001 -1.893 -1.8940001 11
3.6659999 -1.58 -1.898 9
3.8529999 -1.64 -1.901 10
4.0489998 -1.7029999 -1.902 10
4.237 -1.763 -1.8940001 10
4.4580002 -1.837 -1.8940001 11
4.691 -1.915 -1.893 9
3.658 -1.601 -1.9 9
3.8380001 -1.659 -1.9 10
4.0250001 -1.719 -1.897 10
4.2309999 -1.788 -1.897 10
4.448 -1.8609999 -1.895 11
4.6789999 -1.9400001 -1.893 9
3.6489999 -1.622 -1.902 9
3.8299999 -1.681 -1.902 10
4.0190001 -1.743 -1.9 10
4.2220001 -1.811 -1.898 10
4.4380002 -1.885 -1.896 10
4.6799998 -1.969 -1.898 10
3.6389999 -1.642 -1.902 9
3.822 -1.702 -1.903 9
4.0159998 -1.768 -1.903 10
4.2090001 -1.832 -1.897 10
4.4239998 -1.906 -1.8940001 10
4.6659999 -1.992 -1.895 10
3.6210001 -1.658 -1.898 9
3.8150001 -1.724 -1.904 10
4.0089998 -1.79 -1.904 10
4.2080002 -1.858 -1.9 11
4.4239998 -1.934 -1.897 10
4.6669998 -2.0209999 -1.899 11
3.6159999 -1.6799999 -1.899 9
3.8110001 -1.747 -1.906 9
4 -1.811 -1.903 9
4.1960001 -1.8789999 -1.898 10
4.4190001 -1.959 -1.898 11
4.6589999 -2.0450001 -1.898 10
3.6170001 -1.7029999 -1.904 9
3.799 -1.766 -1.903 10
3.9990001 -1.836 -1.905 9
4.1999998 -1.906 -1.902 10
4.4089999 -1.98 -1.895 10
4.6560001 -2.0710001 -1.898 10
3.6099999 -1.723 -1.903 9
3.7950001 -1.7869999 -1.904 10
3.9920001 -1.8559999 -1.904 10
4.197 -1.9299999 -1.902 10
4.415 -2.0090001 -1.899 11
4.6539998 -2.098 -1.898 10
3.6070001 -1.744 -1.904 9
3.7920001 -1.809 -1.904 10
3.993 -1.88 -1.906 10
4.1929998 -1.952 -1.901 9
4.4239998 -2.0380001 -1.903 10
4.6539998 -2.1240001 -1.898 11
3.595 -1.76 -1.899 8
3.7920001 -1.831 -1.906 10
3.987 -1.902 -1.904 10
4.1960001 -1.978 -1.903 9
4.414 -2.059 -1.899 10
4.6659999 -2.155 -1.902 10
3.5940001 -1.781 -1.9 9
3.79 -1.853 -1.905 9
3.994 -1.928 -1.908 10
4.1939998 -2 -1.901 10
4.4229999 -2.0880001 -1.902 10
4.6479998 -2.1719999 -1.8940001 9
3.5969999 -1.803 -1.902 9
3.793 -1.875 -1.9069999 10
3.9909999 -1.949 -1.906 8
4.1919999 -2.023 -1.9 10
4.4229999 -2.112 -1.901 9
4.678 -2.211 -1.903 10
3.6029999 -1.826 -1.905 9
3.7980001 -1.899 -1.908 10
3.9979999 -1.973 -1.9069999 9
4.204 -2.0510001 -1.903 9
4.4359999 -2.141 -1.903 10
4.6849999 -2.2390001 -1.903 10
3.608 -1.849 -1.9069999 9
3.799 -1.92 -1.9069999 10
4 -1.995 -1.9069999 10
4.2080002 -2.0739999 -1.902 9
4.4439998 -2.1670001 -1.904 10
4.6950002 -2.267 -1.904 10
3.608 -1.868 -1.905 9
3.8050001 -1.943 -1.908 10
4.0100002 -2.0209999 -1.909 10
4.2150002 -2.0999999 -1.903 9
4.4510002 -2.1930001 -1.903 10
4.7069998 -2.296 -1.905 10
3.6110001 -1.888 -1.905 9
3.8080001 -1.964 -1.9069999 10
4.0139999 -2.043 -1.9069999 9
4.2270002 -2.1259999 -1.904 9
4.4689999 -2.223 -1.906 10
4.71 -2.3199999 -1.9 9
3.6159999 -1.909 -1.904 8
3.823 -1.99 -1.911 9
4.027 -2.0699999 -1.909 9
4.2389998 -2.152 -1.905 9
4.4520001 -2.2360001 -1.8940001 9
4.7210002 -2.3469999 -1.899 10
3.628 -1.933 -1.9069999 9
3.835 -2.0150001 -1.913 10
4.0339999 -2.092 -1.908 9
4.2529998 -2.1789999 -1.905 10
4.4949999 -2.277 -1.906 9
4.7350001 -2.375 -1.898 9
3.6340001 -1.9529999 -1.905 8
3.8410001 -2.0350001 -1.911 9
4.0510001 -2.119 -1.91 10
4.2649999 -2.204 -1.905 9
4.506 -2.303 -1.903 9
4.7670002 -2.4119999 -1.903 9
3.6459999 -1.976 -1.9069999 8
3.8510001 -2.0569999 -1.91 9
4.0650001 -2.1440001 -1.911 8
4.2870002 -2.234 -1.908 9
4.5430002 -2.3410001 -1.9119999 9
4.777 -2.4360001 -1.898 10
3.6530001 -1.995 -1.904 8
3.8659999 -2.082 -1.911 9
4.0760002 -2.1659999 -1.909 10
4.303 -2.2590001 -1.9069999 9
4.5409999 -2.358 -1.902 9
4.8140001 -2.474 -1.904 9
3.6700001 -2.0190001 -1.9069999 8
3.8770001 -2.1029999 -1.909 9
4.092 -2.191 -1.908 11
4.3299999 -2.29 -1.91 9
4.5780001 -2.3940001 -1.908 9
4.835 -2.503 -1.902 10
3.6860001 -2.043 -1.908 8
3.904 -2.1329999 -1.914 9
4.1199999 -2.221 -1.9119999 9
4.3530002 -2.3180001 -1.911 9
4.598 -2.4219999 -1.9069999 9
4.868 -2.5380001 -1.904 9
3.6989999 -2.063 -1.906 8
3.9130001 -2.152 -1.91 9
4.1290002 -2.2409999 -1.9069999 10
4.382 -2.349 -1.913 9
4.6389999 -2.46 -1.9119999 8
4.901 -2.572 -1.905 9
3.7179999 -2.0869999 -1.9069999 8
3.937 -2.178 -1.9119999 9
4.1599998 -2.2709999 -1.911 9
4.408 -2.3770001 -1.914 9
4.6609998 -2.4860001 -1.91 9
4.9310002 -2.6040001 -1.904 9
3.7520001 -2.118 -1.915 8
3.957 -2.2019999 -1.911 9
4.1880002 -2.3 -1.913 9
4.4299998 -2.4030001 -1.911 9
4.6830001 -2.513 -1.906 10
4.9689999 -2.6389999 -1.905 9
3.7709999 -2.1400001 -1.913 8
3.9849999 -2.23 -1.914 9
4.2220001 -2.3310001 -1.916 9
4.4650002 -2.4349999 -1.914 9
4.7280002 -2.55 -1.911 8
5.0089998 -2.675 -1.906 10
3.7950001 -2.165 -1.915 8
4.013 -2.256 -1.915 12
4.243 -2.3540001 -1.913 9
4.4970002 -2.4649999 -1.914 8
4.7690001 -2.585 -1.913 9
5.0580001 -2.714 -1.909 10
3.8199999 -2.1889999 -1.915 9
4.0229998 -2.2720001 -1.9069999 15
4.2709999 -2.3800001 -1.9119999 9
4.5349998 -2.497 -1.915 8
4.8000002 -2.6140001 -1.91 9
5.0999999 -2.7490001 -1.909 9
3.8410001 -2.2090001 -1.913 9
4.046 -2.2939999 -1.904 15
4.3010001 -2.4070001 -1.911 9
4.5739999 -2.529 -1.9170001 8
4.8520002 -2.6530001 -1.915 8
5.1430001 -2.7839999 -1.908 9
3.8710001 -2.2349999 -1.914 8
4.0949998 -2.3310001 -1.913 10
4.3379998 -2.437 -1.9119999 10
4.6059999 -2.556 -1.914 8
4.8979998 -2.688 -1.916 9
5.1929998 -2.822 -1.908 9
3.904 -2.2609999 -1.915 9
4.125 -2.355 -1.911 9
4.3870001 -2.4719999 -1.9170001 10
4.652 -2.5899999 -1.916 9
4.9380002 -2.7190001 -1.913 9
5.2420001 -2.858 -1.9069999 9
3.9349999 -2.286 -1.915 9
4.1589999 -2.382 -1.911 9
4.4219999 -2.5 -1.916 9
4.697 -2.6229999 -1.916 9
4.9899998 -2.756 -1.914 9
5.302 -2.9000001 -1.909 9
3.9619999 -2.3069999 -1.9119999 8
4.2030001 -2.4119999 -1.914 9
4.4660001 -2.53 -1.9170001 9
4.7410002 -2.654 -1.916 9
5.0409999 -2.7920001 -1.914 10
5.3610001 -2.9389999 -1.909 10
4.0029998 -2.335 -1.915 9
4.2399998 -2.4389999 -1.913 9
4.5079999 -2.5599999 -1.9170001 9
4.7930002 -2.6889999 -1.9170001 9
5.0970001 -2.829 -1.915 10
5.4130001 -2.9749999 -1.906 11
4.0359998 -2.359 -1.913 9
4.283 -2.4679999 -1.914 10
4.5560002 -2.5910001 -1.918 9
4.8369999 -2.7190001 -1.914 9
5.151 -2.8640001 -1.913 9
5.4889998 -3.0220001 -1.91 10
4.0739999 -2.3840001 -1.9119999 9
4.323 -2.494 -1.913 10
4.6129999 -2.6270001 -1.921 8
4.901 -2.7590001 -1.918 9
5.2059999 -2.8989999 -1.9119999 9
5.5580001 -3.0639999 -1.91 10
4.1160002 -2.4100001 -1.9119999 9
4.3850002 -2.5320001 -1.92 9
4.6630001 -2.658 -1.92 8
4.9499998 -2.789 -1.915 9
5.2740002 -2.9400001 -1.913 10
5.6360002 -3.1110001 -1.9119999 10
4.1609998 -2.437 -1.913 9
4.4219999 -2.5550001 -1.915 10
4.7090001 -2.6860001 -1.9170001 8
5.0159998 -2.8280001 -1.9170001 9
5.349 -2.984 -1.915 9
5.7160001 -3.158 -1.913 9
4.217 -2.47 -1.918 8
4.4840002 -2.5910001 -1.919 9
4.763 -2.7179999 -1.916 10
5.0830002 -2.8670001 -1.919 9
5.4219999 -3.026 -1.916 9
5.7940001 -3.2019999 -1.9119999 10
4.263 -2.4960001 -1.9170001 9
4.533 -2.618 -1.9170001 10
4.8260002 -2.753 -1.918 10
5.145 -2.901 -1.9170001 10
5.493 -3.0650001 -1.915 10
5.8839998 -3.2520001 -1.914 10
4.316 -2.5250001 -1.9170001 9
4.5939999 -2.652 -1.92 8
4.8920002 -2.789 -1.919 10
5.2119999 -2.938 -1.916 9
5.573 -3.108 -1.915 9
5.9679999 -3.2969999 -1.913 9
4.3720002 -2.5550001 -1.919 8
4.6440001 -2.678 -1.916 8
4.9559999 -2.823 -1.919 9
5.2779999 -2.9719999 -1.914 9
5.6589999 -3.154 -1.9170001 10
6.0560002 -3.3429999 -1.911 9
4.4310002 -2.586 -1.92 8
4.7059999 -2.71 -1.916 9
5.0219998 -2.8570001 -1.918 9
5.3569999 -3.013 -1.915 9
5.7529998 -3.2019999 -1.92 10
6.1609998 -3.398 -1.914 9
4.4899998 -2.615 -1.921 8
4.7709999 -2.7420001 -1.9170001 9
5.098 -2.895 -1.92 9
5.4369998 -3.053 -1.915 10
5.8319998 -3.2420001 -1.916 9
6.2919998 -3.4649999 -1.9220001 9
4.5580001 -2.6489999 -1.924 9
4.8429999 -2.7780001 -1.918 9
5.1599998 -2.924 -1.914 9
5.5300002 -3.0999999 -1.9170001 10
5.9320002 -3.2909999 -1.9170001 9
6.3979998 -3.5179999 -1.921 8
4.612 -2.6730001 -1.919 8
4.9089999 -2.809 -1.916 9
5.2470002 -2.967 -1.918 9
5.631 -3.1489999 -1.9220001 9
6.072 -3.362 -1.9299999 9
6.5100002 -3.5710001 -1.921 9
4.6799998 -2.7049999 -1.92 8
4.98 -2.842 -1.915 9
5.322 -3.0009999 -1.915 10
5.7249999 -3.1930001 -1.9220001 9
6.1409998 -3.391 -1.918 10
6.6269999 -3.6259999 -1.919 9
4.7529998 -2.7379999 -1.921 8
5.0580001 -2.8770001 -1.915 9
5.4089999 -3.0409999 -1.915 10
5.823 -3.2379999 -1.9220001 9
6.2690001 -3.4519999 -1.923 9
6.744 -3.6800001 -1.9170001 8
4.822 -2.767 -1.919 9
5.1389999 -2.9130001 -1.915 10
5.5050001 -3.0840001 -1.916 10
5.941 -3.293 -1.927 8
6.3740001 -3.4979999 -1.92 8
6.8790002 -3.7420001 -1.9170001 8
4.901 -2.802 -1.92 9
5.2129998 -2.9430001 -1.911 9
5.6100001 -3.131 -1.92 9
6.02 -3.3239999 -1.918 9
6.4920001 -3.5510001 -1.919 8
7.0120001 -3.802 -1.916 9
4.9840002 -2.8369999 -1.9220001 9
5.3000002 -2.98 -1.911 9
5.7010002 -3.1689999 -1.918 9
6.1560001 -3.3870001 -1.926 9
6.6230001 -3.609 -1.92 9
7.1700001 -3.8729999 -1.919 8
5.0630002 -2.869 -1.921 9
5.3969998 -3.0209999 -1.913 10
5.8140001 -3.2179999 -1.921 9
6.2610002 -3.4289999 -1.9220001 8
6.7509999 -3.6630001 -1.918 9
7.3330002 -3.944 -1.921 10
5.1430001 -2.9000001 -1.918 10
5.4970002 -3.062 -1.915 9
5.9330001 -3.2679999 -1.924 8
6.3839998 -3.4809999 -1.9220001 9
6.8829999 -3.7179999 -1.916 8
7.4949999 -4.0139999 -1.921 10
5.2340002 -2.9349999 -1.918 10
5.5960002 -3.0999999 -1.914 10
6.0510001 -3.316 -1.926 9
6.5110002 -3.533 -1.9220001 9
7.0359998 -3.7820001 -1.918 8
7.664 -4.0840001 -1.921 9
5.3270001 -2.97 -1.918 9
5.7080002 -3.145 -1.9170001 10
6.1490002 -3.352 -1.919 10
6.6360002 -3.5810001 -1.919 9
7.1950002 -3.8469999 -1.919 9
7.8499999 -4.1620002 -1.921 9
5.4180002 -3.003 -1.916 9
5.8130002 -3.184 -1.915 11
6.29 -3.4089999 -1.924 9
6.776 -3.6359999 -1.918 9
7.3579998 -3.9130001 -1.919 10
8.0369997 -4.2389998 -1.921 9
5.5240002 -3.043 -1.9170001 10
5.9650002 -3.2479999 -1.927 8
6.4130001 -3.4549999 -1.923 9
6.9159999 -3.6889999 -1.916 9
7.5320001 -3.9820001 -1.92 10
8.243 -4.322 -1.9220001 9
5.6300001 -3.0810001 -1.9170001 10
6.079 -3.289 -1.926 9
6.5419998 -3.5020001 -1.92 9
7.0749998 -3.7509999 -1.9170001 9
7.7179999 -4.0549998 -1.921 9
8.4519997 -4.4050002 -1.921 9
5.7420001 -3.1199999 -1.9170001 9
6.1989999 -3.3310001 -1.924 9
6.684 -3.5539999 -1.92 9
7.2410002 -3.8139999 -1.918 10
7.9130001 -4.131 -1.923 9
8.6709995 -4.4899998 -1.921 9
5.862 -3.1619999 -1.919 9
6.3260002 -3.375 -1.923 9
6.8200002 -3.6010001 -1.918 9
7.4200001 -3.881 -1.921 9
8.0950003 -4.198 -1.919 9
8.8950005 -4.5760002 -1.919 9
5.9990001 -3.2119999 -1.925 8
6.4489999 -3.4159999 -1.919 9
6.9780002 -3.658 -1.919 10
7.5819998 -3.938 -1.9170001 10
8.3170004 -4.2820001 -1.923 9
9.1470003 -4.6729999 -1.92 9
6.1220002 -3.2520001 -1.925 8
6.585 -3.461 -1.918 9
7.1350002 -3.7130001 -1.918 10
7.783 -4.0120001 -1.921 9
8.5340004 -4.362 -1.923 9
9.3940001 -4.7649999 -1.918 10
6.2470002 -3.293 -1.924 9
6.7280002 -3.5079999 -1.9170001 9
7.3109999 -3.7750001 -1.92 10
7.9770002 -4.0809999 -1.92 9
8.7539997 -4.441 -1.92 9
9.677 -4.8709998 -1.92 9
6.3899999 -3.339 -1.925 9
6.8839998 -3.5599999 -1.918 10
7.4790001 -3.8299999 -1.918 10
8.1850004 -4.1529999 -1.921 9
9.0030003 -4.5310001 -1.921 9
9.9659996 -4.9770002 -1.918 8
6.5250001 -3.381 -1.924 9
7.0339999 -3.6059999 -1.916 9
7.671 -3.895 -1.92 10
8.4060001 -4.23 -1.9220001 10
9.2539997 -4.618 -1.92 9
10.269 -5.0869999 -1.9170001 8
6.6560001 -3.4170001 -1.919 9
7.2059999 -3.661 -1.916 10
7.8740001 -3.9619999 -1.921 9
8.632 -4.3049998 -1.921 10
9.5240002 -4.7119999 -1.919 10
10.6 -5.2049999 -1.916 9
6.8119998 -3.4649999 -1.92 9
7.3790002 -3.714 -1.915 10
8.0710001 -4.0240002 -1.919 9
8.8640003 -4.382 -1.919 9
9.7989998 -4.8049998 -1.9170001 9
10.939 -5.3239999 -1.915 9
6.9699998 -3.5109999 -1.919 9
7.5630002 -3.7709999 -1.915 9
8.2840004 -4.092 -1.919 9
9.1149998 -4.4640002 -1.918 9
10.102 -4.908 -1.916 8
11.296 -5.447 -1.911 8
7.1300001 -3.556 -1.9170001 9
7.7550001 -3.829 -1.915 10
8.5129995 -4.164 -1.92 10
9.3859997 -4.552 -1.92 9
10.407 -5.007 -1.913 9
11.671 -5.5749998 -1.909 9
7.303 -3.605 -1.9170001 9
7.9569998 -3.8889999 -1.915 9
8.743 -4.2340002 -1.918 10
9.658 -4.638 -1.918 9
10.757 -5.125 -1.915 9
12.074 -5.7119999 -1.906 8
7.4860001 -3.6559999 -1.918 10
8.1709995 -3.9519999 -1.9170001 9
8.9820004 -4.3049998 -1.9170001 10
9.948 -4.7280002 -1.9170001 9
11.096 -5.2340002 -1.9119999 9
12.493 -5.8509998 -1.901 8
7.6739998 -3.7079999 -1.9170001 9
8.3879995 -4.0139999 -1.916 10
9.2419996 -4.3829999 -1.9170001 10
10.246 -4.8189998 -1.914 9
11.462 -5.3499999 -1.909 8
12.942 -5.9980001 -1.897 7
7.869 -3.76 -1.9170001 9
8.6169996 -4.0780001 -1.916 10
9.5080004 -4.46 -1.916 9
10.568 -4.9159999 -1.913 9
11.847 -5.4699998 -1.906 8
13.421 -6.1539998 -1.893 7
8.0790005 -3.816 -1.918 9
8.8529997 -4.1420002 -1.915 9
9.79 -4.5409999 -1.915 9
10.903 -5.0159998 -1.911 9
12.255 -5.5960002 -1.902 9
13.91 -6.3080001 -1.885 8
8.2969999 -3.8729999 -1.919 9
9.0959997 -4.2069998 -1.913 10
10.089 -4.6259999 -1.915 9
11.241 -5.1129999 -1.906 9
12.663 -5.717 -1.895 7
14.43 -6.4699998 -1.877 9
8.5139999 -3.927 -1.918 10
9.3559999 -4.276 -1.913 10
10.383 -4.7049999 -1.911 9
11.625 -5.2249999 -1.906 9
13.118 -5.8530002 -1.891 7
15.01 -6.652 -1.8710001 8
8.7489996 -3.9860001 -1.918 10
9.6129999 -4.3400002 -1.909 11
10.721 -4.7989998 -1.9119999 10
12.017 -5.3369999 -1.903 8
13.596 -5.994 -1.886 8
15.606 -6.8340001 -1.862 10
8.9899998 -4.0450001 -1.918 10
9.8950005 -4.4109998 -1.908 10
11.054 -4.8860002 -1.909 9
12.416 -5.4450002 -1.898 8
14.106 -6.1420002 -1.88 8
16.377001 -7.0830002 -1.8660001 11
9.2349997 -4.1009998 -1.915 10
10.187 -4.4829998 -1.906 10
11.405 -4.9770002 -1.906 9
12.84 -5.5599999 -1.893 8
14.616 -6.283 -1.87 9
17.162001 -7.329 -1.865 12
9.5010004 -4.1630001 -1.915 9
10.502 -4.5609999 -1.906 10
11.763 -5.0669999 -1.901 9
13.321 -5.6929998 -1.891 7
15.18 -6.4419999 -1.862 10
17.966 -7.5739999 -1.8609999 13
9.7650003 -4.2210002 -1.913 10
10.827 -4.6389999 -1.905 10
12.166 -5.1690001 -1.9 9
13.795 -5.8169999 -1.885 8
15.824 -6.625 -1.858 10
18.827 -7.8319998 -1.854 10
10.041 -4.2800002 -1.91 9
11.148 -4.71 -1.899 10
12.575 -5.27 -1.896 9
14.257 -5.9289999 -1.873 8
16.577999 -6.8460002 -1.8609999 11
19.735001 -8.0959997 -1.842 10
10.337 -4.3429999 -1.908 9
11.513 -4.7950001 -1.898 9
12.993 -5.368 -1.89 7
14.786 -6.0630002 -1.8660001 9
17.323999 -7.053 -1.857 12
20.705999 -8.375 -1.8279999 8
10.624 -4.3979998 -1.902 9
11.871 -4.8720002 -1.893 9
13.457 -5.4790001 -1.886 9
15.35 -6.2030001 -1.858 10
18.128 -7.2740002 -1.851 11
21.728001 -8.6619997 -1.812 5
10.954 -4.467 -1.902 10
12.252 -4.954 -1.8890001 9
13.941 -5.5910001 -1.88 8
15.942 -6.3460002 -1.848 10
18.985001 -7.506 -1.844 9
22.948999 -9.0150003 -1.802 5
11.296 -4.5359998 -1.901 9
12.657 -5.039 -1.886 10
14.396 -5.6859999 -1.87 8
16.636999 -6.5219998 -1.846 11
19.832001 -7.7210002 -1.829 8
24.226999 -9.3730001 -1.7869999 5
11.629 -4.5970001 -1.897 9
13.099 -5.1350002 -1.885 9
14.922 -5.803 -1.863 9
17.386 -6.711 -1.845 12
20.728001 -7.947 -1.814 8
25.589001 -9.7469997 -1.768 5
11.981 -4.6599998 -1.893 9
13.527 -5.217 -1.878 8
15.452 -5.9130001 -1.855 10
18.150999 -6.895 -1.839 11
21.677 -8.1789999 -1.795 7
27.259001 -10.22 -1.7589999 4
12.352 -4.7259998 -1.8890001 9
13.98 -5.3049998 -1.872 9
16.018999 -6.0310001 -1.845 10
18.945 -7.079 -1.83 13
22.893999 -8.4969997 -1.79 5
28.604 -10.55 -1.716 3
12.771 -4.8049998 -1.8890001 9
14.443 -5.388 -1.864 8
16.642 -6.1609998 -1.8380001 11
19.785 -7.2709999 -1.8200001 11
24.055 -8.7799997 -1.772 6
0 0 0 0
13.185 -4.8759999 -1.886 9
14.915 -5.4689999 -1.854 9
17.353001 -6.3140001 -1.836 12
20.621 -7.448 -1.803 10
25.389999 -9.1079998 -1.757 5
32.338001 -11.529 -1.655 33
13.596 -4.9390001 -1.88 9
15.421 -5.5560002 -1.845 9
18.083 -6.4640002 -1.83 13
21.611 -7.6680002 -1.7920001 8
26.875999 -9.4709997 -1.742 5
34.678001 -12.144 -1.623 17
14.044 -5.0100002 -1.875 9
15.967 -5.6479998 -1.837 10
18.812 -6.6040001 -1.8200001 14
22.716 -7.9159999 -1.784 7
28.455 -9.849 -1.722 5
36.271999 -12.474 -1.546 4
14.474 -5.0669999 -1.8660001 8
16.547001 -5.7449999 -1.829 11
19.563 -6.7410002 -1.807 13
23.704 -8.1079998 -1.761 6
29.927 -10.167 -1.686 5
41.305 -13.944 -1.59 3
14.921 -5.1259999 -1.857 9
17.197001 -5.8590002 -1.826 12
20.393 -6.8940001 -1.795 12
24.862 -8.3450003 -1.742 5
32.688 -10.895 -1.707 27
45.883999 -15.197 -1.5829999 2
15.38 -5.1799998 -1.846 9
17.855 -5.9650002 -1.819 12
21.261999 -7.0479999 -1.783 12
26.306999 -8.6569996 -1.735 5
33.109001 -10.822 -1.595 14
48.172001 -15.643 -1.471 5
15.903 -5.25 -1.84 10
18.521 -6.0640001 -1.808 13
22.179001 -7.2059999 -1.768 8
27.636 -8.9139996 -1.712 5
35.473999 -11.364 -1.5700001 8
52.977001 -16.863001 -1.413 18
16.445 -5.3189998 -1.8329999 11
19.179001 -6.151 -1.793 14
23.153999 -7.369 -1.753 7
29.166 -9.2139997 -1.692 5
36.754002 -11.533 -1.4859999 1
53.431999 -16.66 -1.225 11
17.024 -5.3909998 -1.8279999 11
19.933001 -6.2600002 -1.784 15
24.141001 -7.5229998 -1.733 7
30.629999 -9.4759998 -1.659 6
39.821999 -12.236 -1.461 1
57.738998 -17.622 -1.1109999 9
17.646999 -5.4679999 -1.824 12
20.712999 -6.3660002 -1.774 15
25.278 -7.7090001 -1.719 5
0 0 0 0
44.910999 -13.501 -1.483 3
44.838001 -13.393 -0.704 60
18.266001 -5.5370002 -1.817 13
21.518 -6.4679999 -1.761 10
26.645 -7.9460001 -1.714 6
0 0 0 0
44.882999 -13.194 -1.323 51
44.91 -13.116 -0.54799998 50
18.844999 -5.5830002 -1.803 14
22.354 -6.5669999 -1.7460001 9
27.940001 -8.1420002 -1.694 5
0 0 0 0
45.858002 -13.172 -1.193 61
0 0 0 0
19.49 -5.6389999 -1.793 15
23.167 -6.6469998 -1.726 9
29.094 -8.2819996 -1.6619999 6
37.266998 -10.529 -1.485 3
45.469002 -12.758 -1.03 2
73.402 -20.452 -0.405 90
20.146999 -5.6900001 -1.781 15
23.993999 -6.7199998 -1.704 6
30.445 -8.4589996 -1.636 5
39.950001 -11.017 -1.459 1
45.308998 -12.406 -0.87900001 30
86.439003 -23.509001 -0.20100001 60
20.881001 -5.7540002 -1.774 16
25.171 -6.8779998 -1.702 7
31.945 -8.6599998 -1.6109999 5
43.715 -11.76 -1.456 1
57.083 -15.248 -0.92900002 14
140.90401 -37.377998 0.098999999 15
21.625999 -5.809 -1.765 15
26.187 -6.9759998 -1.686 6
33.068001 -8.7370005 -1.563 4
46.063999 -12.078 -1.391 37
57.699001 -15.021 -0.76300001 7
117.716 -30.437 0.43399999 15
22.292 -5.8330002 -1.747 16
27.337 -7.0929999 -1.674 7
35.124001 -9.0389996 -1.552 21
46.095001 -11.773 -1.255 64
46.255001 -11.727 -0.47600001 72
46.296001 -11.656 0.30399999 49
22.98 -5.855 -1.729 14
28.27 -7.1409998 -1.645 6
35.926998 -9 -1.48 11
46.254002 -11.496 -1.123 70
0 0 0 0
83.497002 -20.452999 0.77899998 19
23.724001 -5.8779998 -1.7130001 10
29.334 -7.2049999 -1.62 6
38.511002 -9.3809996 -1.476 11
46.464001 -11.228 -0.99800003 3
100.991 -24.221001 -0.47299999 8
83.658997 -19.921 1.008 15
24.593 -5.9219999 -1.704 8
30.426001 -7.2600002 -1.594 6
42.008999 -9.9390001 -1.493 10
55.265999 -12.971 -1.0369999 21
0 0 0 0
0 0 0 0
25.423 -5.9419999 -1.689 8
31.698 -7.342 -1.573 6
42.681999 -9.8000002 -1.403 1
54.712002 -12.46 -0.88300002 6
49.902 -11.276 0.025 1
0 0 0 0
26.389 -5.9819999 -1.683 7
32.792 -7.3660002 -1.5420001 6
44.492001 -9.908 -1.348 4
49.706001 -10.975 -0.67900002 4
49.564999 -10.857 0.145 3
128.379 -27.91 2.5020001 38
27.27 -5.987 -1.6670001 7
33.855999 -7.3649998 -1.505 4
48.431 -10.444 -1.349 17
49.618 -10.61 -0.55900002 21
135.76199 -28.798 0.71600002 31
127.021 -26.737 2.7620001 17
28.247999 -6.0019999 -1.658 7
36.321999 -7.6459999 -1.528 14
48.384998 -10.096 -1.235 20
44.507 -9.2069998 -0.40000001 29
111.807 -22.938999 0.83600003 29
100.772 -20.514 2.4119999 35
28.968 -5.9520001 -1.632 7
37.571999 -7.6459999 -1.495 15
48.867001 -9.8520002 -1.138 14
79.899002 -15.967 -0.54500002 20
80.392998 -15.934 0.76999998 13
80.291 -15.787 2.086 19
29.813999 -5.914 -1.613 6
37.708 -7.408 -1.419 11
50.068001 -9.7440004 -1.0599999 14
80.195 -15.472 -0.384 33
102.742 -19.652 1.1900001 19
89.081001 -16.903 2.4860001 34
30.688 -5.8709998 -1.595 7
0 0 0 0
52.108002 -9.7770004 -1.001 18
87.921997 -16.346001 -0.25099999 6
100.768 -18.575001 1.355 19
87.637001 -16.018999 2.6059999 36
31.448999 -5.7930002 -1.572 7
40.400002 -7.369 -1.359 6
52.417 -9.4680004 -0.90700001 3
69.901001 -12.512 -0.071999997 5
93.997002 -16.673 1.432 9
69.525002 -12.229 2.187 5
32.063999 -5.6820002 -1.5420001 6
43.009998 -7.5450001 -1.369 12
55.189999 -9.585 -0.85799998 8
69.825996 -12.007 0.046999998 88
69.828003 -11.897 1.1799999 43
69.873001 -11.802 2.312 38
32.821999 -5.5819998 -1.521 6
42.943001 -7.2290001 -1.293 7
55.584 -9.2609997 -0.77200001 4
94.849998 -15.652 0.21600001 12
0 0 0 0
88.595001 -14.348 3.066 40
33.511002 -5.4629998 -1.497 7
42.945 -6.9239998 -1.224 2
58.108002 -9.2740002 -0.71600002 4
96.478996 -15.241 0.36500001 12
0 0 0 0
92.037003 -14.261 3.3150001 30
34.532001 -5.3829999 -1.49 6
46.623001 -7.1890001 -1.2589999 34
64.662003 -9.8629999 -0.704 5
94.223999 -14.221 0.48899999 6
78.844002 -11.775 1.677 4
92.370003 -13.664 3.447 44
35.506001 -5.2820001 -1.4809999 11
46.638 -6.8579998 -1.1950001 54
0 0 0 0
78.343002 -11.272 0.50700003 4
0 0 0 0
54.186001 -7.638 2.0869999 29
35.318001 -5.0029998 -1.427 5
46.839001 -6.5549998 -1.142 32
0 0 0 0
0 0 0 0
43.417 -5.8769999 1.025 6
43.379002 -5.8099999 1.7180001 42
37.085999 -4.9889998 -1.454 4
43.285999 -5.7519999 -1.005 13
43.305 -5.6849999 -0.31400001 112
43.355 -5.6259999 0.377 58
43.469002 -5.5760002 1.071 11
43.299999 -5.493 1.757 1
0 0 0 0
43.247002 -5.4390001 -0.95999998 78
55.119999 -6.8460002 -0.345 20
55.110001 -6.7620001 0.53200001 36
55.127998 -6.6859999 1.409 18
54.477001 -6.5310001 2.2579999 59
37.201 -4.4720001 -1.383 1
47.817001 -5.6719999 -1.018 24
63.469002 -7.4310002 -0.34200001 4
0 0 0 0
122.413 -13.98 3.2260001 11
54.689999 -6.1719999 2.309 60
37.411999 -4.2329998 -1.36 1
47.949001 -5.3499999 -0.98199999 23
74.212997 -8.1709995 -0.34400001 5
0 0 0 0
115.058 -12.335 3.112 46
92.411003 -9.7799997 3.961 6
38.119999 -4.0409999 -1.358 1
48.166 -5.0320001 -0.954 19
74.676003 -7.6929998 -0.29800001 5
94.433998 -9.592 1.115 15
114.424 -11.462 3.1589999 32
115.023 -11.37 4.993 10
37.623001 -3.7219999 -1.318 1
45.706001 -4.4499998 -0.88 150
45.674999 -4.3800001 -0.15800001 6
0 0 0 0
0 0 0 0
93.114998 -8.5469999 4.0819998 39
0 0 0 0
45.752998 -4.1329999 -0.86000001 75
45.994999 -4.0879998 -0.14 77
97.997002 -8.5719995 1.243 20
66.728996 -5.7480001 1.896 28
67.660004 -5.7379999 2.9879999 26
0 0 0 0
45.813 -3.813 -0.84600002 48
46.713001 -3.822 -0.12800001 79
99.370003 -7.9920001 1.2869999 35
66.167 -5.2350001 1.896 43
66.761002 -5.1939998 2.9619999 41
40.966999 -3.181 -1.39 4
47.377998 -3.6099999 -0.86400002 54
46.990002 -3.517 -0.12 76
67.528 -4.9619999 0.88499999 25
66.099998 -4.7709999 1.903 51
66.745003 -4.7309999 2.9679999 42
0 0 0 0
47.610001 -3.293 -0.86400002 38
47.118999 -3.194 -0.118 78
43.611 -2.898 0.57300001 13
43.351002 -2.823 1.248 117
43.398998 -2.7720001 1.929 40
41.051998 -2.6070001 -1.387 3
43.348 -2.6919999 -0.787 46
47.551998 -2.891 -0.121 40
52.672001 -3.1300001 0.68800002 51
67.227997 -3.9070001 1.929 31
66.976997 -3.8099999 2.9690001 37
41.035999 -2.3150001 -1.391 3
48.001999 -2.645 -0.87900001 58
52.799 -2.839 -0.14300001 95
52.937 -2.777 0.68199998 40
66.912003 -3.427 1.906 18
67.549004 -3.3740001 2.9790001 11
41.159 -2.033 -1.405 3
48.221001 -2.3150001 -0.89499998 75
64.186996 -3 -0.191 5
52.974998 -2.408 0.667 75
64.292 -2.8440001 1.811 3
116.271 -4.9980001 5.0869999 13
0 0 0 0
47.695 -1.957 -0.903 80
54.418999 -2.165 -0.183 17
53.215 -2.0510001 0.648 32
114.781 -4.2820001 3.1849999 23
114.818 -4.1469998 4.973 9
0 0 0 0
47.606998 -1.623 -0.92400002 80
53.265999 -1.7460001 -0.206 66
54.653999 -1.723 0.63700002 39
54.713001 -1.6569999 1.488 16
0 0 0 0
36.608002 -1.035 -1.301 1
47.285999 -1.279 -0.94599998 80
54.73 -1.409 -0.24600001 18
54.771 -1.3430001 0.60299999 9
98.810997 -2.303 2.622 22
116.432 -2.573 4.8969998 13
35.796001 -0.759 -1.2970001 1
0 0 0 0
54.917 -1.029 -0.28799999 14
54.931999 -0.96200001 0.56300002 23
98.023003 -1.605 2.526 24
0 0 0 0
35.424 -0.50300002 -1.313 5
44.411999 -0.57599998 -0.958 4
50.047001 -0.58899999 -0.30500001 1
53.305 -0.56699997 0.50099999 37
98.821999 -0.93400002 2.4590001 12
0 0 0 0
34.799999 -0.249 -1.323 4
44.325001 -0.26499999 -0.99900001 5
50.650002 -0.243 -0.35800001 17
0 0 0 0
53.410999 -0.134 1.276 12
0 0 0 0
34.286999 -0.0049999999 -1.34 5
43.682999 0.043000001 -1.0319999 8
0 0 0 0
0 0 0 0
53.578999 0.234 1.22 19
80.653999 0.44400001 3.085 41
33.751999 0.226 -1.359 6
43.515999 0.345 -1.08 12
48.547001 0.43700001 -0.454 19
53.724998 0.542 0.32800001 83
53.726002 0.60299999 1.158 82
79.469002 0.97799999 2.9430001 37
32.523998 0.44299999 -1.351 5
41.960999 0.61799997 -1.095 2
47.709 0.75400001 -0.50800002 17
79.491997 1.345 0.38100001 17
53.882 0.97100002 1.091 75
79.522003 1.522 2.8380001 38
32.226002 0.66000003 -1.3839999 6
41.901001 0.90600002 -1.153 6
48.657001 1.107 -0.588 20
77.120003 1.836 0.259 7
53.984001 1.344 1.015 8
79.751999 2.069 2.7309999 38
31.431 0.86199999 -1.399 6
41.902 1.192 -1.217 4
44.424999 1.311 -0.60399997 93
44.431999 1.358 0.081 88
44.465 1.409 0.76700002 38
44.377998 1.452 1.451 37
30.73 1.054 -1.418 6
38.161999 1.347 -1.1720001 1
44.550999 1.618 -0.68000001 51
58.848 2.1989999 0.0089999996 26
60.007 2.306 0.93599999 7
104.712 4.131 3.25 29
29.98 1.232 -1.437 7
37.066002 1.559 -1.2029999 3
44.445 1.913 -0.75599998 14
56.792 2.5050001 -0.089000002 15
49.960999 2.2550001 0.69099998 22
51.348 2.3710001 1.503 3
29.172001 1.398 -1.4529999 7
0 0 0 0
47.521 2.369 -0.898 44
54.660999 2.779 -0.189 25
49.734001 2.582 0.59399998 39
49.905998 2.6400001 1.367 7
28.518999 1.561 -1.477 7
34.458 1.918 -1.253 4
44.001999 2.4920001 -0.92000002 2
54.242001 3.1229999 -0.29499999 45
49.848999 2.9189999 0.49700001 33
49.960999 2.974 1.2690001 27
27.761999 1.706 -1.497 7
33.620998 2.099 -1.293 6
44.039001 2.79 -1.013 9
51.213001 3.2920001 -0.38600001 14
49.706001 3.243 0.391 20
49.743 3.2950001 1.159 35
27.02 1.844 -1.518 7
32.382 2.237 -1.317 6
42.365002 2.9660001 -1.068 5
47.856998 3.395 -0.46700001 1
50.071999 3.5969999 0.28400001 4
49.785 3.628 1.051 45
26.159 1.961 -1.531 9
31.434 2.382 -1.352 6
42.431 3.253 -1.169 4
0 0 0 0
54.096001 4.2470002 0.18099999 34
49.708 3.95 0.93400002 40
25.475 2.0810001 -1.554 10
30.282 2.4990001 -1.378 6
0 0 0 0
47.938 4.0380001 -0.69599998 35
53.744999 4.5760002 0.048999999 51
49.473999 4.2579999 0.80900002 51
24.548 2.1689999 -1.561 10
29.287001 2.6099999 -1.408 6
36.598999 3.29 -1.191 1
47.787998 4.3379998 -0.815 28
49.842999 4.5700002 -0.079999998 5
49.584999 4.592 0.68599999 41
23.780001 2.2590001 -1.577 13
28.32 2.711 -1.437 6
34.765999 3.3559999 -1.225 4
44.542 4.336 -0.87900001 6
52.935001 5.197 -0.22400001 54
49.348999 4.8889999 0.55299997 6
23.014999 2.3380001 -1.591 17
27.35 2.7980001 -1.464 6
33.352001 3.437 -1.267 5
42.803001 4.4439998 -0.96100003 1
0 0 0 0
53.384998 5.6360002 0.45199999 2
22.332001 2.415 -1.609 18
26.364 2.8710001 -1.489 7
32.144001 3.5239999 -1.3150001 6
42.750999 4.7199998 -1.084 3
50.446999 5.6079998 -0.49599999 24
52.493 5.8800001 0.296 13
21.596001 2.4760001 -1.6210001 17
25.482 2.938 -1.515 8
30.84 3.5780001 -1.353 5
0 0 0 0
49.155998 5.776 -0.62699997 28
52.396 6.1999998 0.14300001 48
20.926001 2.5339999 -1.636 16
18.400999 2.24 -1.151 9
29.677999 3.6340001 -1.3940001 6
36.826 4.5339999 -1.155 4
48.216 5.974 -0.76200002 19
52.229 6.5110002 -0.014 60
17.542 2.237 -1.429 40
16.747 2.1459999 -1.102 50
18.923 2.437 -0.949 52
34.819 4.5079999 -1.202 4
44.839001 5.8379998 -0.85000002 12
51.638 6.7610002 -0.176 62
16.813 2.253 -1.426 46
15.972 2.1489999 -1.104 60
18.023001 2.4349999 -0.963 52
21.32 2.895 -0.80599999 6
43.07 5.8779998 -0.95599997 7
51.101002 7.0120001 -0.33899999 54
15.811 2.2179999 -1.396 43
15.413 2.171 -1.118 60
17.139999 2.424 -0.97399998 54
20.93 2.973 -0.86199999 56
0 0 0 0
0 0 0 0
15.406 2.2609999 -1.4170001 44
15.136 2.2279999 -1.152 58
16.375 2.4189999 -0.98900002 49
19.795 2.9360001 -0.88499999 58
0 0 0 0
45.672001 6.8340001 -0.61299998 41
15.378 2.3529999 -1.471 39
15.032 2.3069999 -1.2 50
15.69 2.4159999 -1.005 51
18.868999 2.9170001 -0.912 52
23.164 3.595 -0.75599998 18
45.255001 7.0539999 -0.76999998 31
15.373 2.45 -1.53 38
14.874 2.3759999 -1.244 56
15.163 2.4300001 -1.028 56
17.913 2.8800001 -0.93199998 52
0 0 0 0
0 0 0 0
14.962 2.4779999 -1.548 6
14.873 2.4690001 -1.302 37
14.98 2.493 -1.074 56
17.291 2.8859999 -0.96600002 54
20.757 3.477 -0.833 55
16.877001 2.836 -0.412 0
14.92 2.5639999 -1.604 22
15.062 2.5929999 -1.3789999 43
15.083 2.6029999 -1.141 50
15.994 2.767 -0.95599997 46
16.577 2.8759999 -0.72899997 62
16.396 2.8540001 -0.463 13
14.783 2.631 -1.651 12
15.135 2.698 -1.447 38
14.939 2.6670001 -1.1900001 60
15.529 2.78 -0.99000001 55
19.816999 3.5580001 -0.94999999 45
0 0 0 0
14.64 2.6949999 -1.696 10
15.072 2.7780001 -1.5039999 48
14.961 2.7620001 -1.2539999 62
15.095 2.793 -1.025 45
0 0 0 0
17.929001 3.335 -0.64999998 72
14.123 2.6860001 -1.698 10
15.02 2.859 -1.564 33
15 2.8599999 -1.321 54
14.962 2.858 -1.079 59
16.76 3.2079999 -0.94199997 22
16.9 3.243 -0.68300003 44
13.699 2.688 -1.709 11
14.863 2.918 -1.613 13
15.055 2.96 -1.392 46
14.991 2.9519999 -1.146 53
15.892 3.135 -0.95999998 60
16.378 3.2379999 -0.73000002 16
13.276 2.684 -1.717 10
14.771 2.9879999 -1.67 12
15.188 3.076 -1.472 41
15.005 3.0420001 -1.2130001 59
15.3 3.1070001 -0.99199998 48
16.228001 3.302 -0.79299998 32
12.846 2.674 -1.722 9
14.32 2.9820001 -1.686 10
15.163 3.1600001 -1.539 46
14.999 3.128 -1.28 57
15.09 3.152 -1.046 50
16.393 3.431 -0.875 8
12.442 2.664 -1.728 11
13.831 2.9619999 -1.694 10
14.959 3.2049999 -1.589 16
15.017 3.2190001 -1.351 57
15.054 3.2309999 -1.113 52
16.052 3.451 -0.92900002 48
12.055 2.651 -1.733 13
13.346 2.934 -1.699 11
14.88 3.273 -1.651 12
15.1 3.323 -1.429 43
15.048 3.3150001 -1.181 49
15.601 3.441 -0.97399998 47
11.669 2.6340001 -1.7359999 14
12.919 2.915 -1.7079999 12
14.483 3.267 -1.676 8
15.158 3.421 -1.507 52
15.061 3.401 -1.253 49
15.108 3.4159999 -1.0140001 50
11.292 2.6129999 -1.737 15
12.515 2.8940001 -1.717 11
13.968 3.2290001 -1.686 9
15.027 3.4749999 -1.567 20
15.085 3.4909999 -1.3279999 57
15.053 3.4860001 -1.081 55
10.962 2.599 -1.742 14
12.131 2.8729999 -1.725 9
13.485 3.1930001 -1.6950001 10
14.95 3.539 -1.632 15
15.333 3.632 -1.425 38
15.079 3.5739999 -1.156 52
10.671 2.5899999 -1.752 13
11.702 2.8369999 -1.726 12
13.034 3.158 -1.705 10
14.58 3.5320001 -1.6670001 8
15.234 3.6919999 -1.492 38
15.084 3.6570001 -1.2309999 51
10.371 2.576 -1.76 12
11.365 2.819 -1.7359999 16
12.574 3.1159999 -1.711 10
14.018 3.4719999 -1.675 7
15.098 3.7409999 -1.556 18
15.257 3.7820001 -1.323 45
10.081 2.5599999 -1.766 12
11.009 2.7909999 -1.742 14
12.151 3.0780001 -1.719 11
13.471 3.4100001 -1.681 9
14.997 3.7950001 -1.623 15
15.24 3.858 -1.399 42
9.8039999 2.5439999 -1.772 11
10.671 2.7639999 -1.747 13
11.76 3.043 -1.728 11
13.026 3.3670001 -1.696 11
14.598 3.773 -1.658 10
15.28 3.9489999 -1.484 39
9.5310001 2.5250001 -1.778 11
10.339 2.734 -1.751 13
11.386 3.007 -1.735 12
12.579 3.3180001 -1.706 11
14.015 3.6949999 -1.6670001 7
15.121 3.9860001 -1.548 21
9.2810001 2.5090001 -1.785 11
10.049 2.711 -1.76 12
11.053 2.977 -1.7460001 15
12.16 3.2709999 -1.716 11
13.481 3.6240001 -1.676 8
15.028 4.0380001 -1.619 14
9.0299997 2.4890001 -1.79 10
9.7580004 2.684 -1.765 12
10.709 2.9400001 -1.753 15
11.736 3.2179999 -1.721 11
12.996 3.5599999 -1.688 11
14.561 3.9860001 -1.647 8
8.7799997 2.4660001 -1.7920001 10
9.493 2.6600001 -1.772 12
10.35 2.8940001 -1.7539999 13
11.361 3.1719999 -1.7309999 11
12.561 3.503 -1.701 11
13.981 3.8959999 -1.659 8
8.5410004 2.444 -1.796 10
9.2270002 2.6329999 -1.778 11
10.025 2.855 -1.757 13
11.005 3.128 -1.74 14
12.109 3.437 -1.7079999 11
13.446 3.8139999 -1.671 9
8.3079996 2.4200001 -1.798 10
8.9770002 2.6070001 -1.784 11
9.7399998 2.822 -1.765 12
10.703 3.095 -1.755 15
11.707 3.3800001 -1.719 11
12.947 3.7349999 -1.682 10
8.0819998 2.395 -1.799 10
8.7200003 2.5769999 -1.786 10
9.4619999 2.789 -1.772 12
10.357 3.046 -1.7589999 13
10.96 3.217 -1.673 15
12.476 3.658 -1.692 9
7.8670001 2.3710001 -1.801 10
8.4860001 2.549 -1.79 10
9.1999998 2.756 -1.778 11
9.9949999 2.987 -1.757 13
10.736 3.2030001 -1.702 16
12.054 3.5910001 -1.704 10
7.6620002 2.3469999 -1.803 10
8.2530003 2.52 -1.793 10
8.9309998 2.7179999 -1.781 10
9.6990004 2.944 -1.763 12
10.609 3.214 -1.744 10
11.481 3.4719999 -1.6900001 11
7.4629998 2.323 -1.804 10
8.026 2.4879999 -1.794 11
8.6879997 2.6849999 -1.786 10
9.4119997 2.901 -1.768 11
10.347 3.1819999 -1.763 13
10.721 3.2920001 -1.642 10
7.283 2.302 -1.808 10
7.809 2.4590001 -1.796 10
8.4540005 2.6530001 -1.7920001 11
9.1490002 2.862 -1.776 11
9.9720001 3.112 -1.761 12
10.534 3.2809999 -1.677 8
7.112 2.2820001 -1.813 10
7.6030002 2.4289999 -1.798 10
8.2080002 2.6129999 -1.7920001 11
8.8830004 2.8199999 -1.78 11
9.6630001 3.059 -1.765 12
10.462 3.3050001 -1.729 9
6.928 2.256 -1.813 9
7.408 2.402 -1.801 10
7.9720001 2.5739999 -1.7920001 11
8.632 2.7780001 -1.784 10
9.3660002 3.006 -1.7690001 12
10.266 3.2880001 -1.7589999 13
6.7729998 2.237 -1.818 9
7.2259998 2.375 -1.8049999 10
7.7620001 2.5409999 -1.795 10
8.3879995 2.737 -1.7869999 10
9.0950003 2.9579999 -1.775 11
9.9180002 3.2179999 -1.76 13
6.5809999 2.2030001 -1.812 10
7.046 2.3469999 -1.807 10
7.5630002 2.51 -1.799 10
8.151 2.6949999 -1.789 10
8.816 2.905 -1.776 11
9.5799999 3.148 -1.76 12
6.4190001 2.178 -1.812 10
6.8800001 2.323 -1.811 10
7.3590002 2.474 -1.799 10
7.9229999 2.6530001 -1.791 10
8.5799999 2.8629999 -1.784 11
9.2969999 3.0940001 -1.767 11
6.27 2.1559999 -1.814 10
6.71 2.2950001 -1.812 9
7.1739998 2.4419999 -1.803 10
7.7119999 2.6140001 -1.794 11
8.3450003 2.819 -1.789 11
9.0340004 3.0420001 -1.774 12
6.1269999 2.1329999 -1.816 10
6.52 2.257 -1.806 10
7.0040002 2.4130001 -1.807 10
7.5019999 2.5739999 -1.795 10
8.0900002 2.7650001 -1.7869999 10
8.7679996 2.987 -1.778 11
5.9749999 2.105 -1.814 10
6.3639998 2.23 -1.808 10
6.8499999 2.3889999 -1.8150001 9
7.3189998 2.5409999 -1.801 10
7.8600001 2.7179999 -1.788 10
8.5050001 2.931 -1.78 11
5.8470001 2.085 -1.818 10
6.2140002 2.2030001 -1.809 10
6.6529999 2.346 -1.808 11
7.132 2.503 -1.803 10
7.6550002 2.6760001 -1.7920001 10
8.2580004 2.8770001 -1.7819999 11
5.7210002 2.0639999 -1.8200001 10
6.0760002 2.1789999 -1.812 10
6.4920001 2.3150001 -1.809 10
6.9640002 2.471 -1.807 10
7.4640002 2.6370001 -1.7970001 11
8.04 2.8299999 -1.7869999 11
5.5900002 2.039 -1.819 10
5.9239998 2.148 -1.809 10
6.335 2.2839999 -1.8099999 10
6.7859998 2.434 -1.808 10
7.263 2.5929999 -1.7970001 9
7.822 2.7809999 -1.79 10
5.4759998 2.02 -1.822 11
5.7919998 2.122 -1.811 10
6.1880002 2.2539999 -1.812 11
6.6110001 2.3959999 -1.807 10
7.0879998 2.556 -1.802 9
7.6139998 2.734 -1.793 11
5.349 1.994 -1.821 10
5.671 2.099 -1.814 10
6.04 2.2219999 -1.811 11
6.4419999 2.3570001 -1.8049999 10
6.921 2.52 -1.807 9
7.4099998 2.6860001 -1.794 10
5.2280002 1.969 -1.819 11
5.552 2.076 -1.816 11
5.9070001 2.1949999 -1.813 10
6.3109999 2.3310001 -1.813 10
6.7399998 2.477 -1.8049999 11
7.1950002 2.632 -1.791 11
5.132 1.952 -1.824 11
5.4359999 2.052 -1.819 11
5.7750001 2.1659999 -1.814 10
6.164 2.2980001 -1.813 10
6.5749998 2.438 -1.806 10
7.0120001 2.5880001 -1.7920001 11
5.0180001 1.927 -1.822 10
5.3150001 2.026 -1.817 11
5.6570001 2.141 -1.818 11
6.0120001 2.2609999 -1.8099999 10
6.4120002 2.398 -1.8049999 10
6.8610001 2.553 -1.799 10
4.9239998 1.908 -1.824 11
5.197 1.998 -1.8150001 11
5.539 2.115 -1.819 11
5.8720002 2.227 -1.8099999 10
6.2709999 2.3640001 -1.808 10
6.6880002 2.5090001 -1.799 11
4.8309999 1.8890001 -1.827 10
5.098 1.977 -1.819 12
5.421 2.0869999 -1.8200001 11
5.7639999 2.204 -1.817 11
6.1259999 2.3280001 -1.808 10
6.54 2.4719999 -1.803 10
