# .PCD v0.7 - Point Cloud Data file format
VERSION 0.7
FIELDS x y z intensity
SIZE 4 4 4 4
TYPE F F F F
COUNT 1 1 1 1
WIDTH 1872
HEIGHT 1
VIEWPOINT 0 0 0 1 0 0 0
POINTS 1872
DATA ascii
35.624001 0.333 -0.99299997 45
35.041 0.36399999 -0.44499999 73
35.314999 0.40200001 0.086999997 52
52.071999 0.64899999 0.91799998 6
54.278999 0.73299998 1.781 49
0 0 0 0
35.013 0.54799998 -1.086 46
31.523001 0.52700001 -0.49900001 1
31.652 0.56099999 -0.021 8
31.389999 0.58700001 0.456 88
31.372 0.61900002 0.93199998 123
0 0 0 0
31.365999 0.68699998 -1.074 54
31.375999 0.71799999 -0.59799999 52
35.546001 0.84899998 -0.13699999 38
40.679001 1.011 0.461 40
40.682999 1.052 1.0779999 36
26.858999 0.72899997 -1.419 5
31.086 0.87400001 -1.17 10
36.409 1.059 -0.81599998 47
40.870998 1.229 -0.29499999 17
40.757 1.266 0.32499999 88
40.757 1.307 0.94400001 27
25.309999 0.84500003 -1.426 5
30.895 1.0599999 -1.27 25
36.053001 1.271 -0.93300003 47
40.861 1.48 -0.43599999 35
40.848 1.518 0.186 44
40.851002 1.558 0.80699998 90
24.195999 0.95499998 -1.45 7
0 0 0 0
35.382999 1.464 -1.0420001 46
36.394001 1.54 -0.51700002 2
72.620003 3.1389999 0.074000001 13
40.956001 1.8099999 0.66399997 44
23.136999 1.053 -1.472 12
28.856001 1.34 -1.395 16
34.382 1.627 -1.137 43
35.686001 1.721 -0.63499999 3
50.250999 2.47 -0.12899999 48
41.084999 2.0580001 0.51899999 52
22.125999 1.141 -1.492 15
26.503 1.3890001 -1.381 5
31.135 1.659 -1.146 6
36.966 2.003 -0.796 52
42.262001 2.329 -0.266 24
41.125999 2.303 0.36700001 58
21.148001 1.215 -1.508 16
25.048 1.462 -1.402 6
31.003 1.835 -1.261 23
36.068001 2.1670001 -0.91500002 49
40.698002 2.4820001 -0.41100001 8
41.141998 2.546 0.20999999 3
20.239 1.283 -1.525 15
23.759001 1.525 -1.424 8
29.634001 1.927 -1.322 29
35.240002 2.3210001 -1.0319999 47
0 0 0 0
67.916 4.5970001 0.082999997 4
19.416 1.344 -1.5420001 14
22.705999 1.59 -1.454 17
0 0 0 0
32.425999 2.3239999 -1.081 7
37.832001 2.743 -0.68099999 53
53.192001 3.9030001 -0.145 8
18.642 1.397 -1.559 12
21.629 1.638 -1.475 16
26.236 2.007 -1.3839999 5
31.447001 2.4330001 -1.178 16
36.118 2.825 -0.79900002 49
42.743 3.3789999 -0.29100001 16
17.872 1.442 -1.571 11
20.636 1.6799999 -1.495 15
24.601 2.0220001 -1.403 6
30.847 2.5599999 -1.285 28
35.604 2.983 -0.935 47
38.787998 3.2839999 -0.426 2
17.181999 1.484 -1.587 11
19.712 1.717 -1.515 14
23.283001 2.0450001 -1.4299999 10
29.278 2.5940001 -1.346 16
32.580002 2.9119999 -0.99699998 1
36.124001 3.2590001 -0.551 8
16.544001 1.521 -1.603 10
18.892 1.75 -1.5369999 13
22.153999 2.069 -1.459 17
26.893 2.5309999 -1.355 5
32.049 3.0409999 -1.1210001 9
36.606998 3.503 -0.71799999 52
15.948 1.5549999 -1.619 12
18.049 1.772 -1.551 12
21.076 2.085 -1.484 16
25.1 2.5 -1.378 5
31.221001 3.1340001 -1.232 23
35.414001 3.5829999 -0.85299999 46
15.387 1.586 -1.635 11
17.302 1.794 -1.569 11
20.068001 2.0940001 -1.506 14
23.694 2.4879999 -1.41 6
0 0 0 0
34.763 3.7019999 -0.99400002 44
14.809 1.607 -1.646 12
16.636 1.814 -1.587 10
19.106001 2.096 -1.524 13
22.422001 2.4749999 -1.4400001 13
27.385 3.043 -1.334 5
32.118999 3.5910001 -1.067 3
14.243 1.62 -1.652 12
16.017 1.832 -1.6059999 10
18.254 2.099 -1.544 12
21.238001 2.4560001 -1.465 16
25.393999 2.954 -1.357 5
31.34 3.668 -1.189 19
13.705 1.632 -1.659 11
15.416 1.844 -1.622 11
17.441999 2.0969999 -1.562 11
20.171 2.438 -1.49 15
23.841 2.8970001 -1.3890001 6
0 0 0 0
13.24 1.646 -1.67 12
14.811 1.849 -1.6339999 12
16.739 2.099 -1.582 10
19.205 2.4189999 -1.513 13
22.554001 2.855 -1.424 11
27.436001 3.4909999 -1.3049999 4
12.798 1.6569999 -1.681 14
14.24 1.85 -1.6440001 11
16.076 2.0969999 -1.601 11
18.315001 2.4000001 -1.535 12
21.375999 2.813 -1.456 16
25.639 3.391 -1.347 5
12.292 1.654 -1.6799999 12
13.69 1.848 -1.652 12
15.448 2.0929999 -1.618 12
17.462 2.375 -1.554 11
20.268999 2.7690001 -1.485 15
23.934 3.2850001 -1.3789999 5
11.909 1.663 -1.692 12
13.176 1.845 -1.661 12
14.834 2.0840001 -1.633 11
16.75 2.362 -1.5779999 10
19.23 2.7219999 -1.508 13
22.502001 3.197 -1.411 10
11.513 1.664 -1.699 11
12.671 1.837 -1.666 12
14.237 2.0699999 -1.6440001 11
16.034 2.3380001 -1.595 9
18.240999 2.6689999 -1.526 12
21.302999 3.131 -1.448 16
11.143 1.666 -1.707 10
12.212 1.83 -1.673 12
13.669 2.053 -1.653 11
15.396 2.319 -1.615 10
17.419001 2.632 -1.551 11
20.143 3.0550001 -1.476 15
10.772 1.6619999 -1.712 10
11.843 1.831 -1.689 12
13.135 2.036 -1.661 12
14.765 2.2950001 -1.631 11
16.674 2.599 -1.576 10
19.08 2.984 -1.501 13
10.435 1.66 -1.719 10
11.42 1.8200001 -1.694 12
12.623 2.016 -1.668 11
14.151 2.2650001 -1.642 12
15.915 2.5550001 -1.592 9
18.136 2.9200001 -1.526 12
10.118 1.6569999 -1.726 11
11.036 1.8099999 -1.701 12
12.17 1.999 -1.677 12
13.561 2.233 -1.65 11
15.26 2.5179999 -1.6109999 10
17.302999 2.8629999 -1.551 11
9.8179998 1.653 -1.733 11
10.686 1.801 -1.709 11
11.743 1.982 -1.686 11
13.021 2.2019999 -1.6569999 11
14.649 2.4820001 -1.6289999 11
16.540001 2.8099999 -1.574 10
9.5220003 1.646 -1.738 11
10.343 1.79 -1.716 12
11.335 1.964 -1.694 11
12.507 2.1700001 -1.665 11
14.029 2.4400001 -1.641 11
15.801 2.7539999 -1.594 10
9.2329998 1.638 -1.742 11
10.007 1.776 -1.721 11
10.954 1.947 -1.7029999 11
12.051 2.145 -1.676 11
13.438 2.3959999 -1.65 11
15.131 2.7030001 -1.614 10
8.9700003 1.631 -1.748 11
9.6929998 1.763 -1.727 11
10.591 1.928 -1.711 11
11.631 2.1199999 -1.687 10
12.891 2.3529999 -1.659 11
14.456 2.6429999 -1.626 11
8.7119999 1.622 -1.753 11
9.4119997 1.753 -1.735 11
10.23 1.906 -1.715 11
11.214 2.0910001 -1.694 11
12.374 2.3099999 -1.666 11
13.857 2.5910001 -1.641 11
8.467 1.613 -1.7589999 11
9.1219997 1.737 -1.739 11
9.9180002 1.89 -1.725 11
10.836 2.066 -1.704 11
11.935 2.2780001 -1.6799999 11
13.276 2.5369999 -1.651 11
8.2309999 1.603 -1.763 11
8.8509998 1.723 -1.745 11
9.5979996 1.868 -1.729 11
10.462 2.0369999 -1.71 11
11.499 2.24 -1.688 10
12.724 2.4820001 -1.66 10
8.0120001 1.5930001 -1.7690001 10
8.5950003 1.7079999 -1.75 11
9.3100004 1.85 -1.737 11
10.129 2.013 -1.719 11
11.072 2.2019999 -1.6950001 11
12.231 2.434 -1.67 10
7.8010001 1.5829999 -1.774 10
8.3409996 1.691 -1.753 10
9.0240002 1.8279999 -1.7410001 11
9.79 1.984 -1.724 11
10.703 2.1700001 -1.705 11
11.762 2.3859999 -1.679 10
7.6059999 1.573 -1.781 10
8.1300001 1.6799999 -1.762 11
8.7609997 1.809 -1.748 11
9.4750004 1.956 -1.729 11
10.324 2.132 -1.71 11
11.331 2.342 -1.689 10
7.4219999 1.5650001 -1.789 10
7.9299998 1.67 -1.773 11
8.5059996 1.789 -1.7539999 11
9.1859999 1.932 -1.737 10
9.9680004 2.096 -1.716 11
10.915 2.296 -1.696 11
7.2340002 1.553 -1.794 10
7.704 1.651 -1.774 10
8.2539997 1.767 -1.757 11
8.908 1.906 -1.742 11
9.6520004 2.0650001 -1.724 10
10.552 2.2579999 -1.707 10
7.026 1.534 -1.791 10
7.5110002 1.638 -1.781 10
8.0410004 1.751 -1.766 11
8.6420002 1.881 -1.748 11
9.3459997 2.033 -1.73 10
10.189 2.2160001 -1.714 11
6.8800001 1.528 -1.803 9
7.316 1.622 -1.786 10
7.8249998 1.732 -1.772 10
8.3760004 1.852 -1.751 11
9.0539999 2.0009999 -1.7359999 10
9.8330002 2.1730001 -1.7180001 10
6.671 1.506 -1.796 10
7.1459999 1.609 -1.795 9
7.6139998 1.712 -1.776 10
8.1520004 1.831 -1.7589999 10
8.7919998 1.973 -1.744 11
9.5170002 2.135 -1.725 10
6.5110002 1.492 -1.8 10
6.9310002 1.585 -1.79 10
7.4310002 1.696 -1.785 10
7.9289999 1.807 -1.765 10
8.5410004 1.9450001 -1.752 11
9.2189999 2.098 -1.732 10
6.355 1.479 -1.803 11
6.737 1.563 -1.788 9
7.2449999 1.678 -1.791 10
7.7270002 1.786 -1.773 10
8.2919998 1.915 -1.757 11
8.9370003 2.062 -1.739 10
6.1989999 1.4630001 -1.804 10
6.5869999 1.55 -1.795 9
7.0419998 1.654 -1.791 10
7.5310001 1.765 -1.78 10
8.052 1.885 -1.761 11
8.6669998 2.027 -1.745 11
6.0479999 1.447 -1.806 11
6.4219999 1.5319999 -1.7970001 10
6.8649998 1.6339999 -1.795 10
7.3439999 1.744 -1.7869999 10
7.842 1.86 -1.7690001 10
8.4130001 1.993 -1.751 11
5.9029999 1.432 -1.807 10
6.2649999 1.515 -1.8 11
6.6729999 1.609 -1.793 11
7.1490002 1.72 -1.791 9
7.6269999 1.831 -1.774 10
8.1689997 1.959 -1.755 10
5.7729998 1.418 -1.811 10
6.1020002 1.494 -1.798 11
6.5110002 1.589 -1.7970001 10
6.9629998 1.6950001 -1.794 9
7.4489999 1.8099999 -1.785 10
7.948 1.928 -1.763 10
5.6360002 1.402 -1.811 10
5.9590001 1.477 -1.801 11
6.362 1.572 -1.802 10
6.777 1.67 -1.794 10
7.2579999 1.784 -1.79 10
7.7410002 1.9 -1.77 10
5.507 1.386 -1.812 10
5.8239999 1.46 -1.804 10
6.2020001 1.55 -1.803 10
6.6020002 1.645 -1.796 11
7.0450001 1.751 -1.7869999 10
7.5409999 1.8710001 -1.777 10
5.3860002 1.3710001 -1.814 10
5.698 1.4450001 -1.808 10
6.0450001 1.527 -1.802 10
6.4390001 1.622 -1.798 11
6.8639998 1.724 -1.79 10
7.3260002 1.836 -1.778 11
5.2750001 1.358 -1.818 10
5.5640001 1.426 -1.807 10
5.915 1.51 -1.807 11
6.289 1.6 -1.802 11
6.6919999 1.698 -1.793 10
7.138 1.807 -1.783 10
5.1630001 1.3430001 -1.8200001 10
5.4439998 1.41 -1.811 10
5.77 1.488 -1.806 11
6.1290002 1.575 -1.801 10
6.533 1.674 -1.798 11
6.9520001 1.776 -1.785 10
5.0609999 1.329 -1.824 9
5.3260002 1.392 -1.812 9
5.6430001 1.469 -1.809 10
5.987 1.553 -1.804 10
6.3670001 1.646 -1.798 10
6.7810001 1.748 -1.789 10
4.9489999 1.313 -1.824 10
5.2140002 1.376 -1.8150001 11
5.5089998 1.447 -1.808 12
5.8369999 1.527 -1.802 11
6.2080002 1.619 -1.799 10
6.6009998 1.717 -1.789 11
4.8379998 1.295 -1.822 9
5.1090002 1.36 -1.819 10
5.3930001 1.429 -1.811 11
5.7210002 1.51 -1.809 10
6.0539999 1.592 -1.798 10
6.454 1.692 -1.795 10
4.7459998 1.2819999 -1.825 9
5.0079999 1.345 -1.822 10
5.2849998 1.4119999 -1.8150001 10
5.5799999 1.485 -1.806 11
5.9159999 1.568 -1.8 11
6.2989998 1.664 -1.7970001 11
4.6550002 1.268 -1.8279999 9
4.9050002 1.3279999 -1.823 11
5.177 1.3940001 -1.818 11
5.4710002 1.467 -1.812 12
5.7909999 1.546 -1.8049999 11
6.1339998 1.632 -1.794 10
4.5630002 1.252 -1.829 9
4.803 1.3099999 -1.823 10
5.0760002 1.378 -1.822 10
5.3470001 1.444 -1.811 11
5.6469998 1.518 -1.801 11
6.0009999 1.608 -1.798 10
4.4850001 1.24 -1.834 9
4.7160001 1.296 -1.8279999 10
4.9780002 1.36 -1.825 11
5.243 1.425 -1.8150001 11
5.5229998 1.495 -1.802 11
5.8590002 1.58 -1.798 11
4.401 1.226 -1.836 9
4.618 1.278 -1.827 10
4.8649998 1.3380001 -1.821 10
5.1350002 1.405 -1.817 11
5.4159999 1.475 -1.808 11
5.717 1.551 -1.796 11
4.3210001 1.212 -1.839 10
4.5359998 1.2640001 -1.831 10
4.7750001 1.322 -1.825 10
5.0359998 1.387 -1.8200001 11
5.303 1.4529999 -1.809 11
5.599 1.527 -1.8 11
4.2379999 1.197 -1.839 9
4.4559999 1.249 -1.834 9
4.6869998 1.306 -1.8279999 10
4.9349999 1.367 -1.822 10
5.164 1.423 -1.8 10
5.473 1.501 -1.799 11
4.1500001 1.179 -1.835 9
4.3660002 1.2309999 -1.8329999 10
4.5970001 1.288 -1.829 10
4.8400002 1.348 -1.823 10
5.099 1.4119999 -1.816 11
5.3460002 1.473 -1.796 11
4.0780001 1.165 -1.837 9
4.2839999 1.215 -1.8329999 10
4.506 1.2690001 -1.829 9
4.7459998 1.3279999 -1.824 10
4.9959998 1.39 -1.816 11
5.2480001 1.4529999 -1.801 10
4 1.149 -1.836 9
4.21 1.2 -1.836 10
4.4289999 1.253 -1.832 11
4.658 1.3099999 -1.826 9
4.9060001 1.3710001 -1.8200001 11
5.1589999 1.434 -1.808 10
3.937 1.136 -1.839 9
4.1399999 1.1849999 -1.8380001 10
4.3540001 1.237 -1.835 10
4.5679998 1.289 -1.825 9
4.8179998 1.351 -1.823 11
5.079 1.4170001 -1.817 11
3.868 1.122 -1.839 9
4.0650001 1.169 -1.837 10
4.2719998 1.219 -1.834 10
4.4920001 1.273 -1.829 9
4.724 1.33 -1.823 10
4.98 1.3940001 -1.817 11
3.802 1.107 -1.84 9
3.997 1.154 -1.839 10
4.1999998 1.2029999 -1.836 10
4.4130001 1.255 -1.83 10
4.6339998 1.309 -1.822 10
4.8920002 1.373 -1.8200001 10
3.7449999 1.095 -1.844 9
3.921 1.136 -1.836 10
4.1300001 1.187 -1.8380001 10
4.335 1.237 -1.832 10
4.5500002 1.289 -1.823 10
4.7950001 1.35 -1.819 9
3.6889999 1.0829999 -1.847 8
3.855 1.1210001 -1.837 10
4.0570002 1.169 -1.837 10
4.2639999 1.22 -1.834 10
4.4829998 1.273 -1.829 10
4.7179999 1.331 -1.823 9
3.619 1.066 -1.842 8
3.8010001 1.108 -1.841 9
3.983 1.151 -1.835 10
4.1890001 1.201 -1.8329999 10
4.401 1.252 -1.827 10
4.625 1.307 -1.8200001 10
3.5599999 1.051 -1.842 8
3.74 1.0930001 -1.842 10
3.9189999 1.135 -1.835 9
4.132 1.187 -1.8380001 10
4.3330002 1.235 -1.83 10
4.5510001 1.288 -1.823 10
3.513 1.04 -1.847 9
3.6800001 1.0779999 -1.841 9
3.8570001 1.12 -1.836 10
4.0560002 1.1670001 -1.835 10
4.2649999 1.2180001 -1.8329999 10
4.4809999 1.27 -1.827 9
3.4549999 1.025 -1.845 9
3.6259999 1.0650001 -1.844 9
3.806 1.1059999 -1.841 10
3.994 1.151 -1.837 9
4.191 1.197 -1.831 10
4.408 1.25 -1.8279999 10
3.408 1.013 -1.847 8
3.5799999 1.052 -1.848 9
3.747 1.09 -1.84 10
3.9360001 1.135 -1.839 9
4.1329999 1.182 -1.835 10
4.3379998 1.2309999 -1.829 9
3.3529999 0.99800003 -1.845 8
3.517 1.035 -1.8430001 9
3.6949999 1.076 -1.8430001 8
3.8629999 1.114 -1.834 9
4.0650001 1.1619999 -1.834 10
4.2690001 1.211 -1.83 9
3.309 0.986 -1.848 8
3.4719999 1.023 -1.847 9
3.6370001 1.0599999 -1.842 9
3.812 1.1 -1.837 9
4.006 1.145 -1.835 9
4.2059999 1.192 -1.831 9
3.2639999 0.97299999 -1.849 8
3.4260001 1.0089999 -1.849 9
3.5910001 1.046 -1.845 8
3.7609999 1.085 -1.839 9
3.9460001 1.127 -1.835 10
4.1459999 1.175 -1.8329999 9
3.211 0.958 -1.845 7
3.3759999 0.995 -1.848 9
3.5350001 1.03 -1.8430001 8
3.7030001 1.067 -1.837 8
3.885 1.109 -1.834 9
4.085 1.156 -1.8329999 9
3.168 0.94499999 -1.846 8
3.332 0.98100001 -1.849 8
3.4879999 1.015 -1.844 9
3.658 1.053 -1.841 9
3.8269999 1.091 -1.8329999 9
4.027 1.138 -1.834 9
3.1259999 0.93199998 -1.846 8
3.2809999 0.96499997 -1.846 8
3.4489999 1.003 -1.848 9
3.6110001 1.038 -1.842 9
3.776 1.075 -1.8329999 8
3.9690001 1.119 -1.8329999 9
3.092 0.921 -1.85 7
3.24 0.95200002 -1.847 8
3.3989999 0.98699999 -1.845 9
3.563 1.023 -1.842 9
3.7320001 1.0599999 -1.837 8
3.9189999 1.102 -1.835 9
3.0510001 0.90799999 -1.849 7
3.2 0.93900001 -1.847 8
3.359 0.97299999 -1.847 8
3.523 1.0089999 -1.845 9
3.678 1.0420001 -1.834 8
3.8640001 1.084 -1.8329999 9
3.0090001 0.89399999 -1.846 7
3.1570001 0.92500001 -1.846 8
3.3150001 0.95899999 -1.847 9
3.4790001 0.99400002 -1.845 9
3.641 1.029 -1.839 8
3.8139999 1.066 -1.834 9
2.98 0.884 -1.851 6
3.125 0.91299999 -1.849 8
3.2750001 0.94400001 -1.846 8
3.4300001 0.977 -1.842 8
3.5999999 1.0140001 -1.842 8
3.77 1.05 -1.836 9
0 0 0 0
3.085 0.89899999 -1.847 8
3.237 0.93099999 -1.847 8
3.3889999 0.96200001 -1.842 8
3.556 0.99800003 -1.841 8
3.72 1.0319999 -1.834 8
1.612 0.47499999 -1.025 6
3.0469999 0.88599998 -1.846 7
3.2 0.917 -1.847 8
3.3529999 0.94800001 -1.844 8
3.517 0.98199999 -1.8430001 8
3.6900001 1.0190001 -1.841 8
1.533 0.45100001 -0.986 5
3.017 0.87400001 -1.848 7
3.161 0.90200001 -1.846 8
3.3199999 0.935 -1.847 8
3.4749999 0.96700001 -1.842 8
3.652 1.0039999 -1.8430001 8
1.503 0.44100001 -0.977 4
2.9860001 0.861 -1.849 7
3.1300001 0.889 -1.847 8
3.2839999 0.92000002 -1.847 8
3.441 0.95200002 -1.8430001 8
3.6099999 0.98699999 -1.842 8
0 0 0 0
1.51 0.43399999 -0.94499999 0
3.096 0.87599999 -1.846 8
3.247 0.90499997 -1.845 7
3.4030001 0.93599999 -1.842 8
3.5699999 0.97100002 -1.841 8
0 0 0 0
1.705 0.48699999 -1.0779999 12
3.069 0.86400002 -1.849 7
3.2130001 0.89099997 -1.844 8
3.372 0.92299998 -1.844 8
3.533 0.95499998 -1.841 8
0 0 0 0
1.563 0.44400001 -0.99800003 5
3.0350001 0.84899998 -1.846 7
3.1830001 0.87699997 -1.845 8
3.3380001 0.90799999 -1.844 9
3.4960001 0.93800002 -1.841 8
0 0 0 0
1.535 0.43399999 -0.98900002 4
3.013 0.838 -1.85 8
3.152 0.86299998 -1.845 8
3.303 0.89200002 -1.8430001 9
3.4630001 0.92299998 -1.841 8
0 0 0 0
1.513 0.42500001 -0.98400003 3
2.9860001 0.82499999 -1.85 7
3.1259999 0.85000002 -1.846 8
3.2780001 0.87900001 -1.845 8
3.441 0.91000003 -1.846 8
0 0 0 0
0 0 0 0
2.9519999 0.81 -1.845 16
3.099 0.83700001 -1.847 7
3.244 0.86299998 -1.842 8
3.4030001 0.89300001 -1.842 8
0 0 0 0
0 0 0 0
0 0 0 0
3.075 0.824 -1.847 7
3.22 0.85000002 -1.844 8
3.3789999 0.87900001 -1.844 8
0 0 0 0
0 0 0 0
1.604 0.433 -1.0190001 3
3.0439999 0.80900002 -1.8430001 7
3.1949999 0.83600003 -1.844 8
3.349 0.86400002 -1.8430001 7
0 0 0 0
0 0 0 0
1.558 0.417 -0.99699998 2
3.0220001 0.796 -1.844 7
3.1670001 0.82099998 -1.842 7
3.3239999 0.84899998 -1.8430001 8
0 0 0 0
0 0 0 0
1.527 0.405 -0.98500001 2
3.0020001 0.78299999 -1.846 6
3.141 0.80599999 -1.84 8
3.302 0.83499998 -1.845 8
0 0 0 0
0 0 0 0
1.503 0.39500001 -0.97600001 2
2.98 0.76999998 -1.844 6
3.1270001 0.79500002 -1.845 7
3.28 0.81999999 -1.845 8
0 0 0 0
0 0 0 0
1.479 0.38499999 -0.96700001 2
1.546 0.39500001 -0.963 0
3.1059999 0.78100002 -1.845 7
3.26 0.80699998 -1.846 8
0 0 0 0
0 0 0 0
1.4579999 0.37599999 -0.95899999 3
0 0 0 0
3.0829999 0.76599997 -1.842 7
3.2360001 0.79100001 -1.844 7
0 0 0 0
0 0 0 0
0 0 0 0
0 0 0 0
3.072 0.755 -1.846 7
3.22 0.778 -1.845 7
0 0 0 0
0 0 0 0
0 0 0 0
1.6059999 0.39700001 -1.018 1
3.0539999 0.741 -1.845 7
3.201 0.76300001 -1.844 7
0 0 0 0
0 0 0 0
0 0 0 0
1.557 0.38 -0.99199998 1
3.039 0.72799999 -1.846 7
3.181 0.74900001 -1.842 7
1.211 0.31099999 -0.89600003 12
0 0 0 0
0 0 0 0
1.541 0.37099999 -0.986 2
3.027 0.71499997 -1.847 7
3.1700001 0.736 -1.844 7
0 0 0 0
0 0 0 0
0 0 0 0
1.523 0.36199999 -0.97899997 2
3.0109999 0.70200002 -1.845 7
3.1600001 0.72299999 -1.846 8
0 0 0 0
0 0 0 0
0 0 0 0
1.51 0.35299999 -0.97399998 2
3.003 0.68900001 -1.847 7
3.148 0.70899999 -1.846 8
0 0 0 0
0 0 0 0
0 0 0 0
1.499 0.34599999 -0.97100002 2
2.9920001 0.676 -1.846 7
3.1289999 0.69400001 -1.841 7
0 0 0 0
0 0 0 0
0 0 0 0
1.49 0.338 -0.96700001 2
2.9860001 0.66399997 -1.848 6
3.1229999 0.68199998 -1.844 7
0 0 0 0
0 0 0 0
0 0 0 0
1.485 0.33199999 -0.96700001 2
2.9679999 0.64899999 -1.842 7
3.1170001 0.66900003 -1.845 7
0 0 0 0
0 0 0 0
0 0 0 0
1.472 0.32300001 -0.96100003 2
1.573 0.338 -0.97899997 0
3.112 0.65600002 -1.846 7
0 0 0 0
0 0 0 0
0 0 0 0
1.467 0.31600001 -0.95899999 2
2.9579999 0.625 -1.844 8
3.108 0.64300001 -1.847 7
0 0 0 0
0 0 0 0
0 0 0 0
1.46 0.30899999 -0.95599997 2
0 0 0 0
3.0999999 0.62900001 -1.846 7
0 0 0 0
0 0 0 0
0 0 0 0
1.4579999 0.303 -0.95599997 2
0 0 0 0
3.095 0.616 -1.845 7
0 0 0 0
0 0 0 0
0 0 0 0
1.454 0.296 -0.954 2
0 0 0 0
3.0940001 0.60299999 -1.845 7
0 0 0 0
0 0 0 0
0 0 0 0
1.4529999 0.28999999 -0.954 2
2.027 0.39500001 -1.268 7
3.098 0.59100002 -1.848 7
0 0 0 0
0 0 0 0
0 0 0 0
1.454 0.28400001 -0.954 2
0 0 0 0
3.096 0.57800001 -1.847 6
0 0 0 0
0 0 0 0
0 0 0 0
1.449 0.27700001 -0.94999999 2
2.0339999 0.37900001 -1.272 3
3.098 0.565 -1.848 7
0 0 0 0
0 0 0 0
0 0 0 0
1.45 0.27000001 -0.94999999 2
2.0439999 0.37200001 -1.277 4
3.099 0.55199999 -1.847 6
0 0 0 0
0 0 0 0
0 0 0 0
1.459 0.266 -0.95499998 2
2.0969999 0.373 -1.309 6
3.098 0.53799999 -1.844 7
0 0 0 0
0 0 0 0
0 0 0 0
1.461 0.25999999 -0.95499998 2
0 0 0 0
3.108 0.52600002 -1.848 7
0 0 0 0
0 0 0 0
0 0 0 0
1.466 0.25400001 -0.95700002 2
2.9579999 0.5 -1.84 11
3.1140001 0.514 -1.848 7
0 0 0 0
0 0 0 0
0 0 0 0
1.472 0.249 -0.958 2
2.9749999 0.48899999 -1.846 9
3.1259999 0.50199997 -1.851 7
0 0 0 0
0 0 0 0
0 0 0 0
1.483 0.243 -0.96200001 2
1.576 0.252 -0.97500002 0
3.128 0.48800001 -1.847 7
0 0 0 0
0 0 0 0
0 0 0 0
1.4910001 0.23800001 -0.96499997 2
2.994 0.46599999 -1.848 7
3.1400001 0.47600001 -1.848 7
0 0 0 0
0 0 0 0
0 0 0 0
1.501 0.233 -0.96799999 2
3.0039999 0.45300001 -1.848 7
3.1470001 0.46200001 -1.847 7
0 0 0 0
0 0 0 0
0 0 0 0
1.5089999 0.227 -0.97000003 2
3.0179999 0.44100001 -1.85 7
3.164 0.44999999 -1.849 7
0 0 0 0
0 0 0 0
0 0 0 0
1.5190001 0.221 -0.972 2
3.0309999 0.42899999 -1.85 7
3.177 0.43799999 -1.85 7
0 0 0 0
0 0 0 0
1.398 0.20299999 -0.935 5
1.536 0.21699999 -0.97899997 2
3.0439999 0.417 -1.85 7
3.191 0.42500001 -1.849 7
0 0 0 0
0 0 0 0
1.413 0.199 -0.94 5
1.5599999 0.213 -0.98900002 1
3.063 0.405 -1.852 7
3.204 0.412 -1.848 7
0 0 0 0
0 0 0 0
1.42 0.193 -0.94 4
1.574 0.207 -0.99299997 1
3.076 0.39300001 -1.851 7
3.2260001 0.40000001 -1.852 7
0 0 0 0
0 0 0 0
1.436 0.18799999 -0.94499999 3
1.673 0.212 -1.05 1
3.0899999 0.38 -1.849 7
3.2379999 0.38699999 -1.848 8
0 0 0 0
0 0 0 0
1.454 0.184 -0.95200002 3
0 0 0 0
3.115 0.36899999 -1.853 6
3.263 0.375 -1.852 7
0 0 0 0
0 0 0 0
1.467 0.178 -0.954 3
2.987 0.352 -1.852 7
3.1300001 0.35600001 -1.851 7
3.286 0.36199999 -1.853 7
0 0 0 0
0 0 0 0
1.492 0.17399999 -0.96399999 2
3.0150001 0.34 -1.858 6
3.151 0.34400001 -1.852 7
3.3069999 0.34900001 -1.853 8
0 0 0 0
0 0 0 0
1.517 0.17 -0.97399998 2
3.0309999 0.32800001 -1.855 6
3.1730001 0.33199999 -1.852 7
3.3310001 0.336 -1.853 7
0 0 0 0
1.395 0.156 -0.93300003 6
1.54 0.16500001 -0.98100001 2
3.0539999 0.31600001 -1.8559999 7
3.1960001 0.31900001 -1.852 8
3.352 0.32300001 -1.852 7
0 0 0 0
0 0 0 0
1.571 0.161 -0.99400002 1
3.0799999 0.30500001 -1.858 7
3.2219999 0.30700001 -1.853 7
3.3789999 0.31099999 -1.853 7
0 0 0 0
1.437 0.147 -0.94700003 6
1.636 0.16 -1.027 1
3.096 0.292 -1.853 6
3.2490001 0.29499999 -1.854 8
3.404 0.29699999 -1.852 8
0 0 0 0
1.457 0.142 -0.95200002 5
0 0 0 0
3.1229999 0.28 -1.854 7
3.2709999 0.28200001 -1.851 7
3.4389999 0.285 -1.855 7
0 0 0 0
1.484 0.13699999 -0.96100003 4
3.0150001 0.26699999 -1.862 7
3.154 0.26800001 -1.8559999 7
3.3010001 0.26899999 -1.853 8
3.4630001 0.271 -1.852 8
0 0 0 0
1.5140001 0.133 -0.972 3
3.0369999 0.255 -1.859 7
3.181 0.25600001 -1.8559999 8
3.335 0.257 -1.855 8
3.4990001 0.259 -1.855 8
1.396 0.121 -0.93199998 6
1.551 0.12899999 -0.98699999 2
3.0610001 0.243 -1.857 7
3.2130001 0.244 -1.858 7
3.3670001 0.244 -1.8559999 8
3.5320001 0.245 -1.855 8
1.423 0.117 -0.94099998 5
1.596 0.125 -1.006 2
3.095 0.23199999 -1.86 7
3.2390001 0.23100001 -1.855 7
3.3959999 0.23100001 -1.854 8
3.5669999 0.23199999 -1.855 8
1.4400001 0.112 -0.94300002 4
0 0 0 0
3.128 0.22 -1.8609999 7
3.2709999 0.219 -1.855 7
3.4300001 0.219 -1.854 8
3.5999999 0.21799999 -1.854 8
1.483 0.108 -0.96100003 4
3.013 0.20900001 -1.862 6
3.1559999 0.208 -1.859 7
3.3110001 0.207 -1.859 7
3.47 0.206 -1.857 8
3.6359999 0.205 -1.853 8
1.511 0.103 -0.97000003 2
3.0420001 0.197 -1.8609999 7
3.187 0.19599999 -1.858 7
3.345 0.19400001 -1.859 8
3.506 0.193 -1.8559999 8
3.671 0.192 -1.851 8
1.551 0.098999999 -0.98500001 2
3.069 0.185 -1.858 7
3.2219999 0.184 -1.859 8
3.3840001 0.182 -1.8609999 8
3.5409999 0.18000001 -1.855 9
3.714 0.178 -1.852 8
1.686 0.1 -1.0599999 2
3.1129999 0.17399999 -1.864 7
3.256 0.17200001 -1.859 7
3.4159999 0.17 -1.858 8
3.576 0.167 -1.853 8
3.7609999 0.16500001 -1.855 9
2.993 0.16500001 -1.8609999 15
3.1440001 0.163 -1.862 7
3.2939999 0.16 -1.859 8
3.46 0.15700001 -1.86 8
3.619 0.154 -1.853 9
3.8010001 0.15099999 -1.853 8
3.0220001 0.153 -1.857 7
3.177 0.15099999 -1.8609999 8
3.3329999 0.148 -1.86 9
3.5 0.145 -1.86 8
3.6619999 0.141 -1.853 8
3.8469999 0.138 -1.853 9
3.066 0.14300001 -1.862 7
3.217 0.139 -1.862 8
3.3770001 0.13600001 -1.863 8
3.5380001 0.132 -1.858 8
3.7060001 0.12800001 -1.853 8
3.891 0.124 -1.851 9
3.1040001 0.131 -1.864 7
3.2539999 0.127 -1.8609999 8
3.414 0.123 -1.8609999 8
3.5799999 0.119 -1.858 8
3.75 0.115 -1.852 8
3.9319999 0.11 -1.847 9
3.1359999 0.12 -1.86 7
3.2920001 0.116 -1.86 8
3.457 0.111 -1.8609999 9
3.622 0.106 -1.8559999 9
3.7969999 0.102 -1.851 8
3.9860001 0.096000001 -1.848 9
3.178 0.108 -1.8609999 7
3.3329999 0.104 -1.86 8
3.4990001 0.098999999 -1.859 8
3.6719999 0.093999997 -1.858 8
3.8469999 0.088 -1.851 9
4.0370002 0.082000002 -1.847 9
3.2219999 0.097000003 -1.863 8
3.3789999 0.092 -1.862 8
3.5480001 0.086000003 -1.8609999 9
3.724 0.081 -1.859 8
3.8970001 0.075000003 -1.85 9
4.0999999 0.068999998 -1.851 9
3.2590001 0.085000001 -1.8609999 7
3.4260001 0.079999998 -1.863 8
3.602 0.074000001 -1.865 9
3.7690001 0.068000004 -1.857 9
3.9449999 0.061000001 -1.848 9
4.1570001 0.055 -1.85 9
3.303 0.074000001 -1.8609999 8
3.467 0.068000004 -1.86 8
3.6440001 0.061999999 -1.8609999 8
3.8180001 0.055 -1.855 9
4.0040002 0.048 -1.849 9
4.2199998 0.041000001 -1.851 9
3.3469999 0.061999999 -1.8609999 7
3.52 0.056000002 -1.863 9
3.698 0.048999999 -1.863 9
3.872 0.041999999 -1.855 9
4.073 0.035 -1.854 9
4.2800002 0.027000001 -1.85 9
3.3970001 0.050999999 -1.863 8
3.566 0.044 -1.862 9
3.747 0.037 -1.8609999 8
3.9219999 0.028999999 -1.852 9
4.1300001 0.021 -1.853 10
4.349 0.012 -1.852 9
3.447 0.039000001 -1.864 7
3.619 0.032000002 -1.863 10
3.7969999 0.024 -1.859 10
3.98 0.016000001 -1.852 9
4.1890001 0.0070000002 -1.851 10
4.4070001 -0.001 -1.848 10
3.497 0.028000001 -1.864 8
3.671 0.02 -1.862 9
3.8510001 0.012 -1.857 9
4.0370002 0.003 -1.851 9
4.2529998 -0.0060000001 -1.851 10
4.487 -0.015 -1.852 10
3.5439999 0.016000001 -1.862 8
3.7290001 0.0080000004 -1.864 9
3.902 0 -1.854 9
4.112 -0.0089999996 -1.8559999 10
4.323 -0.018999999 -1.852 10
4.5549998 -0.029999999 -1.849 10
3.6010001 0.0040000002 -1.864 9
3.783 -0.0040000002 -1.862 9
3.964 -0.013 -1.855 9
4.1760001 -0.023 -1.855 9
4.3940001 -0.033 -1.852 10
4.6240001 -0.044 -1.846 10
3.655 -0.0070000002 -1.863 8
3.8380001 -0.016000001 -1.86 10
4.0250001 -0.026000001 -1.853 10
4.244 -0.035999998 -1.855 10
4.467 -0.046999998 -1.851 10
4.7020001 -0.059 -1.845 10
3.7060001 -0.018999999 -1.86 9
3.8929999 -0.028000001 -1.857 9
4.0949998 -0.039000001 -1.855 10
4.3130002 -0.050000001 -1.854 10
4.5380001 -0.061000001 -1.849 10
4.79 -0.074000001 -1.847 11
3.767 -0.030999999 -1.86 9
3.9579999 -0.041000001 -1.858 9
4.1659999 -0.052000001 -1.857 10
4.381 -0.063000001 -1.851 10
4.6170001 -0.075999998 -1.849 11
4.8740001 -0.089000002 -1.846 11
3.8310001 -0.043000001 -1.862 9
4.02 -0.052999999 -1.8559999 10
4.2389998 -0.064999998 -1.858 11
4.46 -0.077 -1.853 10
4.6950002 -0.090000004 -1.846 11
4.9629998 -0.105 -1.845 11
3.891 -0.054000001 -1.86 9
4.0910001 -0.066 -1.857 10
4.3039999 -0.078000002 -1.854 10
4.546 -0.090999998 -1.855 11
4.7789998 -0.104 -1.845 11
5.0619998 -0.12 -1.846 11
3.9560001 -0.067000002 -1.86 9
4.1599998 -0.078000002 -1.857 10
4.3909998 -0.090999998 -1.858 11
4.618 -0.104 -1.851 11
4.8759999 -0.119 -1.848 12
5.1490002 -0.13500001 -1.842 11
4.0229998 -0.079000004 -1.859 9
4.2350001 -0.090999998 -1.857 11
4.4650002 -0.104 -1.8559999 10
4.7080002 -0.118 -1.852 11
4.9650002 -0.134 -1.846 11
5.2529998 -0.15000001 -1.842 12
4.086 -0.090000004 -1.855 10
4.3150001 -0.103 -1.859 11
4.5500002 -0.118 -1.857 11
4.7870002 -0.132 -1.848 11
5.0710001 -0.149 -1.849 11
5.3629999 -0.16599999 -1.8430001 12
4.1599998 -0.102 -1.8559999 9
4.395 -0.116 -1.859 11
4.6350002 -0.131 -1.857 11
4.8850002 -0.146 -1.85 11
5.1630001 -0.163 -1.845 11
5.4590001 -0.18099999 -1.837 12
4.243 -0.114 -1.86 10
4.4640002 -0.12800001 -1.854 11
4.7119999 -0.14399999 -1.852 11
4.9809999 -0.16 -1.849 11
5.2690001 -0.178 -1.844 12
5.5770001 -0.197 -1.837 12
4.3210001 -0.127 -1.859 10
4.553 -0.141 -1.855 11
4.8060002 -0.15700001 -1.853 11
5.0840001 -0.17399999 -1.85 11
5.3639998 -0.192 -1.839 11
5.6929998 -0.213 -1.835 12
4.4089999 -0.139 -1.862 10
4.6459999 -0.154 -1.857 11
4.901 -0.17 -1.852 11
5.1869998 -0.189 -1.849 11
5.4860001 -0.208 -1.841 12
5.8130002 -0.229 -1.832 11
4.4819999 -0.15099999 -1.857 10
4.7329998 -0.167 -1.855 11
5.0009999 -0.184 -1.851 11
5.2839999 -0.20200001 -1.844 11
5.6040001 -0.223 -1.84 12
5.9450002 -0.245 -1.831 12
4.572 -0.163 -1.857 10
4.8239999 -0.17900001 -1.853 12
5.1139998 -0.198 -1.854 11
5.3940001 -0.21699999 -1.841 12
5.724 -0.23800001 -1.836 12
6.0809999 -0.26199999 -1.829 12
4.6700001 -0.175 -1.859 10
4.921 -0.192 -1.851 11
5.2059999 -0.211 -1.847 12
5.5170002 -0.23100001 -1.842 12
5.8579998 -0.25400001 -1.837 12
6.2350001 -0.27900001 -1.83 12
4.7540002 -0.18700001 -1.855 10
5.0229998 -0.205 -1.851 11
5.323 -0.22499999 -1.848 12
5.6440001 -0.24600001 -1.8430001 12
5.9790001 -0.26800001 -1.831 12
6.382 -0.29499999 -1.827 12
4.8460002 -0.199 -1.852 11
5.1329999 -0.21799999 -1.851 12
5.4380002 -0.23800001 -1.847 11
5.7729998 -0.25999999 -1.841 11
6.125 -0.28400001 -1.83 12
6.5450001 -0.31200001 -1.827 12
4.948 -0.211 -1.852 10
5.2280002 -0.23 -1.845 12
5.5539999 -0.25099999 -1.844 12
5.9029999 -0.27500001 -1.839 11
6.2810001 -0.301 -1.831 13
6.6989999 -0.329 -1.821 14
5.0479999 -0.223 -1.849 11
5.3499999 -0.243 -1.846 11
5.6810002 -0.26499999 -1.8430001 12
6.0349998 -0.289 -1.835 12
6.4390001 -0.31600001 -1.83 13
6.8660002 -0.34599999 -1.817 12
5.1630001 -0.235 -1.85 11
5.473 -0.25600001 -1.846 12
5.8060002 -0.278 -1.839 12
6.1919999 -0.30399999 -1.836 13
6.599 -0.33199999 -1.827 13
7.0669999 -0.36399999 -1.8200001 12
5.2719998 -0.24699999 -1.848 11
5.5869999 -0.26800001 -1.842 12
5.96 -0.29300001 -1.8430001 12
6.3460002 -0.31900001 -1.835 12
6.7750001 -0.34799999 -1.826 14
7.2509999 -0.38100001 -1.814 13
5.3870001 -0.25799999 -1.845 11
5.7189999 -0.28099999 -1.841 11
6.1020002 -0.30599999 -1.84 12
6.507 -0.33399999 -1.8329999 14
6.9400001 -0.36399999 -1.819 12
7.4569998 -0.39899999 -1.812 12
5.5100002 -0.27000001 -1.844 11
5.8709998 -0.294 -1.844 11
6.257 -0.31999999 -1.839 13
6.6789999 -0.34900001 -1.831 13
7.1500001 -0.38100001 -1.822 12
7.6849999 -0.41800001 -1.811 13
5.6469998 -0.28200001 -1.845 11
6.0120001 -0.30700001 -1.842 12
6.4109998 -0.33399999 -1.836 13
6.8410001 -0.36300001 -1.824 12
7.348 -0.39700001 -1.818 12
7.915 -0.43599999 -1.808 12
5.7800002 -0.294 -1.8430001 11
6.1529999 -0.31900001 -1.837 12
6.573 -0.347 -1.832 11
7.0300002 -0.37799999 -1.822 12
7.5599999 -0.414 -1.814 12
8.1569996 -0.45500001 -1.804 14
5.921 -0.30500001 -1.841 10
6.3140001 -0.33199999 -1.837 13
6.7420001 -0.36000001 -1.8279999 13
7.237 -0.39399999 -1.822 13
7.783 -0.43099999 -1.811 12
8.4060001 -0.47299999 -1.799 12
6.0760002 -0.317 -1.842 12
6.4689999 -0.34299999 -1.832 12
6.928 -0.37400001 -1.826 12
7.421 -0.40700001 -1.813 12
8.0270004 -0.44800001 -1.809 13
8.6800003 -0.49200001 -1.794 12
6.223 -0.32800001 -1.8380001 12
6.6370001 -0.35600001 -1.829 12
7.1160002 -0.38800001 -1.823 12
7.671 -0.42399999 -1.817 12
8.2880001 -0.465 -1.807 12
8.9759998 -0.51200002 -1.79 13
6.3860002 -0.33899999 -1.836 11
6.803 -0.36700001 -1.822 13
7.323 -0.40099999 -1.8200001 13
7.9029999 -0.44 -1.814 11
8.5290003 -0.48100001 -1.798 12
9.2629995 -0.52999997 -1.781 12
6.5469999 -0.34999999 -1.832 12
6.9840002 -0.37900001 -1.818 12
7.539 -0.41499999 -1.818 12
8.1409998 -0.454 -1.808 15
8.8240004 -0.49900001 -1.796 13
9.5950003 -0.55000001 -1.776 13
6.73 -0.361 -1.832 12
7.1950002 -0.39199999 -1.818 13
7.7729998 -0.42899999 -1.816 12
8.3730001 -0.46799999 -1.799 12
9.0970001 -0.51499999 -1.785 13
9.9440002 -0.56999999 -1.7690001 13
6.9050002 -0.37099999 -1.826 12
7.4050002 -0.403 -1.8150001 13
8.0279999 -0.44299999 -1.816 13
8.6540003 -0.48300001 -1.795 11
9.4300003 -0.53299999 -1.7819999 13
10.319 -0.58999997 -1.761 13
7.1030002 -0.382 -1.824 12
7.632 -0.41499999 -1.813 12
8.2629995 -0.45500001 -1.807 12
8.9379997 -0.498 -1.788 13
9.7709999 -0.551 -1.775 13
10.719 -0.611 -1.752 12
7.3080001 -0.39199999 -1.8200001 12
7.8759999 -0.42699999 -1.812 11
8.4989996 -0.46599999 -1.795 10
9.2539997 -0.51300001 -1.784 12
10.128 -0.56800002 -1.767 13
11.143 -0.63200003 -1.742 12
7.527 -0.40200001 -1.817 11
8.1280003 -0.43900001 -1.808 12
8.8039999 -0.47999999 -1.794 12
9.5830002 -0.528 -1.776 12
10.523 -0.58600003 -1.7589999 13
11.625 -0.65399998 -1.734 12
7.7779999 -0.41299999 -1.819 11
8.3660002 -0.449 -1.799 12
9.0860004 -0.49200001 -1.785 13
9.9300003 -0.54299998 -1.77 12
10.921 -0.60299999 -1.748 13
12.151 -0.67699999 -1.727 12
8.0279999 -0.42300001 -1.817 12
8.6379995 -0.45899999 -1.794 11
9.4119997 -0.505 -1.781 12
10.324 -0.55900002 -1.765 12
11.378 -0.62099999 -1.74 12
12.723 -0.70099998 -1.7180001 13
8.2609997 -0.43000001 -1.808 12
8.9350004 -0.46900001 -1.789 13
9.7480001 -0.51599997 -1.773 12
10.718 -0.57300001 -1.7539999 13
11.883 -0.63999999 -1.732 12
13.359 -0.72600001 -1.709 12
8.507 -0.43799999 -1.798 11
9.2299995 -0.479 -1.78 13
10.114 -0.52899998 -1.766 12
11.136 -0.58700001 -1.744 13
12.421 -0.65899998 -1.722 13
14.021 -0.75 -1.696 13
8.7969999 -0.44600001 -1.794 12
9.5760002 -0.48899999 -1.777 13
10.507 -0.54000002 -1.7589999 13
11.616 -0.60100001 -1.735 12
13.013 -0.67900002 -1.712 13
14.778 -0.77600002 -1.684 13
9.099 -0.45300001 -1.789 12
9.9200001 -0.49700001 -1.768 13
10.902 -0.55000001 -1.747 13
12.13 -0.616 -1.726 13
13.677 -0.699 -1.704 12
15.629 -0.80400002 -1.6720001 14
9.4119997 -0.46000001 -1.781 13
10.294 -0.50599998 -1.761 12
11.372 -0.56199998 -1.7410001 13
12.72 -0.63200003 -1.72 12
14.388 -0.71899998 -1.692 14
16.594 -0.83399999 -1.661 15
9.7580004 -0.46599999 -1.776 12
10.7 -0.51300001 -1.753 13
11.877 -0.57300001 -1.733 12
13.337 -0.64700001 -1.71 12
15.202 -0.741 -1.682 13
17.67 -0.866 -1.646 13
10.114 -0.47099999 -1.768 13
11.119 -0.51999998 -1.743 13
12.399 -0.58200002 -1.723 12
13.98 -0.65899998 -1.694 12
16.124001 -0.764 -1.671 14
18.716 -0.89099997 -1.614 13
10.511 -0.47600001 -1.761 12
11.59 -0.52600002 -1.734 12
13.006 -0.59299999 -1.715 12
14.738 -0.67400002 -1.683 13
17.118999 -0.78600001 -1.656 14
19.987 -0.921 -1.586 15
10.928 -0.479 -1.752 13
12.118 -0.53299999 -1.727 12
13.647 -0.602 -1.704 13
15.629 -0.69099998 -1.676 13
18.167 -0.80599999 -1.632 12
21.452999 -0.954 -1.556 16
11.365 -0.48100001 -1.742 12
12.675 -0.53799999 -1.717 13
14.338 -0.60900003 -1.691 13
16.559999 -0.70499998 -1.6619999 13
19.302 -0.824 -1.603 14
23.158001 -0.99000001 -1.524 19
11.868 -0.48300001 -1.735 12
13.286 -0.54100001 -1.707 12
15.153 -0.61799997 -1.682 12
17.594999 -0.71899998 -1.646 14
20.573999 -0.84100002 -1.567 15
25.236 -1.033 -1.489 8
12.404 -0.48300001 -1.725 13
13.946 -0.54299998 -1.6950001 13
16.037001 -0.625 -1.669 14
18.653 -0.727 -1.617 13
22.389 -0.87300003 -1.5549999 19
27.333 -1.067 -1.4299999 4
12.981 -0.48199999 -1.716 12
14.679 -0.54500002 -1.683 13
17.033001 -0.63099998 -1.656 14
19.893999 -0.73699999 -1.59 14
24.172001 -0.89499998 -1.517 11
30.646 -1.133 -1.398 27
13.602 -0.479 -1.704 12
15.505 -0.54500002 -1.671 13
18.051001 -0.63300002 -1.633 13
21.273001 -0.74400002 -1.557 16
26.190001 -0.91500002 -1.4680001 6
31.370001 -1.0930001 -1.223 2
14.307 -0.47400001 -1.693 13
16.452 -0.54299998 -1.661 14
19.129 -0.63 -1.601 14
23.02 -0.755 -1.531 19
30.273001 -0.991 -1.497 10
35.705002 -1.164 -1.1569999 48
15.064 -0.46700001 -1.681 13
17.445 -0.53799999 -1.6440001 13
20.441999 -0.62800002 -1.575 15
24.927999 -0.76200002 -1.493 8
30.732 -0.93400002 -1.3150001 26
37.612999 -1.137 -0.97000003 17
15.953 -0.458 -1.671 13
18.444 -0.52700001 -1.614 12
21.962 -0.62300003 -1.546 17
27.058001 -0.76300001 -1.442 5
34.596001 -0.96899998 -1.255 48
33.835999 -0.93900001 -0.65100002 34
16.934999 -0.44600001 -1.659 14
19.615999 -0.51300001 -1.585 14
23.799 -0.61699998 -1.517 15
0 0 0 0
33.855 -0.86199999 -1.006 150
33.841 -0.85399997 -0.433 13
17.927 -0.428 -1.637 12
20.989 -0.49599999 -1.558 16
25.778999 -0.60299999 -1.475 7
30.816 -0.713 -1.239 6
33.873001 -0.773 -0.787 150
33.831001 -0.76300001 -0.215 6
18.957001 -0.40400001 -1.605 13
22.617001 -0.47499999 -1.529 18
28.735001 -0.59600002 -1.455 11
33.851002 -0.69099998 -1.141 150
33.852001 -0.68000001 -0.56699997 122
75.122002 -1.4859999 0.0020000001 19
20.236 -0.377 -1.58 15
24.476999 -0.44800001 -1.495 9
30.686001 -0.551 -1.3559999 25
33.847 -0.59600002 -0.92299998 150
33.856998 -0.58399999 -0.35100001 150
82.398003 -1.3940001 0.52600002 6
21.694 -0.34400001 -1.554 17
26.408001 -0.40900001 -1.443 5
31.613001 -0.477 -1.193 1
33.861 -0.498 -0.70700002 141
35.648998 -0.51099998 -0.146 34
0 0 0 0
23.388 -0.303 -1.523 14
0 0 0 0
33.859001 -0.41 -1.061 113
33.887001 -0.396 -0.49200001 150
35.659 -0.40099999 0.079999998 8
86.393997 -0.93599999 1.64 43
25.408001 -0.25299999 -1.4910001 8
30.76 -0.29300001 -1.288 25
33.868999 -0.30700001 -0.84899998 95
34.57 -0.29699999 -0.287 59
38.212002 -0.31099999 0.32100001 7
54.743 -0.41999999 1.377 44
0 0 0 0
33.882999 -0.21699999 -1.206 66
33.904999 -0.2 -0.63800001 96
35.251999 -0.19 -0.072999999 57
86.199997 -0.421 1.262 43
54.655998 -0.23899999 1.711 52
30.408001 -0.113 -1.402 31
33.895 -0.108 -0.99599999 48
34.581001 -0.092 -0.43799999 56
35.473999 -0.075999998 0.141 36
54.783001 -0.086999997 1.133 38
54.381001 -0.055 2.033 52
30.916 -0.013 -1.234 6
35.304001 0.0040000002 -0.81999999 45
35.044998 0.023 -0.23 70
38.230999 0.048 0.38499999 13
54.416 0.098999999 1.454 52
54.613998 0.133 2.3699999 58
35.041 0.102 -1.1849999 46
35.074001 0.122 -0.60299999 73
35.138 0.14399999 -0.018999999 64
54.641998 0.259 0.87900001 5
54.125999 0.28999999 1.77 59
54.816002 0.329 2.7060001 65
35.632999 0.227 -0.99000001 53
35.035999 0.245 -0.391 69
35.452 0.27000001 0.191 34
54.338001 0.45199999 1.198 50
54.271 0.48800001 2.099 66
54.939999 0.53100002 3.0369999 20
35.171001 0.34999999 -0.76499999 57
35.103001 0.373 -0.18099999 64
38.251999 0.433 0.43599999 5
54.251999 0.65100002 1.516 58
54.602001 0.69499999 2.4330001 68
32.271999 0.433 1.973 2
35.070999 0.47799999 -0.55299997 72
35.254002 0.50599998 0.026000001 62
51.938 0.78399998 0.898 17
31.604 0.5 1.0700001 4
31.455 0.52100003 1.586 72
31.365 0.54400003 2.102 124
31.525 0.54900002 -0.31099999 4
31.521 0.57200003 0.207 94
31.339001 0.59299999 0.72399998 136
31.355 0.61900002 1.244 113
31.389 0.64399999 1.7640001 50
31.34 0.66799998 2.2820001 27
31.327999 0.66799998 -0.126 135
31.353001 0.69199997 0.38800001 59
51.971001 1.1900001 1.501 9
31.198999 0.74000001 1.416 19
30.929001 0.759 1.916 15
30.771999 0.78100002 2.415 56
59.844002 1.513 0.101 66
40.645 1.062 0.73799998 24
54.576 1.471 1.8890001 37
55.057999 1.531 2.8139999 68
55.028 1.579 3.7219999 3
104.759 3.099 8.8179998 36
40.721001 1.1950001 0.301 83
40.706001 1.23 0.96899998 48
54.841 1.704 2.2060001 40
54.959999 1.758 3.1159999 53
103.708 3.4159999 7.598 25
104.348 3.533 9.3699999 28
0 0 0 0
40.798 1.405 1.201 1
55.193001 1.951 2.5309999 58
54.933998 1.993 3.421 29
105.363 3.921 8.2980003 37
0 0 0 0
40.813 1.5420001 0.75800002 105
54.966 2.1270001 1.919 10
55.918999 2.217 2.869 3
105.14 4.2750001 7.1279998 16
105.668 4.4000001 8.9029999 22
66.879997 2.8540001 6.7420001 32
40.851002 1.722 0.98400003 99
56.202999 2.4219999 2.27 6
105.474 4.6500001 5.9879999 22
104.439 4.7119999 7.645 25
105.617 4.8759999 9.4729996 37
66.786003 3.1530001 7.0929999 42
40.901001 1.906 1.2079999 16
103.159 4.9120002 4.7290001 21
104.856 5.098 6.5190001 23
105.505 5.2420001 8.2919998 23
0 0 0 0
66.252998 3.4360001 7.3920002 25
86.748001 4.4359999 3.0250001 15
103.757 5.4109998 5.3039999 11
104.412 5.5570002 7.0440001 33
0 0 0 0
67.932999 3.766 6.8140001 4
65.408997 3.7019999 7.6430001 41
85.815002 4.783 3.444 14
103.785 5.8979998 5.8530002 23
0 0 0 0
0 0 0 0
67.253998 4.0479999 7.0970001 11
65.535004 4.0240002 8 29
104.857 6.3390002 4.7519999 37
0 0 0 0
106.281 6.6630001 8.2740002 8
0 0 0 0
66.195999 4.3070002 7.3260002 13
65.431 4.3390002 8.3240004 41
105.295 6.8670001 5.3070002 23
105.318 6.9949999 7.0209999 11
0 0 0 0
67.182999 4.6230001 6.6750002 16
65.711998 4.605 7.6110001 23
65.933998 4.704 8.7259998 34
0 0 0 0
0 0 0 0
0 0 0 0
66.417999 4.9070001 6.9369998 14
65.128998 4.8940001 7.8720002 19
66.175003 5.0619998 9.0939999 40
0 0 0 0
0 0 0 0
66.507004 5.165 6.1859999 42
68.147003 5.3790002 7.4520001 22
66.504997 5.3390002 8.3669996 15
66.434998 5.4260001 9.4589996 37
0 0 0 0
66.765999 5.4450002 5.4530001 8
68.151001 5.645 6.6739998 11
0 0 0 0
64.709999 5.5370002 8.4619999 10
67.203003 5.8449998 9.8990002 46
0 0 0 0
68.188004 5.9130001 5.895 3
63.609001 5.6020002 6.5339999 9
67.775002 6.0599999 8.0699997 14
64.458 5.8559999 8.7370005 16
67.436996 6.224 10.256 47
68.105003 6.1739998 5.1090002 22
68.771004 6.3270001 6.2709999 4
63.512001 5.9299998 6.8260002 20
63.319 6.0019999 7.8410001 44
63.557999 6.119 8.9180002 43
68.350998 6.6820002 10.723 41
68.767998 6.6020002 5.4819999 34
0 0 0 0
63.403 6.2620001 7.1090002 25
63.187 6.3340001 8.1190004 44
63.513 6.461 9.2069998 42
68.314003 7.0609999 11.041 39
0 0 0 0
67.997002 6.994 6.8340001 26
63.665001 6.6389999 7.4330001 9
63.297001 6.6960001 8.427 49
68.137001 7.3150001 10.195 36
66.989998 7.2979999 11.134 26
65.198997 6.9720001 5.7940001 3
64.971001 7.0419998 6.823 12
52.869999 5.8109999 6.414 5
63.206001 7.0450001 8.7040005 24
64.864998 7.3319998 10.001 22
0 0 0 0
65.237 7.3439999 6.0910001 44
66.310997 7.5640001 7.2620001 4
52.167999 6.0310001 6.5619998 72
53.292999 6.2449999 7.5780001 16
64.850998 7.7069998 10.292 43
0 0 0 0
0 0 0 0
52.313999 6.2659998 5.9590001 28
51.891998 6.2979999 6.7550001 55
52.752998 6.4889998 7.7319999 59
64.790001 8.0799999 10.567 52
0 0 0 0
66.594002 8.2650003 6.8010001 7
51.806999 6.5079999 6.1259999 46
51.342999 6.533 6.9070001 57
52.487999 6.7670002 7.9219999 60
64.779999 8.467 10.852 41
32.229 4.27 5.9359999 3
79.009003 10.267 8.4029999 13
51.846001 6.8200002 6.3509998 24
51.644001 6.8800001 7.1680002 57
52.891998 7.1350002 8.2080002 53
65.697998 8.9799995 11.283 33
32.186001 4.4580002 6.0640001 24
51.671001 7.0219998 5.7090001 5
51.699001 7.1079998 6.546 30
53.379002 7.4299998 7.6279998 30
31.983 4.507 5.0970001 30
31.725 4.5310001 5.5819998 13
31.937 4.6199999 6.1529999 51
52.042999 7.3850002 5.9619999 18
52.063999 7.4749999 6.8060002 28
31.924999 4.6389999 4.6929998 10
31.684999 4.6620002 5.1810002 51
31.503 4.6950002 5.6729999 41
31.790001 4.7979999 6.257 39
52.777 7.8119998 6.257 17
31.879 4.7729998 4.2950001 37
31.783001 4.8140001 4.8000002 37
31.447001 4.8210001 5.2670002 55
31.653 4.915 5.829 38
31.358999 4.9310002 6.2989998 37
31.856001 4.9109998 3.9000001 53
32.007999 4.9910002 4.4380002 1
31.961 5.0409999 4.9530001 39
31.851999 5.085 5.461 39
32.054001 5.1789999 6.0279999 39
31.669001 5.1820002 6.487 13
54.191002 8.6940002 6.8429999 10
51.101002 8.2889996 7.2800002 19
31.934999 5.2399998 5.072 15
31.987 5.309 5.6079998 32
32.346001 5.434 6.2090001 4
33.373001 5.6760001 6.967 2
52.797001 8.8030005 6.8639998 9
50.164001 8.4549999 7.3340001 48
50.151001 8.5480003 8.1520004 51
50.849998 8.7679996 9.1059999 52
0 0 0 0
29.584 5.2270002 6.2909999 7
50.188999 8.6929998 6.71 14
49.636002 8.6890001 7.441 48
49.57 8.7720003 8.2410002 66
50.311001 9.0050001 9.1969995 17
0 0 0 0
29.493 5.4050002 6.381 48
49.707001 8.9289999 6.823 48
49.681999 9.0170002 7.625 41
49.769001 9.1309996 8.4540005 49
50.301998 9.3330002 9.3769999 39
0 0 0 0
29.624001 5.6259999 6.5180001 7
49.832001 9.2729998 7.0110002 19
49.688999 9.3400002 7.7969999 41
49.529999 9.4099998 8.585 48
50.631001 9.7270002 9.6149998 17
0 0 0 0
29.829 5.8639998 6.6690001 13
49.147999 9.4680004 7.0799999 43
48.763 9.4910002 7.8189998 62
0 0 0 0
0 0 0 0
0 0 0 0
29.700001 6.0419998 6.7459998 29
48.852001 9.7360001 7.1989999 59
48.852001 9.8339996 7.994 66
49.151001 9.9949999 8.8509998 44
0 0 0 0
0 0 0 0
29.58 6.2189999 6.8200002 16
48.859001 10.065 7.3569999 36
49.480999 10.294 8.257 35
50.619999 10.64 9.2810001 53
0 0 0 0
0 0 0 0
29.816 6.4759998 6.974 3
49.091 10.445 7.5440001 29
49.256001 10.582 8.3730001 64
50.562 10.975 9.4320002 8
0 0 0 0
0 0 0 0
29.559 6.6269999 7.0110002 16
49.325001 10.834 7.7309999 66
49.152 10.901 8.507 62
50.431999 11.294 9.5609999 30
0 0 0 0
0 0 0 0
0 0 0 0
49.023998 11.106 7.829 56
49.876999 11.407 8.7819996 43
0 0 0 0
0 0 0 0
0 0 0 0
32.099998 7.652 7.8150001 2
49.148998 11.473 7.9879999 41
49.978001 11.776 8.941 64
0 0 0 0
0 0 0 0
0 0 0 0
32.193001 7.9050002 7.9349999 33
49.278 11.851 8.1470003 46
49.563999 12.028 9.007 64
0 0 0 0
0 0 0 0
36.023998 9.0100002 8.3640003 22
32.098 8.1140003 8.0050001 37
49.939999 12.36 8.3879995 48
49.972 12.481 9.2150002 42
0 0 0 0
0 0 0 0
33.372002 8.5839996 7.842 0
32.224998 8.3789997 8.1289997 43
50.243 12.793 8.5699997 64
50.821999 13.057 9.5050001 14
0 0 0 0
32.68 8.5579996 7.2090001 9
32.076 8.4860001 7.6240001 41
30.621 8.1890001 7.8099999 38
51.352001 13.443 8.8879995 50
51.526001 13.61 9.7679996 12
31.75 8.4650002 6.5489998 12
32.637001 8.7860003 7.2849998 18
31.35 8.526 7.5349998 43
30.545 8.3940001 7.8720002 41
51.132 13.757 8.9720001 50
0 0 0 0
31.58 8.651 6.592 37
32.157001 8.8950005 7.2589998 45
30.444 8.5050001 7.3959999 38
30.294001 8.5530005 7.8870001 38
51.292 14.176 9.1199999 7
0 0 0 0
31.544001 8.8730001 6.6599998 37
31.797001 9.0299997 7.2540002 41
30.296 8.6890001 7.4330001 53
29.671 8.6000004 7.8000002 44
0 0 0 0
31.35 8.9689999 6.164 25
31.559 9.1110001 6.7360001 37
31.514 9.1850004 7.2639999 40
29.799 8.7709999 7.3829999 38
29.481001 8.7670002 7.8210001 46
0 0 0 0
31.636999 9.2860003 6.2880001 23
32.374001 9.5860004 6.98 44
29.627001 8.8559999 6.8940001 33
29.332001 8.8529997 7.3340001 52
29.514 9.0010004 7.8990002 37
34.096001 10.175 6.2800002 7
32.011002 9.6339998 6.4299998 42
0 0 0 0
29.294001 8.9779997 6.8800001 35
29.516001 9.1359997 7.4450002 35
29.351999 9.177 7.9229999 46
33.651001 10.295 6.2649999 32
31.865999 9.8310003 6.4640002 40
30.775 9.5780001 6.7639999 38
29.379 9.2279997 6.9619999 35
29.421 9.3319998 7.4840002 37
29.566999 9.4729996 8.0450001 37
0 0 0 0
31.149 9.8450003 6.3779998 51
30.642 9.7679996 6.7950001 50
30.632 9.8529997 7.3200002 39
29.240999 9.4969997 7.4980001 45
29.358 9.632 8.0489998 46
31.224001 10.022 5.9250002 39
31.5 10.192 6.506 2
31.061001 10.137 6.9439998 41
0 0 0 0
30.084 10.002 7.7729998 41
29.408001 9.8760004 8.1210003 39
30.813999 10.123 5.8990002 54
31.35 10.383 6.5289998 26
31.209999 10.423 7.0320001 40
30.580999 10.306 7.4200001 39
29.805 10.141 7.7550001 39
29.926001 10.283 8.3199997 43
30.981001 10.412 5.9780002 30
0 0 0 0
30.871 10.548 7.007 33
0 0 0 0
29.232 10.172 7.6570001 46
29.719999 10.446 8.3170004 12
31.458 10.813 6.1170001 40
32.622002 11.301 6.895 2
31.433001 10.981 7.1830001 43
29.614 10.439 7.2839999 38
29.221001 10.398 7.704 44
29.542999 10.615 8.3190002 31
0 0 0 0
31.767 11.25 6.7600002 42
29.757 10.625 6.8439999 57
29.43 10.601 7.2820001 49
29.326 10.663 7.776 38
29.583 10.863 8.3769999 37
0 0 0 0
31.732 11.481 6.7950001 35
29.57 10.788 6.842 56
29.393 10.817 7.3150001 37
29.389999 10.918 7.8369999 46
30.013 11.258 8.5450001 39
0 0 0 0
31.761 11.738 6.8410001 42
29.711 11.071 6.9130001 32
30.950001 11.632 7.744 41
29.794001 11.302 7.9860001 39
30.027 11.5 8.5930004 32
0 0 0 0
31.18 11.764 6.75 45
30.738001 11.69 7.1869998 40
31.009001 11.896 7.796 41
29.514999 11.428 7.948 38
29.834999 11.665 8.5790005 13
0 0 0 0
30.415001 11.71 6.6160002 53
30.464001 11.823 7.1570001 31
31.038 12.15 7.8400002 19
30.018999 11.857 8.1210003 26
32.431 12.932 9.3649998 16
0 0 0 0
30.48 11.968 6.658 34
30.914 12.235 7.2919998 43
0 0 0 0
29.749001 11.982 8.0790005 1
0 0 0 0
30.302999 12.04 6.1230001 20
30.153999 12.071 6.6110001 40
30.497999 12.307 7.2199998 42
31.396 12.778 7.9899998 19
32.039001 13.156 8.7320004 33
0 0 0 0
30.23 12.244 6.1279998 21
29.927999 12.211 6.585 13
30.299999 12.461 7.198 41
31.528 13.075 8.052 43
31.224001 13.066 8.54 43
0 0 0 0
29.959 12.364 6.092 28
29.896999 12.429 6.5970001 32
30.399 12.738 7.2420001 40
31.921 13.489 8.1750002 45
31.237 13.319 8.5690002 44
0 0 0 0
32.988998 13.871 6.7249999 45
32.303001 13.681 7.1459999 45
31.634001 13.503 7.5549998 52
31.306999 13.476 8.0380001 45
0 0 0 0
0 0 0 0
33.537998 14.357 6.849 54
32.431 13.985 7.1890001 47
31.382 13.639 7.5120001 45
30.938 13.558 7.961 40
32.735001 14.472 9.0229998 49
0 0 0 0
33.272999 14.499 6.8060002 50
31.618999 13.878 7.0190001 44
31.384001 13.882 7.5240002 47
30.473 13.591 7.8540001 40
32.48 14.612 8.9680004 43
0 0 0 0
32.472 14.4 6.6490002 16
31.341999 13.999 6.9660001 44
30.686001 13.81 7.3660002 42
30.271 13.736 7.8140001 30
32.446999 14.851 8.9729996 49
0 0 0 0
31.945 14.41 6.5430002 12
31.247 14.196 6.9499998 43
30.504 13.963 7.329 42
30.313999 13.99 7.8340001 29
31.916 14.859 8.8360004 41
0 0 0 0
32.580002 14.944 6.6739998 11
31.285999 14.452 6.9590001 44
30.900999 14.383 7.4260001 44
32.077999 15.051 8.2930002 47
31.826 15.061 8.8179998 42
33.787998 16.139 9.9969997 37
32.687 15.239 6.6919999 22
31.233 14.663 6.9450002 44
30.922001 14.625 7.4310002 36
32.130001 15.32 8.3100004 47
31.694 15.244 8.7849998 47
33.582001 16.299 9.9440002 42
33.189999 15.723 6.789 39
29.937 14.281 6.6529999 7
29.767 14.305 7.152 41
31.757 15.384 8.2110004 41
31.472 15.378 8.7229996 46
33.638 16.589001 9.9630003 35
30.823999 14.835 6.2950001 5
29.684 14.383 6.5900002 40
29.582001 14.441 7.1009998 40
0 0 0 0
31.59 15.677 8.7539997 21
33.66 16.858 9.967 28
30.848 15.074 6.2880001 18
29.799 14.661 6.6040001 42
29.548 14.644 7.0840001 24
30.301001 15.137 7.822 43
0 0 0 0
33.428001 16.995001 9.8950005 10
30.632 15.195 6.2290001 43
29.549999 14.758 6.5359998 42
30.139999 15.163 7.2140002 43
30.038 15.23 7.744 43
33.563999 17.163 9.2840004 34
0 0 0 0
30.764 15.486 6.2360001 43
29.375999 14.887 6.48 44
29.700001 15.159 7.0929999 42
29.726 15.292 7.6490002 42
29.638 15.377 8.1870003 16
0 0 0 0
30.674 15.664 6.197 24
