# .PCD v0.7 - Point Cloud Data file format
VERSION 0.7
FIELDS x y z intensity
SIZE 4 4 4 4
TYPE F F F F
COUNT 1 1 1 1
WIDTH 1835
HEIGHT 1
VIEWPOINT 0 0 0 1 0 0 0
POINTS 1835
DATA ascii
13.536 -8.2709999 -1.918 9
7.8540001 -4.954 -1.905 9
8.6230001 -5.3909998 -1.903 9
9.5690002 -5.9330001 -1.906 8
10.699 -6.585 -1.904 7
12.13 -7.4159999 -1.9069999 7
14.03 -8.5270004 -1.918 8
8.0349998 -5.0380001 -1.906 9
8.8400002 -5.494 -1.904 8
9.8210001 -6.0549998 -1.904 8
11.026 -6.7480001 -1.906 6
12.552 -7.631 -1.91 7
14.563 -8.8009996 -1.919 10
8.2229996 -5.1240001 -1.905 8
9.0559998 -5.5929999 -1.902 8
10.094 -6.1849999 -1.905 8
11.34 -6.8969998 -1.902 6
12.982 -7.8439999 -1.909 8
15.151 -9.1020002 -1.921 10
8.4200001 -5.2119999 -1.904 8
9.2840004 -5.697 -1.9 8
10.382 -6.3210001 -1.904 7
11.698 -7.0700002 -1.902 6
13.486 -8.0979996 -1.915 9
15.757 -9.4060001 -1.919 11
8.6210003 -5.3000002 -1.904 8
9.5419998 -5.8150001 -1.903 7
10.671 -6.4520001 -1.902 7
12.075 -7.2490001 -1.902 7
13.978 -8.3380003 -1.915 9
16.419001 -9.7370005 -1.918 10
8.8470001 -5.3990002 -1.905 8
9.8000002 -5.9299998 -1.902 8
10.993 -6.5999999 -1.902 7
12.495 -7.448 -1.903 7
14.536 -8.6090002 -1.918 10
17.113001 -10.077 -1.913 8
9.0760002 -5.4970002 -1.905 8
10.08 -6.053 -1.901 8
11.322 -6.7470002 -1.899 6
12.963 -7.6700001 -1.908 8
15.119 -8.8889999 -1.919 11
17.827 -10.421 -1.905 7
9.3120003 -5.5949998 -1.904 8
10.358 -6.171 -1.899 8
11.696 -6.9159999 -1.901 6
13.446 -7.895 -1.91 8
15.71 -9.1660004 -1.914 10
19.052 -11.053 -1.942 17
9.5649996 -5.6999998 -1.904 8
10.65 -6.2940001 -1.897 8
12.083 -7.0869999 -1.902 7
13.935 -8.1169996 -1.909 9
16.316999 -9.4449997 -1.908 11
19.6 -11.282 -1.902 19
9.8260002 -5.8060002 -1.903 8
10.977 -6.4330001 -1.896 7
12.499 -7.27 -1.902 7
14.473 -8.3599997 -1.91 10
17.040001 -9.7819996 -1.9069999 10
21.313999 -12.168 -1.9630001 18
10.095 -5.9120002 -1.9 8
11.309 -6.5700002 -1.8940001 7
12.929 -7.4549999 -1.901 8
15.072 -8.6309996 -1.913 10
17.767 -10.112 -1.901 7
21.853001 -12.369 -1.9069999 15
10.385 -6.027 -1.9 8
11.661 -6.7129998 -1.893 6
13.404 -7.6599998 -1.903 8
15.654 -8.8850002 -1.908 11
18.915001 -10.671 -1.931 17
23.627001 -13.257 -1.948 27
10.683 -6.1420002 -1.898 7
12.033 -6.8629999 -1.891 7
13.905 -7.8730001 -1.904 9
16.285 -9.1599998 -1.905 12
19.334 -10.809 -1.88 18
24.089001 -13.395 -1.872 8
11 -6.2639999 -1.897 8
12.454 -7.0349998 -1.8940001 7
14.418 -8.085 -1.902 10
16.937 -9.4350004 -1.898 13
20.952 -11.603 -1.936 21
27.093 -14.923 -1.977 8
11.338 -6.3909998 -1.896 8
12.893 -7.211 -1.8940001 7
14.988 -8.323 -1.902 10
17.686001 -9.7559996 -1.895 10
21.392 -11.73 -1.873 20
27.486 -14.991 -1.874 5
11.7 -6.527 -1.895 7
13.361 -7.3959999 -1.895 8
15.564 -8.5539999 -1.898 11
18.576 -10.144 -1.9 12
23.098 -12.54 -1.913 13
30.306 -16.365999 -1.927 9
12.068 -6.6620002 -1.8940001 6
13.824 -7.5739999 -1.893 9
16.188999 -8.8059998 -1.896 12
19.358999 -10.463 -1.887 5
24.455 -13.14 -1.911 4
30.551001 -16.327999 -1.802 1
12.472 -6.8109999 -1.8940001 7
14.351 -7.777 -1.8940001 9
16.875 -9.0810003 -1.8940001 13
20.583 -11.005 -1.909 21
26.525 -14.1 -1.949 24
33.967999 -17.962999 -1.847 4
12.896 -6.9640002 -1.893 7
14.891 -7.9809999 -1.891 10
17.551001 -9.3409996 -1.885 10
21.813999 -11.536 -1.921 9
26.538 -13.954 -1.827 6
38.087002 -19.92 -1.898 1
13.351 -7.1269999 -1.893 8
15.437 -8.1789999 -1.886 11
18.327999 -9.6429996 -1.882 8
22.497999 -11.762 -1.876 12
29.707001 -15.444 -1.91 19
40.679001 -21.038 -1.844 3
13.827 -7.2950001 -1.893 8
16.054001 -8.4060001 -1.8839999 11
19.441999 -10.11 -1.905 18
24.187 -12.498 -1.906 27
30.1 -15.465 -1.799 2
47.327999 -24.191999 -1.9349999 2
14.328 -7.467 -1.892 9
16.709999 -8.6450005 -1.882 12
19.877001 -10.213 -1.855 26
24.399 -12.459 -1.812 11
32.945 -16.729 -1.824 6
50.419998 -25.473 -1.845 3
14.875 -7.658 -1.893 10
17.357 -8.8699999 -1.874 13
21.393999 -10.859 -1.899 20
26.929001 -13.585 -1.88 3
39.813999 -19.973 -2.029 4
39.917999 -19.924999 -1.289 24
15.396 -7.8260002 -1.887 11
18.1 -9.1330004 -1.8710001 13
22.072001 -11.063 -1.8609999 17
28.605 -14.249 -1.87 5
39.539001 -19.586 -1.845 4
40.028999 -19.729 -1.122 37
16.003 -8.0290003 -1.886 11
18.882 -9.4049997 -1.865 12
23.518999 -11.636 -1.878 25
29.621 -14.564 -1.808 1
40.035 -19.577 -1.698 150
39.728001 -19.33 -0.94800001 9
16.605 -8.2200003 -1.881 12
19.679001 -9.6719999 -1.8559999 8
0 0 0 0
31.889 -15.475 -1.809 6
48.876999 -23.587 -1.865 8
55.43 -26.613001 -1.0930001 32
17.247999 -8.4219999 -1.876 12
20.973 -10.167 -1.885 20
25.615 -12.336 -1.822 6
0 0 0 0
55.467999 -26.405001 -1.886 25
55.631001 -26.348 -0.87099999 22
17.940001 -8.6359997 -1.8710001 12
21.504 -10.279 -1.839 20
27.681999 -13.145 -1.851 6
38.292999 -18.073 -1.852 4
55.537998 -26.069 -1.664 26
55.919998 -26.118 -0.65200001 14
18.587999 -8.8210001 -1.857 12
22.801001 -10.743 -1.852 22
28.74 -13.454 -1.802 3
44.278999 -20.605 -1.961 1
55.324001 -25.604 -1.436 43
85.107002 -39.196999 -0.66299999 27
19.686001 -9.2060003 -1.883 17
24.150999 -11.214 -1.8609999 24
30.865999 -14.239 -1.809 8
44.157001 -20.249001 -1.778 1
48.384998 -22.066999 -1.066 11
48.376999 -21.957001 -0.191 46
20.405001 -9.401 -1.8660001 27
24.455 -11.188 -1.784 26
32.778999 -14.899 -1.79 1
47.926998 -21.657 -1.744 22
48.397999 -21.750999 -0.88300002 73
63.317001 -28.319 -0.014 8
21.059 -9.5550003 -1.839 19
26.104 -11.761 -1.8 29
35.188999 -15.753 -1.785 0
48.272999 -21.483 -1.573 34
54.787998 -24.253 -0.79699999 31
101.622 -44.759998 0.35100001 27
22.097 -9.8690004 -1.84 21
27.607 -12.244 -1.795 5
43.039001 -18.965 -2.016 4
0 0 0 0
54.666 -23.82 -0.59200001 35
0 0 0 0
0 0 0 0
29.417999 -12.842 -1.799 6
42.618 -18.482 -1.837 4
54.737999 -23.599001 -1.375 28
54.813999 -23.506001 -0.398 20
46.529999 -19.854 0.49200001 16
23.75 -10.269 -1.7920001 24
30.009001 -12.885 -1.722 3
45.438999 -19.389 -1.7920001 7
46.537998 -19.740999 -1.002 74
68.901001 -29.069 -0.25600001 34
46.632999 -19.576 0.65200001 5
25.283001 -10.749 -1.812 21
33.119999 -13.984 -1.778 1
51.464001 -21.594 -1.844 12
53.285999 -22.226 -0.96100003 48
65.585999 -27.209999 -0.018999999 33
44.583 -18.406 0.77399999 42
0 0 0 0
0 0 0 0
51.446999 -21.219 -1.663 12
53.380001 -21.886999 -0.77999997 32
65.724998 -26.802999 0.199 13
44.826 -18.191999 0.92299998 50
26.74 -10.984 -1.723 13
41.133999 -16.780001 -1.919 4
53.735001 -21.784 -1.556 30
53.665001 -21.628 -0.60699999 33
44.890999 -17.992001 0.27900001 75
44.991001 -17.943001 1.068 2
28.738001 -11.594 -1.751 6
40.880001 -16.379999 -1.767 3
44.951 -17.899 -1.153 32
45.058998 -17.836 -0.36399999 79
100.023 -39.380001 0.94099998 11
45.324001 -17.754 1.215 64
0 0 0 0
43.764999 -17.219 -1.749 14
49.771999 -19.457001 -1.1160001 9
66.536003 -25.858999 -0.329 9
100.429 -38.819 1.253 26
0 0 0 0
34.312 -13.338 -1.8609999 6
43.674999 -16.864 -1.605 10
44.146999 -16.938 -0.852 79
44.133999 -16.833 -0.082999997 51
44.123001 -16.737 0.68099999 41
44.067001 -16.632999 1.443 40
34.077999 -12.998 -1.739 2
43.976002 -16.659 -1.478 21
44.278 -16.665001 -0.72000003 6
0 0 0 0
52.483002 -19.531 0.95999998 26
51.750999 -19.163 1.8380001 38
39.546001 -14.793 -1.897 4
44.228001 -16.431 -1.354 9
50.195 -18.528999 -0.66900003 9
126.16 -46.294998 0.493 13
52.106998 -19.014 1.098 51
53.264 -19.337999 2.036 35
39.209999 -14.374 -1.762 3
53.095001 -19.333 -1.471 6
72.526001 -26.236 -0.76300001 14
0 0 0 0
52.991001 -18.952999 1.257 27
52.466999 -18.671 2.142 29
41.875 -15.041 -1.762 9
53.097 -18.941 -1.322 91
54.181999 -19.204 -0.41999999 8
109.77 -38.668999 1.02 13
52.764 -18.487 1.3890001 36
52.455002 -18.288 2.2720001 55
41.57 -14.623 -1.6339999 4
54.160999 -18.921 -1.2029999 19
129.17599 -44.844002 -0.67000002 14
79.170998 -27.32 0.93599999 17
52.643002 -18.065001 1.516 33
52.062 -17.775999 2.381 42
47.200001 -16.256001 -1.728 15
50.764999 -17.360001 -0.99699998 44
54.641998 -18.565001 -0.145 12
53.41 -18.037001 0.76300001 17
52.567001 -17.653 1.64 54
52.256001 -17.461 2.5120001 51
45.497002 -15.327 -1.5470001 63
45.196999 -15.122 -0.773 114
45.213001 -15.027 -0.0099999998 42
53.377998 -17.632999 0.88800001 66
52.938 -17.391001 1.771 46
52.824001 -17.263 2.6570001 33
45.202 -14.893 -1.428 60
50.595001 -16.556 -0.74599999 74
90.400002 -29.386999 0.18700001 50
53.451 -17.268999 1.0089999 27
48.006001 -15.422 1.712 6
39.610001 -12.658 2.0769999 23
47.870998 -15.413 -1.399 2
50.764999 -16.232 -0.63200003 61
0 0 0 0
53.515999 -16.893999 1.125 23
39.757 -12.479 1.501 27
46.895 -14.641 2.5539999 5
51.476002 -16.188999 -1.386 6
51.165001 -15.981 -0.52399999 55
60.620998 -18.811001 0.38800001 16
40.025002 -12.341 0.92299998 55
40.275002 -12.346 1.599 57
40.310001 -12.292 2.2709999 25
53.306 -16.370001 -1.323 50
40.175999 -12.25 -0.329 43
40.139999 -12.159 0.33700001 61
47.723 -14.365 1.193 16
48.217999 -14.429 2.006 73
47.259998 -14.068 2.7490001 4
40.200001 -12.047 -0.91600001 105
52.998001 -15.766 -0.33000001 63
48.231998 -14.251 0.49700001 1
47.875999 -14.058 1.284 47
48.289001 -14.095 2.0940001 54
50.227001 -14.583 3.007 21
53.465 -15.622 -1.1160001 30
53.465 -15.512 -0.235 25
48.166 -13.879 0.58200002 8
47.683998 -13.652 1.362 82
48.481998 -13.798 2.184 62
46.209 -13.079 2.842 8
58.370998 -16.617001 -1.112 2
55.345001 -15.643 -0.145 45
48.444 -13.598 0.66799998 24
47.591 -13.272 1.437 41
46.972 -13.02 2.1900001 25
46.183998 -12.727 2.9100001 7
48.637001 -13.481 -0.84299999 77
48.695 -13.4 -0.048 22
48.888 -13.361 0.75 51
47.619999 -12.929 1.51 77
47.176998 -12.73 2.2679999 24
52.783001 -14.16 3.401 18
55.348999 -14.93 -0.87 66
55.380001 -14.827 0.032000002 46
52.761002 -14.026 0.88800001 32
48.758999 -12.876 1.615 59
52.618999 -13.811 2.5999999 52
53.104 -13.854 3.4909999 57
35.141998 -9.217 -0.50099999 75
55.707001 -14.501 0.11 22
53.159 -13.742 0.96799999 42
49.351002 -12.671 1.7 15
53.192001 -13.573 2.6960001 60
53.061001 -13.458 3.552 24
35.146 -8.96 -0.45300001 83
53.207001 -13.46 0.175 8
53.280998 -13.379 1.036 36
52.320999 -13.048 1.865 60
52.960999 -13.122 2.7460001 85
52.284 -12.875 3.5580001 13
70.250999 -17.379 -0.815 11
60.124001 -14.756 0.27000001 33
53.896 -13.133 1.1109999 52
52.860001 -12.79 1.942 57
52.507999 -12.621 2.777 87
52.334 -12.499 3.612 5
59.995998 -14.393 -0.62900001 7
59.859001 -14.247 0.33399999 50
0 0 0 0
52.827999 -12.393 1.993 16
52.901001 -12.327 2.8469999 10
52.803001 -12.229 3.691 37
74.554001 -17.339001 -0.70499998 7
60.241001 -13.895 0.396 25
53.16 -12.168 1.201 25
55.171001 -12.54 2.1300001 19
52.780998 -11.914 2.885 16
52.924 -11.867 3.7409999 2
0 0 0 0
111.514 -24.898001 0.829 24
53.196999 -11.785 1.245 12
61.284 -13.476 2.414 58
47.243 -10.318 2.6159999 18
36.855999 -7.9959998 2.631 6
86.111 -18.746 -0.662 5
0 0 0 0
66.353996 -14.212 1.599 29
47.345001 -10.064 1.896 16
36.715 -7.7480001 2.0550001 44
61.366001 -12.866 4.414 53
0 0 0 0
75.239998 -15.689 0.66600001 9
36.540001 -7.559 0.903 15
36.43 -7.4790001 1.479 34
36.250999 -7.3860002 2.0469999 39
36.214001 -7.3260002 2.622 33
36.405998 -7.3870001 -0.234 71
36.431999 -7.329 0.34099999 68
36.445999 -7.2709999 0.91900003 43
36.650002 -7.2540002 1.5039999 47
61.171001 -12.019 3.4809999 50
61.261002 -11.951 4.4580002 55
36.588001 -7.1550002 -0.21699999 1
49.757999 -9.6470003 0.48800001 6
48.022999 -9.2340002 1.229 19
47.598999 -9.0760002 1.969 50
61.104 -11.561 3.494 55
37.556999 -7.053 2.7420001 23
48.389 -9.1090002 -0.27000001 106
48.478001 -9.0439997 0.491 32
48.109001 -8.8970003 1.244 50
47.694 -8.7489996 1.985 20
60.91 -11.088 3.4949999 63
61.539001 -11.117 4.5029998 42
104.704 -18.954 -0.55900002 8
48.832001 -8.7600002 0.50400001 1
48.73 -8.6639996 1.268 14
47.912998 -8.4460001 2 50
47.888 -8.3699999 2.7509999 15
47.59 -8.2530003 3.484 3
82.313004 -14.299 -0.43000001 30
74.286003 -12.785 0.773 11
48.869999 -8.3339996 1.273 81
48.131001 -8.1359997 2.0090001 26
47.77 -8.0089998 2.743 33
47.578999 -7.9120002 3.48 43
0 0 0 0
39.851002 -6.5669999 0.41299999 2
49.056999 -8.0080004 1.275 40
49.535 -8.0150003 2.062 20
48.150002 -7.723 2.7590001 4
47.692001 -7.585 3.48 6
39.702 -6.3179998 -0.20999999 4
34.662998 -5.4619999 0.35499999 16
49.245998 -7.6849999 1.272 4
49.478001 -7.6490002 2.05 53
63.226002 -9.6890001 3.608 43
76.514 -11.62 5.5609999 17
39.610001 -6.0170002 -0.21799999 28
34.402 -5.171 0.34400001 11
87.268997 -12.991 2.23 23
49.887001 -7.3540001 2.0510001 52
63.651001 -9.2950001 3.609 20
78.732002 -11.396 5.6929998 13
0 0 0 0
34.200001 -4.8979998 0.33000001 10
87.581001 -12.412 2.2049999 22
88.105003 -12.361 3.5869999 43
77.468002 -10.763 4.3569999 11
0 0 0 0
85.575996 -11.773 -0.537 5
0 0 0 0
0 0 0 0
0 0 0 0
0 0 0 0
73.529999 -9.5889997 5.2360001 17
0 0 0 0
128.064 -16.5 1.1 38
119.8 -15.262 2.8800001 38
119.996 -15.119 4.7410002 15
0 0 0 0
0 0 0 0
70.551003 -8.6890001 -0.52999997 8
103.286 -12.567 0.81400001 20
91.875999 -11.047 2.141 20
70.492996 -8.382 2.7309999 31
118.593 -13.944 6.4299998 35
71.268997 -8.2849998 4.9660001 6
70.540001 -8.1820002 -0.58499998 42
70.768997 -8.1049995 0.5 78
70.579002 -7.987 1.585 35
78.900002 -8.8249998 2.9879999 10
117.348 -12.971 6.256 33
71.294998 -7.79 4.9029999 8
59.886002 -6.5240002 -0.55000001 7
102.806 -11.057 0.63300002 26
78.904999 -8.3760004 1.698 14
77.940002 -8.1660004 2.875 47
79.000999 -8.1780005 4.132 10
59.321999 -6.066 4.0180001 23
59.409 -6.052 -0.60600001 22
103.455 -10.393 0.52899998 25
79.081001 -7.836 1.617 17
78.748001 -7.7020001 2.8210001 53
59.470001 -5.7399998 3.0450001 35
70.245003 -6.6919999 4.6789999 3
59.118999 -5.6040001 -0.67000002 40
103.533 -9.6709995 0.40900001 36
84.553001 -7.7870002 1.63 7
59.634998 -5.414 2.0639999 66
78.801003 -7.0570002 3.9389999 29
71.021004 -6.2729998 4.6430001 10
54.408001 -4.7789998 -0.68400002 2
59.922001 -5.184 0.162 102
59.925999 -5.105 1.079 25
59.924999 -5.0240002 1.9960001 32
60.126999 -4.9660001 2.925 22
59.403999 -4.8330002 3.803 20
53.556 -4.329 -0.74599999 3
87.295998 -6.9419999 0.115 15
0 0 0 0
78.507004 -6.04 2.5050001 50
60.252998 -4.5580001 2.845 19
80.050003 -5.9580002 5.007 35
54.200001 -4.0050001 -0.83499998 18
86.866997 -6.3039999 -0.014 15
80.308998 -5.724 1.212 10
78.301003 -5.4860001 2.3789999 37
79.318001 -5.4590001 3.6240001 26
60.879002 -4.1139998 3.7130001 26
45.669998 -3.0569999 -0.77700001 2
80.737 -5.3000002 -0.14399999 8
68.304001 -4.3969998 0.91900003 3
78.822998 -4.9759998 2.2650001 41
43.726002 -2.707 1.925 24
32.945 -1.999 1.9529999 38
44.613998 -2.6789999 -0.83499998 5
77.747002 -4.5679998 -0.27200001 4
68.376999 -3.9349999 0.80199999 39
32.941002 -1.855 0.889 52
32.882999 -1.814 1.39 38
83.555 -4.5139999 4.8099999 36
32.845001 -1.75 -0.67299998 95
32.832001 -1.7079999 -0.17399999 111
32.873001 -1.67 0.32600001 82
32.942001 -1.633 0.82800001 53
32.974998 -1.594 1.332 0
43.970001 -2.075 2.447 18
32.837002 -1.526 -0.73699999 105
64.274002 -2.9070001 -0.46599999 4
68.591003 -3.0190001 0.546 3
44.758999 -1.916 1.038 45
44.261002 -1.8430001 1.701 50
43.998001 -1.781 2.362 51
42.075001 -1.669 -1.031 45
0 0 0 0
44.671001 -1.664 0.26300001 70
44.701 -1.614 0.94400001 26
44.431 -1.551 1.615 48
44.036999 -1.489 2.2720001 54
39.73 -1.309 -1.059 19
52.201 -1.658 -0.59899998 7
86.410004 -2.6429999 0.32100001 9
106.413 -3.1359999 2.016 8
44.667 -1.265 1.526 33
44.234001 -1.202 2.1849999 69
38.660999 -1.016 -1.118 31
0 0 0 0
0 0 0 0
0 0 0 0
106.947 -2.3280001 3.4119999 30
44.049 -0.91100001 2.076 65
37.534 -0.74000001 -1.173 50
44.759998 -0.82999998 -0.72100002 5
76.632004 -1.334 -0.07 6
112.58 -1.8279999 1.607 28
112.102 -1.7 3.3069999 9
81.830002 -1.15 3.6589999 12
36.804001 -0.47999999 -1.244 51
42.623001 -0.50800002 -0.79299998 1
73.598999 -0.796 -0.25099999 7
0 0 0 0
84.080002 -0.72399998 2.2690001 38
84.108002 -0.63499999 3.5510001 39
35.109001 -0.227 -1.278 150
35.105 -0.18799999 -0.745 150
69.517998 -0.29699999 -0.419 4
0 0 0 0
104.266 -0.223 2.5420001 28
83.714996 -0.088 3.3139999 9
32.389999 0 -1.267 2
35.110001 0.037 -0.83899999 135
35.181999 0.075999998 -0.30700001 60
0 0 0 0
87.674004 0.37900001 1.899 20
83.696999 0.44800001 3.0869999 34
32.022999 0.207 -1.3430001 16
35.124001 0.26499999 -0.93900001 79
35.863998 0.30700001 -0.41299999 54
36.914001 0.354 0.13500001 1
56.042999 0.60000002 1.056 14
56.259998 0.65899998 1.9170001 50
31.936001 0.41299999 -1.434 20
35.159 0.48899999 -1.043 43
35.853001 0.53500003 -0.51800001 50
36.622002 0.58399999 0.027000001 47
55.980999 0.95099998 0.89300001 5
55.686001 1.0039999 1.735 48
0 0 0 0
36.526001 0.73900002 -1.194 49
36.256001 0.76899999 -0.63300002 66
36.408001 0.80900002 -0.081 52
57.094002 1.329 0.73900002 12
55.645 1.352 1.566 24
29.921 0.76499999 -1.529 9
35.685001 0.94599998 -1.279 49
36.348999 1 -0.74900001 47
36.368999 1.035 -0.19499999 58
39.471001 1.163 0.38800001 3
53.291 1.625 1.335 3
27.694 0.88 -1.5039999 5
32.318001 1.059 -1.263 7
32.691002 1.102 -0.778 26
32.813 1.138 -0.28099999 84
32.582001 1.1619999 0.21600001 117
32.596001 1.1950001 0.71200001 107
26.181 0.99599999 -1.511 5
32.148998 1.253 -1.364 37
32.634998 1.301 -0.88599998 25
36.814999 1.503 -0.43799999 42
41.902 1.753 0.138 7
41.897999 1.794 0.77600002 27
25.006001 1.105 -1.53 6
0 0 0 0
36.818001 1.694 -1.127 49
41.952 1.969 -0.64399999 50
41.980999 2.0109999 -0.0040000002 56
53.672001 2.622 0.81199998 20
23.865 1.202 -1.546 10
29.797001 1.527 -1.475 9
36.129002 1.883 -1.235 52
37.831001 2.006 -0.71499997 1
59.291 3.2 -0.21600001 3
42.095001 2.3099999 0.48899999 49
22.832001 1.288 -1.564 17
27.672001 1.586 -1.471 5
32.306999 1.88 -1.223 3
38.007 2.2449999 -0.85699999 21
55.763 3.3429999 -0.40400001 6
42.162998 2.5669999 0.33700001 44
21.83 1.363 -1.579 17
25.966 1.643 -1.479 5
32.18 2.063 -1.3380001 24
37.057999 2.4100001 -0.97399998 49
41.953999 2.766 -0.461 3
0 0 0 0
20.940001 1.433 -1.596 16
24.74 1.7130001 -1.505 7
0 0 0 0
36.646999 2.598 -1.103 51
42.021 3.0150001 -0.62099999 64
42.425999 3.0810001 0.021 36
20.070999 1.4910001 -1.61 15
23.524 1.768 -1.525 10
30.097 2.2850001 -1.488 11
0 0 0 0
0 0 0 0
56.257999 4.4159999 -0.193 2
19.214001 1.541 -1.6210001 13
22.413 1.814 -1.545 18
27.257 2.2279999 -1.4579999 5
32.709999 2.7 -1.2460001 12
37.570999 3.132 -0.85399997 50
43.805 3.6900001 -0.32499999 3
18.448 1.587 -1.635 12
21.368 1.854 -1.563 16
25.594 2.2390001 -1.476 5
32.229 2.846 -1.362 21
37.151001 3.309 -0.99699998 50
41.337002 3.717 -0.47499999 2
17.771 1.631 -1.652 11
20.436001 1.89 -1.582 15
24.274 2.2620001 -1.503 8
30.464001 2.8629999 -1.416 13
36.425999 3.4519999 -1.132 49
37.818001 3.6129999 -0.59200001 6
17.087999 1.665 -1.664 11
19.544001 1.918 -1.599 14
23.052 2.2780001 -1.528 16
28.07 2.793 -1.425 4
33.448002 3.3540001 -1.181 6
0 0 0 0
16.481001 1.698 -1.679 11
18.723 1.941 -1.615 13
21.92 2.286 -1.549 17
26.27 2.7590001 -1.449 5
32.498001 3.4360001 -1.289 19
37 3.941 -0.89700001 51
15.831 1.7180001 -1.686 9
17.948 1.959 -1.63 12
20.868 2.2920001 -1.5700001 16
24.643999 2.723 -1.469 5
0 0 0 0
36.147999 4.0469999 -1.0369999 47
15.198 1.734 -1.691 10
17.247999 1.977 -1.647 11
19.884001 2.2909999 -1.5880001 14
23.476 2.72 -1.508 11
0 0 0 0
33.694 3.954 -1.119 1
14.628 1.748 -1.698 11
16.576 1.99 -1.663 10
18.934999 2.2850001 -1.602 13
22.187 2.6900001 -1.53 17
26.988001 3.2909999 -1.441 5
32.646 4.0050001 -1.237 12
14.197 1.774 -1.719 7
15.886 1.993 -1.6720001 11
18.112 2.283 -1.6210001 12
21.040001 2.664 -1.553 16
25.093 3.1930001 -1.46 5
0 0 0 0
13.535 1.7640001 -1.707 8
15.224 1.992 -1.679 11
17.372 2.2820001 -1.641 11
20.004999 2.638 -1.574 15
23.624001 3.1300001 -1.489 10
0 0 0 0
13.082 1.773 -1.717 12
14.621 1.989 -1.686 12
16.68 2.2780001 -1.66 10
19.014999 2.6070001 -1.592 13
22.316 3.072 -1.517 16
27.118999 3.7509999 -1.421 5
12.635 1.779 -1.726 11
14.087 1.99 -1.699 12
15.944 2.26 -1.669 9
18.166 2.5840001 -1.614 12
21.082001 3.01 -1.541 16
25.216999 3.6159999 -1.447 4
12.226 1.785 -1.735 10
13.479 1.972 -1.696 12
15.269 2.2409999 -1.677 10
17.368999 2.5569999 -1.632 11
20.049999 2.964 -1.568 15
23.568001 3.4979999 -1.472 10
11.804 1.783 -1.74 10
13.039 1.974 -1.711 13
14.649 2.224 -1.688 11
16.622999 2.5309999 -1.65 10
19.024 2.9059999 -1.587 13
22.299 3.4200001 -1.5089999 18
11.405 1.781 -1.744 11
12.588 1.969 -1.721 11
14.035 2.2 -1.693 11
15.909 2.5009999 -1.665 9
18.118999 2.8570001 -1.608 12
21.047001 3.329 -1.534 14
11.046 1.779 -1.752 10
12.14 1.959 -1.728 11
13.474 2.1789999 -1.7 12
15.235 2.4690001 -1.677 10
17.336 2.8169999 -1.631 11
19.927 3.2479999 -1.559 14
10.692 1.774 -1.757 11
11.718 1.947 -1.734 10
13.012 2.1659999 -1.714 11
14.573 2.4300001 -1.684 10
16.586 2.773 -1.651 10
18.912001 3.1719999 -1.581 13
10.349 1.767 -1.761 11
11.322 1.936 -1.74 11
12.522 2.1440001 -1.72 10
13.944 2.392 -1.6900001 10
15.84 2.7219999 -1.664 9
18.027 3.1070001 -1.6059999 12
10.017 1.7589999 -1.7640001 11
10.927 1.92 -1.744 12
12.064 2.122 -1.727 10
13.401 2.3599999 -1.699 11
15.134 2.671 -1.675 8
17.201 3.0420001 -1.627 11
9.7259998 1.752 -1.771 11
10.588 1.909 -1.752 12
11.631 2.099 -1.733 10
12.906 2.332 -1.711 10
14.469 2.619 -1.683 10
16.424 2.9790001 -1.647 10
9.4250002 1.742 -1.774 11
10.237 1.892 -1.755 12
11.239 2.079 -1.7410001 11
12.415 2.299 -1.719 10
13.857 2.5699999 -1.692 10
15.682 2.914 -1.6619999 10
9.1599998 1.735 -1.78 11
9.9139996 1.877 -1.76 11
10.854 2.056 -1.7460001 12
11.956 2.267 -1.726 11
13.274 2.52 -1.699 10
14.938 2.8399999 -1.67 10
8.9049997 1.726 -1.7869999 11
9.6099997 1.863 -1.766 11
10.493 2.0339999 -1.753 11
11.503 2.2309999 -1.73 11
12.747 2.4749999 -1.7079999 10
14.289 2.7780001 -1.681 10
8.6630001 1.717 -1.793 11
9.3190002 1.846 -1.771 12
10.156 2.0120001 -1.7589999 11
11.119 2.204 -1.74 10
12.274 2.4349999 -1.7180001 10
13.69 2.7179999 -1.691 10
8.4200001 1.705 -1.7970001 11
9.059 1.834 -1.778 12
9.8179998 1.987 -1.761 11
10.727 2.171 -1.744 11
11.811 2.392 -1.724 10
13.117 2.6589999 -1.699 10
8.1890001 1.693 -1.802 10
8.7880001 1.816 -1.7819999 10
9.5109997 1.965 -1.767 12
10.368 2.142 -1.751 11
11.384 2.352 -1.733 10
12.605 2.6059999 -1.71 11
7.967 1.681 -1.806 10
8.559 1.804 -1.791 10
9.2320004 1.9450001 -1.774 11
10.032 2.112 -1.757 11
10.975 2.3110001 -1.738 10
12.114 2.552 -1.717 10
7.7509999 1.6670001 -1.808 10
8.3039999 1.784 -1.7920001 11
8.9580002 1.923 -1.779 11
9.698 2.0799999 -1.76 11
10.603 2.2739999 -1.745 10
11.66 2.5020001 -1.725 11
7.5549998 1.655 -1.814 10
8.0869999 1.7690001 -1.799 10
8.7040005 1.902 -1.785 11
9.3940001 2.0510001 -1.765 10
10.229 2.233 -1.749 10
11.223 2.451 -1.73 11
7.349 1.6390001 -1.8150001 10
7.8600001 1.75 -1.802 10
8.4619999 1.882 -1.791 11
9.1090002 2.0239999 -1.771 11
9.8970003 2.198 -1.755 11
10.829 2.405 -1.738 10
7.1659999 1.626 -1.819 10
7.6529999 1.733 -1.806 10
8.2209997 1.859 -1.795 11
8.8599997 2.0009999 -1.781 11
9.5860004 2.164 -1.762 12
10.445 2.3570001 -1.743 10
6.9559999 1.605 -1.814 11
7.448 1.715 -1.809 10
7.9980001 1.8380001 -1.8 10
8.6099997 1.977 -1.788 11
9.2869997 2.1300001 -1.768 10
10.1 2.316 -1.751 11
6.77 1.587 -1.814 10
7.2589998 1.698 -1.813 10
7.776 1.816 -1.804 10
8.3509998 1.947 -1.79 10
9.0179996 2.0999999 -1.776 11
9.7620001 2.2720001 -1.755 11
6.6090002 1.574 -1.818 10
7.0370002 1.671 -1.807 11
7.5749998 1.795 -1.809 10
8.1210003 1.9220001 -1.795 10
8.7659998 2.0710001 -1.785 11
9.4490004 2.2309999 -1.761 11
6.46 1.562 -1.824 11
6.8509998 1.651 -1.808 12
7.3850002 1.776 -1.816 10
7.9000001 1.897 -1.802 10
8.5039997 2.039 -1.789 10
9.1680002 2.1960001 -1.77 11
6.2969999 1.544 -1.825 11
6.6719999 1.632 -1.809 11
7.1729999 1.75 -1.814 10
7.6830001 1.87 -1.8049999 10
8.2559996 2.006 -1.793 10
8.8990002 2.1600001 -1.778 11
6.1539998 1.531 -1.829 11
6.52 1.6160001 -1.8150001 10
6.974 1.724 -1.813 10
7.4689999 1.842 -1.807 10
8.0240002 1.976 -1.798 10
8.6479998 2.1259999 -1.785 11
6.0050001 1.513 -1.829 10
6.3649998 1.599 -1.819 11
6.7880001 1.7 -1.814 11
7.2719998 1.817 -1.8099999 9
7.8000002 1.9450001 -1.801 10
8.3929996 2.089 -1.79 11
5.8730001 1.499 -1.8329999 10
6.2199998 1.582 -1.823 10
6.6240001 1.6799999 -1.817 11
7.085 1.7920001 -1.813 9
7.5869999 1.914 -1.804 10
8.1540003 2.0539999 -1.794 10
5.7399998 1.484 -1.835 10
6.0679998 1.563 -1.824 10
6.4640002 1.659 -1.8200001 11
6.8839998 1.762 -1.811 11
7.402 1.8890001 -1.812 10
7.9239998 2.0190001 -1.798 10
5.6149998 1.469 -1.8380001 10
5.9229999 1.543 -1.824 10
6.3070002 1.637 -1.822 11
6.71 1.7359999 -1.813 10
7.197 1.858 -1.813 9
7.71 1.9859999 -1.803 10
5.467 1.447 -1.832 10
5.789 1.525 -1.827 10
6.164 1.618 -1.826 11
6.539 1.711 -1.814 11
6.9970002 1.825 -1.812 10
7.4990001 1.951 -1.8049999 10
5.3530002 1.432 -1.835 10
5.6729999 1.511 -1.8329999 10
6.0120001 1.595 -1.826 10
6.3940001 1.6900001 -1.8200001 11
6.8169999 1.7970001 -1.814 10
7.3049998 1.92 -1.8099999 10
5.2389998 1.4170001 -1.837 10
5.54 1.4910001 -1.832 10
5.8850002 1.577 -1.831 10
6.2309999 1.663 -1.8200001 10
6.6279998 1.7640001 -1.811 11
7.0710001 1.877 -1.801 11
5.1170001 1.398 -1.835 10
5.4109998 1.471 -1.831 10
5.7519999 1.556 -1.8329999 10
6.099 1.6440001 -1.825 10
6.4720001 1.738 -1.814 10
6.8969998 1.847 -1.8049999 11
5.0180001 1.3839999 -1.839 10
5.3039999 1.455 -1.836 10
5.6139998 1.533 -1.831 10
5.9530001 1.619 -1.826 10
6.3200002 1.7130001 -1.817 10
6.73 1.818 -1.809 11
4.9070001 1.3660001 -1.8380001 10
5.1869998 1.436 -1.836 11
5.4959998 1.5140001 -1.834 10
5.8340001 1.601 -1.832 10
6.1750002 1.687 -1.821 11
6.566 1.788 -1.812 11
4.8080001 1.351 -1.839 11
5.079 1.419 -1.837 11
5.3670001 1.492 -1.832 11
5.6989999 1.577 -1.832 10
6.0370002 1.663 -1.824 10
6.4029999 1.758 -1.813 11
4.71 1.335 -1.839 10
4.9720001 1.4 -1.837 12
5.257 1.473 -1.835 12
5.566 1.552 -1.831 10
5.908 1.64 -1.8279999 10
6.27 1.734 -1.8200001 10
4.6199999 1.3200001 -1.842 10
4.8660002 1.382 -1.836 10
5.1550002 1.455 -1.839 11
5.441 1.528 -1.83 10
5.7719998 1.614 -1.8279999 11
6.1170001 1.704 -1.819 10
4.5300002 1.304 -1.8430001 9
4.7680001 1.364 -1.837 12
5.0539999 1.438 -1.842 12
5.3270001 1.507 -1.832 12
5.6469998 1.59 -1.83 10
5.9759998 1.676 -1.8200001 10
4.441 1.288 -1.8430001 9
4.6729999 1.346 -1.837 11
4.9460001 1.4170001 -1.84 11
5.2210002 1.487 -1.835 11
5.5240002 1.566 -1.831 11
5.8429999 1.649 -1.822 10
4.3540001 1.272 -1.8430001 9
4.5799999 1.329 -1.8380001 10
4.8460002 1.397 -1.841 11
5.1199999 1.4680001 -1.8380001 11
5.3660002 1.53 -1.818 11
5.7160001 1.622 -1.823 10
4.2779999 1.2589999 -1.846 10
4.4980001 1.314 -1.84 11
4.743 1.376 -1.8380001 12
5.0100002 1.4450001 -1.837 10
5.2859998 1.516 -1.829 11
5.5900002 1.595 -1.823 10
4.1950002 1.242 -1.844 10
4.4169998 1.298 -1.8430001 11
4.6479998 1.3559999 -1.8380001 11
4.9109998 1.424 -1.837 10
5.1830001 1.494 -1.832 11
5.4569998 1.566 -1.819 11
4.1160002 1.226 -1.844 9
4.3299999 1.28 -1.841 10
4.5599999 1.3380001 -1.8380001 11
4.816 1.404 -1.8380001 11
5.0799999 1.472 -1.8329999 11
5.3699999 1.548 -1.829 11
4.0349998 1.2079999 -1.841 9
4.2490001 1.262 -1.84 11
4.4759998 1.3200001 -1.839 11
4.7199998 1.383 -1.837 11
4.9860001 1.452 -1.836 11
5.2550001 1.522 -1.827 11
3.964 1.194 -1.841 9
4.1760001 1.247 -1.842 10
4.402 1.304 -1.8430001 10
4.6300001 1.362 -1.837 10
4.888 1.429 -1.836 11
5.131 1.4910001 -1.821 10
3.898 1.1799999 -1.8430001 9
4.098 1.23 -1.841 10
4.323 1.2869999 -1.844 11
4.5409999 1.342 -1.837 10
4.796 1.408 -1.837 11
5.059 1.476 -1.832 11
3.8340001 1.165 -1.845 9
4.0219998 1.212 -1.839 11
4.2410002 1.267 -1.842 10
4.4629998 1.324 -1.8380001 10
4.6999998 1.385 -1.834 11
4.9629998 1.4529999 -1.8329999 11
3.773 1.152 -1.846 9
3.9560001 1.197 -1.841 11
4.1719999 1.251 -1.844 10
4.3860002 1.3049999 -1.84 10
4.6110001 1.362 -1.8329999 11
4.8720002 1.4299999 -1.8329999 11
3.7130001 1.138 -1.848 8
3.892 1.182 -1.842 10
4.0970001 1.233 -1.8430001 10
4.309 1.286 -1.84 10
4.527 1.341 -1.8329999 11
4.7789998 1.4069999 -1.8329999 11
3.655 1.124 -1.85 9
3.825 1.165 -1.841 10
4.0289998 1.216 -1.8430001 11
4.2270002 1.265 -1.837 10
4.4559999 1.324 -1.837 10
4.698 1.386 -1.835 11
3.598 1.1109999 -1.851 9
3.7720001 1.152 -1.846 9
3.9579999 1.198 -1.842 11
4.1700001 1.251 -1.8430001 10
4.3839998 1.3049999 -1.839 10
4.605 1.3609999 -1.831 11
3.5409999 1.096 -1.851 8
3.7119999 1.137 -1.846 9
3.8900001 1.1799999 -1.84 10
4.092 1.23 -1.839 9
4.3080001 1.284 -1.8380001 10
4.533 1.341 -1.834 10
3.494 1.084 -1.854 9
3.6559999 1.122 -1.847 10
3.8299999 1.164 -1.84 9
4.0300002 1.2130001 -1.841 11
4.2360001 1.265 -1.837 10
4.4569998 1.3200001 -1.834 10
3.438 1.069 -1.853 8
3.6029999 1.108 -1.848 9
3.7739999 1.149 -1.842 10
3.9679999 1.196 -1.842 10
4.1690001 1.2460001 -1.8380001 10
4.388 1.301 -1.836 10
3.3870001 1.0549999 -1.853 8
3.5539999 1.095 -1.851 9
3.723 1.1339999 -1.845 9
3.905 1.178 -1.841 9
4.1100001 1.229 -1.841 9
4.3179998 1.28 -1.837 10
3.3380001 1.041 -1.853 8
3.4990001 1.079 -1.85 9
3.6730001 1.12 -1.848 9
3.846 1.161 -1.841 9
4.0380001 1.2079999 -1.837 10
4.2610002 1.2640001 -1.841 10
3.289 1.028 -1.853 8
3.4579999 1.067 -1.855 9
3.625 1.1059999 -1.851 9
3.7880001 1.1440001 -1.84 9
3.9849999 1.192 -1.84 10
4.1820002 1.24 -1.835 9
3.2460001 1.015 -1.854 7
3.411 1.053 -1.855 9
3.573 1.09 -1.85 9
3.74 1.1289999 -1.842 9
3.927 1.174 -1.84 10
4.1279998 1.223 -1.8380001 10
3.1989999 1 -1.852 7
3.359 1.0369999 -1.853 9
3.52 1.074 -1.848 9
3.6849999 1.112 -1.842 9
3.8659999 1.154 -1.8380001 9
4.0669999 1.2029999 -1.8380001 10
3.1600001 0.98799998 -1.855 8
3.313 1.023 -1.852 8
3.4809999 1.061 -1.853 9
3.6489999 1.1 -1.849 9
3.809 1.136 -1.836 9
4.0040002 1.183 -1.835 10
3.1099999 0.97299999 -1.85 7
3.2709999 1.0089999 -1.853 8
3.4389999 1.0470001 -1.855 9
3.5999999 1.084 -1.849 9
3.7639999 1.1210001 -1.839 9
3.9489999 1.164 -1.835 10
3.076 0.96100003 -1.853 7
3.2290001 0.995 -1.853 8
3.3889999 1.031 -1.852 9
3.552 1.067 -1.848 9
3.7160001 1.104 -1.84 9
3.8929999 1.145 -1.834 9
3.0380001 0.94800001 -1.853 7
3.1949999 0.98299998 -1.857 8
3.352 1.018 -1.855 8
3.51 1.052 -1.849 8
3.6760001 1.09 -1.844 9
3.848 1.1289999 -1.837 9
3.003 0.93599999 -1.854 7
3.1470001 0.96700001 -1.851 8
3.3080001 1.002 -1.853 9
3.467 1.0369999 -1.85 8
3.635 1.075 -1.846 9
3.8010001 1.1109999 -1.837 9
2.971 0.92400002 -1.8559999 6
3.1210001 0.95700002 -1.858 8
3.263 0.986 -1.85 9
3.428 1.022 -1.851 9
3.595 1.059 -1.848 9
3.7639999 1.097 -1.842 9
0 0 0 0
3.0810001 0.94199997 -1.855 7
3.2309999 0.97399998 -1.853 8
3.3940001 1.0089999 -1.854 8
3.549 1.0420001 -1.846 9
3.7179999 1.079 -1.841 8
1.563 0.484 -0.99900001 3
3.0450001 0.92799997 -1.854 7
3.194 0.95899999 -1.852 9
3.3499999 0.99199998 -1.851 8
3.5150001 1.028 -1.85 9
3.6830001 1.064 -1.845 8
0 0 0 0
3.0120001 0.91500002 -1.854 7
3.1589999 0.94499999 -1.852 8
3.3199999 0.97899997 -1.855 8
3.4749999 1.012 -1.849 9
3.638 1.046 -1.8430001 8
1.48 0.45500001 -0.96600002 5
2.987 0.90399998 -1.858 7
3.128 0.93199998 -1.853 8
3.28 0.963 -1.851 8
3.4389999 0.99599999 -1.849 9
3.6059999 1.0319999 -1.847 8
0 0 0 0
2.938 0.88499999 -1.846 11
3.0969999 0.91799998 -1.853 7
3.2490001 0.949 -1.853 8
3.405 0.98100001 -1.85 9
3.5739999 1.017 -1.849 8
0 0 0 0
1.687 0.50599998 -1.0700001 6
3.0669999 0.90499997 -1.854 7
3.2160001 0.935 -1.852 8
3.3729999 0.96600002 -1.85 8
3.536 1 -1.848 9
0 0 0 0
1.543 0.46000001 -0.98799998 5
3.043 0.89300001 -1.8559999 7
3.1849999 0.92000002 -1.851 8
3.3399999 0.95099998 -1.85 8
3.5020001 0.98400003 -1.848 9
0 0 0 0
0 0 0 0
3.013 0.87900001 -1.855 6
3.1589999 0.90700001 -1.853 7
3.313 0.93699998 -1.852 8
3.4690001 0.96799999 -1.848 8
0 0 0 0
0 0 0 0
2.9909999 0.86699998 -1.857 7
3.1259999 0.89099997 -1.85 8
3.2839999 0.92199999 -1.852 8
3.4389999 0.95300001 -1.848 8
0 0 0 0
0 0 0 0
1.526 0.43900001 -0.95499998 0
3.105 0.87900001 -1.853 8
3.2539999 0.90700001 -1.85 8
3.4230001 0.94099998 -1.855 8
0 0 0 0
0 0 0 0
1.773 0.50599998 -1.119 9
3.0810001 0.866 -1.853 7
3.2260001 0.89200002 -1.849 7
3.385 0.92299998 -1.849 8
0 0 0 0
0 0 0 0
1.592 0.45100001 -1.012 4
3.0580001 0.852 -1.853 6
3.207 0.87900001 -1.852 7
3.3640001 0.90899998 -1.852 8
0 0 0 0
0 0 0 0
1.552 0.43599999 -0.99400002 3
3.0369999 0.83899999 -1.854 7
3.1789999 0.86400002 -1.85 7
3.3369999 0.89300001 -1.851 7
0 0 0 0
0 0 0 0
1.535 0.428 -0.99000001 2
3.016 0.82599998 -1.854 7
3.1600001 0.85100001 -1.851 7
3.313 0.87800002 -1.85 7
0 0 0 0
0 0 0 0
1.507 0.41600001 -0.97799999 2
2.994 0.81199998 -1.852 6
3.1400001 0.83700001 -1.851 7
3.2939999 0.86400002 -1.851 7
0 0 0 0
0 0 0 0
1.487 0.40599999 -0.97100002 2
2.9749999 0.79799998 -1.852 6
3.1210001 0.82300001 -1.851 7
3.2720001 0.84899998 -1.85 7
0 0 0 0
0 0 0 0
0 0 0 0
0 0 0 0
3.105 0.81 -1.852 7
3.256 0.83499998 -1.852 7
0 0 0 0
0 0 0 0
1.45 0.38800001 -0.95700002 3
0 0 0 0
3.0899999 0.796 -1.853 7
3.2420001 0.82200003 -1.854 7
0 0 0 0
0 0 0 0
0 0 0 0
1.7410001 0.45100001 -1.1 3
3.0739999 0.78299999 -1.852 7
3.223 0.80699998 -1.852 7
0 0 0 0
0 0 0 0
0 0 0 0
1.589 0.40700001 -1.0089999 1
3.0610001 0.76999998 -1.853 7
3.211 0.79299998 -1.853 7
0 0 0 0
0 0 0 0
0 0 0 0
1.5650001 0.396 -0.99800003 1
3.0450001 0.755 -1.851 7
3.1960001 0.77899998 -1.852 7
1.188 0.317 -0.88 9
0 0 0 0
0 0 0 0
1.551 0.38699999 -0.99199998 1
3.033 0.74199998 -1.85 7
3.1860001 0.76599997 -1.854 8
0 0 0 0
0 0 0 0
0 0 0 0
1.534 0.377 -0.98500001 2
3.0250001 0.73000002 -1.852 7
3.1760001 0.75199997 -1.854 7
0 0 0 0
0 0 0 0
0 0 0 0
1.518 0.368 -0.977 2
3.0120001 0.71600002 -1.85 7
3.158 0.73699999 -1.849 7
0 0 0 0
0 0 0 0
0 0 0 0
1.508 0.36000001 -0.97299999 2
3.0079999 0.704 -1.852 6
3.1559999 0.72399998 -1.853 7
0 0 0 0
0 0 0 0
0 0 0 0
1.497 0.352 -0.96899998 2
3.0009999 0.69099998 -1.852 7
3.1489999 0.71100003 -1.853 7
0 0 0 0
0 0 0 0
0 0 0 0
1.4859999 0.34299999 -0.96399999 2
2.9949999 0.67799997 -1.852 7
3.1389999 0.69599998 -1.851 7
0 0 0 0
0 0 0 0
0 0 0 0
1.49 0.338 -0.96700001 2
2.9909999 0.66500002 -1.852 7
3.1389999 0.68400002 -1.853 7
0 0 0 0
0 0 0 0
0 0 0 0
1.4859999 0.331 -0.96600002 2
2.9860001 0.65200001 -1.851 6
3.1370001 0.671 -1.854 7
0 0 0 0
0 0 0 0
0 0 0 0
1.4859999 0.32499999 -0.96600002 2
2.9879999 0.63999999 -1.853 6
3.1300001 0.65600002 -1.851 6
0 0 0 0
0 0 0 0
0 0 0 0
1.479 0.31799999 -0.96200001 2
2.9849999 0.62699997 -1.852 6
3.131 0.64399999 -1.852 7
0 0 0 0
0 0 0 0
0 0 0 0
1.483 0.31200001 -0.96499997 2
2.984 0.61400002 -1.851 6
3.1289999 0.63 -1.851 6
0 0 0 0
0 0 0 0
0 0 0 0
1.485 0.30599999 -0.96499997 2
2.99 0.602 -1.854 6
3.135 0.61799997 -1.854 7
0 0 0 0
0 0 0 0
0 0 0 0
1.482 0.29899999 -0.963 2
2.997 0.59100002 -1.8559999 7
3.1340001 0.60399997 -1.852 7
0 0 0 0
0 0 0 0
0 0 0 0
1.492 0.294 -0.96799999 2
3.0009999 0.57800001 -1.857 7
3.138 0.59100002 -1.852 7
0 0 0 0
0 0 0 0
0 0 0 0
1.4910001 0.287 -0.96600002 2
3.0039999 0.56599998 -1.8559999 7
3.1429999 0.57800001 -1.852 7
0 0 0 0
0 0 0 0
0 0 0 0
1.495 0.28099999 -0.96700001 2
3.0090001 0.55299997 -1.855 6
3.1570001 0.56599998 -1.857 7
0 0 0 0
0 0 0 0
0 0 0 0
1.498 0.27500001 -0.96600002 2
3.0139999 0.54000002 -1.854 7
3.1630001 0.55299997 -1.855 7
0 0 0 0
0 0 0 0
0 0 0 0
1.507 0.27000001 -0.97000003 2
3.023 0.528 -1.854 7
3.168 0.54000002 -1.854 7
0 0 0 0
0 0 0 0
0 0 0 0
1.515 0.264 -0.972 2
3.036 0.51599997 -1.857 7
3.1760001 0.52700001 -1.853 7
0 0 0 0
0 0 0 0
0 0 0 0
1.528 0.259 -0.977 2
3.0420001 0.50300002 -1.854 7
3.187 0.514 -1.853 7
0 0 0 0
0 0 0 0
1.403 0.23800001 -0.93699998 5
1.545 0.255 -0.98400003 1
3.053 0.49000001 -1.854 6
3.207 0.50199997 -1.858 7
1.202 0.211 -0.88099998 10
0 0 0 0
0 0 0 0
1.558 0.25 -0.98799998 1
3.069 0.479 -1.8559999 7
3.2179999 0.48899999 -1.8559999 7
0 0 0 0
0 0 0 0
0 0 0 0
1.572 0.244 -0.99199998 1
3.0799999 0.46599999 -1.854 7
3.2409999 0.477 -1.8609999 7
0 0 0 0
0 0 0 0
1.436 0.223 -0.94599998 4
0 0 0 0
3.108 0.45500001 -1.862 7
3.2460001 0.463 -1.855 7
0 0 0 0
0 0 0 0
1.45 0.21799999 -0.94999999 3
0 0 0 0
3.1240001 0.44299999 -1.862 7
3.2679999 0.45100001 -1.858 7
0 0 0 0
0 0 0 0
1.467 0.214 -0.95599997 3
2.957 0.41800001 -1.839 8
3.1389999 0.43000001 -1.8609999 7
3.2880001 0.43799999 -1.859 8
0 0 0 0
0 0 0 0
1.4809999 0.208 -0.95999998 2
3.0090001 0.41 -1.86 7
3.155 0.417 -1.86 7
3.313 0.42500001 -1.862 7
0 0 0 0
0 0 0 0
1.498 0.20299999 -0.96499997 2
3.03 0.39899999 -1.8609999 7
3.1719999 0.40400001 -1.858 7
3.3310001 0.412 -1.86 7
0 0 0 0
0 0 0 0
1.526 0.2 -0.97600001 2
3.05 0.38699999 -1.8609999 6
3.1989999 0.39300001 -1.862 7
3.3510001 0.39899999 -1.86 7
0 0 0 0
1.405 0.184 -0.93699998 6
1.5470001 0.19499999 -0.98299998 2
3.0710001 0.37400001 -1.8609999 7
3.221 0.38 -1.8609999 7
3.3770001 0.38600001 -1.8609999 8
0 0 0 0
1.427 0.17900001 -0.94499999 6
1.584 0.192 -1 1
3.0899999 0.36199999 -1.859 7
3.2390001 0.36700001 -1.859 8
3.4070001 0.37400001 -1.864 8
0 0 0 0
1.4400001 0.17399999 -0.94599998 5
0 0 0 0
3.1240001 0.35100001 -1.8660001 7
3.2690001 0.35499999 -1.862 7
3.427 0.36000001 -1.8609999 7
0 0 0 0
1.465 0.17 -0.95499998 4
2.9860001 0.33399999 -1.8559999 6
3.1429999 0.33899999 -1.863 7
3.299 0.34299999 -1.864 7
3.457 0.347 -1.862 8
0 0 0 0
1.488 0.16500001 -0.963 4
3.0250001 0.32300001 -1.865 6
3.1670001 0.32600001 -1.862 7
3.322 0.33000001 -1.862 7
3.4909999 0.33399999 -1.865 8
0 0 0 0
1.5190001 0.161 -0.97399998 3
3.053 0.31200001 -1.867 7
3.197 0.31400001 -1.864 7
3.349 0.317 -1.8609999 8
3.5179999 0.32100001 -1.863 8
1.396 0.147 -0.93099999 6
1.557 0.15800001 -0.99000001 2
3.079 0.29899999 -1.8660001 7
3.221 0.301 -1.8609999 8
3.3840001 0.30399999 -1.864 8
3.55 0.30700001 -1.863 9
1.4170001 0.14300001 -0.93599999 5
1.595 0.154 -1.005 2
3.1110001 0.28799999 -1.868 7
3.2609999 0.28999999 -1.867 7
3.4170001 0.292 -1.865 8
3.5799999 0.294 -1.862 8
1.441 0.138 -0.94400001 4
0 0 0 0
3.1400001 0.27599999 -1.868 7
3.2869999 0.27700001 -1.864 7
3.4430001 0.278 -1.8609999 8
3.615 0.28099999 -1.862 8
1.477 0.134 -0.958 4
3.0179999 0.26300001 -1.8660001 6
3.1719999 0.264 -1.869 8
3.323 0.26499999 -1.8660001 7
3.4890001 0.266 -1.868 8
3.6559999 0.26800001 -1.865 8
1.5089999 0.13 -0.96899998 3
3.056 0.252 -1.87 7
3.201 0.252 -1.868 7
3.355 0.25299999 -1.8660001 7
3.517 0.25299999 -1.864 8
3.6860001 0.25299999 -1.86 8
1.553 0.127 -0.98699999 2
3.0840001 0.23999999 -1.869 7
3.2320001 0.23999999 -1.867 7
3.3929999 0.23999999 -1.867 8
3.5510001 0.23999999 -1.862 8
3.7349999 0.241 -1.865 8
1.647 0.127 -1.036 2
3.1210001 0.229 -1.8710001 7
3.2720001 0.228 -1.87 8
3.428 0.228 -1.867 8
3.599 0.227 -1.867 9
3.7679999 0.227 -1.862 9
0 0 0 0
3.1530001 0.21699999 -1.87 7
3.3050001 0.21600001 -1.868 8
3.4719999 0.215 -1.87 7
3.6440001 0.214 -1.869 9
3.8110001 0.213 -1.8609999 9
3.043 0.207 -1.873 7
3.187 0.205 -1.869 8
3.3469999 0.204 -1.8710001 8
3.51 0.20200001 -1.87 8
3.678 0.20100001 -1.865 8
3.8510001 0.199 -1.859 8
3.0739999 0.19499999 -1.87 7
3.2249999 0.193 -1.87 8
3.385 0.191 -1.8710001 8
3.5450001 0.189 -1.8660001 8
3.7190001 0.18700001 -1.864 9
3.8989999 0.185 -1.86 9
3.1110001 0.183 -1.8710001 7
3.2590001 0.18099999 -1.868 8
3.428 0.17900001 -1.872 8
3.5899999 0.177 -1.867 8
3.767 0.17399999 -1.865 9
3.9460001 0.17200001 -1.859 9
3.145 0.17200001 -1.869 7
3.3069999 0.17 -1.873 7
3.471 0.167 -1.873 8
3.6329999 0.164 -1.867 9
3.803 0.161 -1.86 8
3.993 0.15800001 -1.858 9
3.1800001 0.16 -1.868 7
3.3469999 0.15800001 -1.873 9
3.5150001 0.155 -1.873 9
3.675 0.15099999 -1.865 9
3.858 0.148 -1.863 9
4.0440001 0.14399999 -1.857 8
3.223 0.149 -1.869 7
3.3829999 0.145 -1.869 9
3.5639999 0.142 -1.875 8
3.7290001 0.138 -1.868 9
3.9070001 0.134 -1.862 10
4.1079998 0.13 -1.8609999 9
3.2650001 0.13699999 -1.869 7
3.4300001 0.133 -1.8710001 8
3.6029999 0.12899999 -1.872 9
3.777 0.125 -1.867 9
3.957 0.12 -1.8609999 9
4.1630001 0.116 -1.86 10
3.312 0.126 -1.872 8
3.4790001 0.121 -1.873 9
3.6500001 0.117 -1.8710001 8
3.826 0.112 -1.8660001 9
4.0149999 0.107 -1.862 10
4.217 0.102 -1.858 10
3.3540001 0.114 -1.8710001 8
3.5280001 0.109 -1.874 9
3.7 0.104 -1.8710001 8
3.8759999 0.097999997 -1.864 9
4.066 0.093000002 -1.859 10
4.2839999 0.086999997 -1.86 10
3.4030001 0.102 -1.872 8
3.5810001 0.097000003 -1.876 9
3.753 0.090999998 -1.8710001 8
3.924 0.085000001 -1.86 9
4.1300001 0.079000004 -1.8609999 9
4.3449998 0.072999999 -1.859 10
3.45 0.090000004 -1.872 8
3.6300001 0.085000001 -1.875 9
3.803 0.079000004 -1.869 9
3.987 0.071999997 -1.863 10
4.1880002 0.066 -1.859 10
4.4169998 0.059 -1.8609999 10
3.5050001 0.078000002 -1.875 8
3.6719999 0.071999997 -1.87 9
3.862 0.066 -1.8710001 10
4.0409999 0.059 -1.8609999 9
4.2589998 0.052000001 -1.862 10
4.4889998 0.044 -1.862 11
3.5580001 0.067000002 -1.876 8
3.734 0.059999999 -1.874 9
3.911 0.052999999 -1.867 10
4.1160002 0.046 -1.8660001 10
4.3309999 0.037999999 -1.864 11
4.566 0.029999999 -1.864 10
3.6029999 0.054000001 -1.873 8
3.786 0.046999998 -1.872 9
3.97 0.039999999 -1.8660001 10
4.1760001 0.032000002 -1.864 10
4.402 0.024 -1.865 10
4.6300001 0.015 -1.859 10
3.6670001 0.043000001 -1.878 8
3.8429999 0.035 -1.8710001 9
4.0370002 0.027000001 -1.868 11
4.2410002 0.018999999 -1.864 10
4.4710002 0.0099999998 -1.863 10
4.7090001 0 -1.859 10
3.7190001 0.030999999 -1.875 9
3.898 0.023 -1.869 10
4.0929999 0.014 -1.864 10
4.3140001 0.0049999999 -1.865 10
4.5430002 -0.003 -1.862 10
4.7820001 -0.014 -1.8559999 10
3.7720001 0.018999999 -1.873 9
3.9549999 0.0099999998 -1.867 10
4.165 0.001 -1.867 10
4.382 -0.0070000002 -1.863 10
4.6170001 -0.017999999 -1.86 11
4.881 -0.028999999 -1.8609999 11
3.836 0.0070000002 -1.874 9
4.0229998 -0.001 -1.868 10
4.2350001 -0.011 -1.867 10
4.4660001 -0.021 -1.867 9
4.697 -0.032000002 -1.86 10
4.9650002 -0.044 -1.859 11
3.892 -0.0049999999 -1.8710001 9
4.085 -0.014 -1.8660001 10
4.3080001 -0.024 -1.867 10
4.539 -0.035 -1.865 10
4.7789998 -0.046 -1.859 11
5.0630002 -0.059 -1.8609999 11
3.9560001 -0.017000001 -1.8710001 9
4.1570001 -0.027000001 -1.867 11
4.3800001 -0.037 -1.8660001 10
4.6199999 -0.048999999 -1.865 9
4.8730001 -0.061000001 -1.86 11
5.1550002 -0.075000003 -1.859 11
4.0149999 -0.028999999 -1.867 9
4.2259998 -0.039000001 -1.865 11
4.4679999 -0.050999999 -1.87 10
4.704 -0.063000001 -1.864 10
4.973 -0.075999998 -1.863 11
5.257 -0.090000004 -1.859 12
4.0840001 -0.041000001 -1.867 10
4.3060002 -0.052000001 -1.868 10
4.5450001 -0.064000003 -1.868 11
4.7930002 -0.077 -1.864 11
5.0609999 -0.090999998 -1.86 11
5.3649998 -0.106 -1.86 12
4.1529999 -0.052999999 -1.8660001 9
4.3909998 -0.064999998 -1.8710001 11
4.6329999 -0.077 -1.87 11
4.8800001 -0.090999998 -1.863 11
5.1659999 -0.105 -1.862 11
5.4660001 -0.121 -1.8559999 12
4.2340002 -0.064999998 -1.868 10
4.4689999 -0.078000002 -1.869 10
4.7160001 -0.090999998 -1.868 11
4.9819999 -0.105 -1.865 11
5.2750001 -0.12 -1.863 12
5.5799999 -0.13699999 -1.8559999 12
4.3130002 -0.077 -1.869 9
4.5549998 -0.090000004 -1.87 11
4.8000002 -0.104 -1.865 11
5.0809999 -0.119 -1.865 11
5.3730001 -0.13500001 -1.859 12
5.711 -0.153 -1.858 12
4.3899999 -0.090000004 -1.867 10
4.6459999 -0.103 -1.872 11
4.901 -0.118 -1.867 11
5.1890001 -0.134 -1.8660001 11
5.4970002 -0.15099999 -1.862 13
5.8299999 -0.169 -1.8559999 12
4.48 -0.102 -1.87 10
4.723 -0.116 -1.8660001 11
4.994 -0.131 -1.865 12
5.289 -0.147 -1.863 11
5.6170001 -0.16599999 -1.862 11
5.9689999 -0.186 -1.858 11
4.5710001 -0.114 -1.872 10
4.8119998 -0.12800001 -1.865 11
5.0960002 -0.14399999 -1.865 12
5.402 -0.162 -1.863 12
5.7350001 -0.18099999 -1.86 12
6.092 -0.20200001 -1.853 11
4.6550002 -0.126 -1.87 10
4.9109998 -0.141 -1.865 12
5.2020001 -0.15800001 -1.864 12
5.5159998 -0.176 -1.862 12
5.868 -0.19599999 -1.8609999 11
6.244 -0.21799999 -1.855 12
4.7480001 -0.138 -1.869 10
5.013 -0.154 -1.865 12
5.3179998 -0.17200001 -1.8660001 12
5.645 -0.191 -1.863 12
6.0100002 -0.212 -1.862 11
6.395 -0.235 -1.854 12
4.836 -0.15000001 -1.8660001 10
5.1259999 -0.167 -1.867 12
5.4289999 -0.185 -1.863 13
5.776 -0.206 -1.863 12
6.1529999 -0.228 -1.8609999 12
6.5609999 -0.25299999 -1.855 11
4.9429998 -0.163 -1.868 11
5.2309999 -0.18000001 -1.865 13
5.5580001 -0.2 -1.865 11
5.9219999 -0.221 -1.8660001 13
6.3039999 -0.244 -1.86 12
6.7220001 -0.26899999 -1.852 11
5.0419998 -0.175 -1.8660001 11
5.349 -0.193 -1.8660001 12
5.6880002 -0.213 -1.8660001 11
6.0500002 -0.235 -1.862 11
6.4629998 -0.25999999 -1.8609999 11
6.9039998 -0.287 -1.853 12
5.1550002 -0.18700001 -1.867 11
5.4650002 -0.206 -1.864 11
5.8130002 -0.227 -1.863 12
6.2010002 -0.25 -1.863 12
6.6209998 -0.27599999 -1.857 11
7.0830002 -0.30399999 -1.85 12
5.2649999 -0.199 -1.865 12
5.585 -0.219 -1.862 12
5.961 -0.241 -1.865 12
6.3559999 -0.26499999 -1.862 12
6.7909999 -0.292 -1.8559999 12
7.2849998 -0.322 -1.85 12
5.3920002 -0.212 -1.868 11
5.7249999 -0.23199999 -1.865 11
6.1069999 -0.255 -1.865 11
6.5209999 -0.28 -1.8609999 11
6.9660001 -0.308 -1.853 12
7.4920001 -0.34 -1.849 13
5.5170002 -0.22400001 -1.868 11
5.8610001 -0.245 -1.864 12
6.2620001 -0.26899999 -1.865 12
6.684 -0.29499999 -1.858 12
7.1630001 -0.32499999 -1.852 13
7.6929998 -0.35800001 -1.842 13
5.6409998 -0.236 -1.865 11
6.007 -0.25799999 -1.863 12
6.414 -0.28299999 -1.8609999 11
6.8629999 -0.31 -1.857 12
7.3720002 -0.34200001 -1.853 12
7.9250002 -0.37599999 -1.841 12
5.7779999 -0.248 -1.865 11
6.1490002 -0.27000001 -1.8609999 11
6.5900002 -0.29699999 -1.863 11
7.0469999 -0.32600001 -1.855 12
7.5830002 -0.35800001 -1.85 12
8.165 -0.39500001 -1.8380001 13
5.9229999 -0.25999999 -1.8660001 12
6.3060002 -0.28299999 -1.859 12
6.7529998 -0.31099999 -1.858 12
7.2540002 -0.34099999 -1.855 13
7.8039999 -0.375 -1.847 12
8.4309998 -0.414 -1.837 12
6.0739999 -0.27200001 -1.8660001 12
6.473 -0.296 -1.859 11
6.941 -0.32499999 -1.858 13
7.4660001 -0.35699999 -1.854 12
8.04 -0.39199999 -1.844 11
8.7040005 -0.433 -1.834 12
6.2189999 -0.28299999 -1.862 12
6.6440001 -0.30899999 -1.858 11
7.1230001 -0.338 -1.853 12
7.6810002 -0.37200001 -1.851 12
8.2919998 -0.41 -1.842 12
8.974 -0.45199999 -1.827 12
6.3790002 -0.294 -1.8609999 11
6.8210001 -0.32100001 -1.855 13
7.3379998 -0.35299999 -1.854 13
7.9060001 -0.38699999 -1.847 13
8.5349998 -0.426 -1.834 12
9.2969999 -0.472 -1.826 13
6.5679998 -0.30700001 -1.865 11
6.9990001 -0.333 -1.851 13
7.5570002 -0.36700001 -1.853 13
8.1330004 -0.40200001 -1.84 11
8.835 -0.44400001 -1.834 13
9.6099997 -0.491 -1.817 13
6.7410002 -0.31799999 -1.862 12
7.2210002 -0.347 -1.854 12
7.7859998 -0.38100001 -1.85 12
8.3940001 -0.417 -1.837 12
9.1219997 -0.461 -1.827 12
9.9549999 -0.51099998 -1.812 12
6.928 -0.329 -1.86 13
7.4310002 -0.359 -1.852 13
8.0279999 -0.39399999 -1.848 13
8.665 -0.433 -1.832 12
9.4449997 -0.479 -1.823 13
10.342 -0.53299999 -1.808 13
7.1170001 -0.34 -1.857 12
7.645 -0.37099999 -1.848 12
8.2639999 -0.40700001 -1.841 12
8.9560003 -0.44800001 -1.8279999 12
9.7729998 -0.49599999 -1.8150001 12
10.754 -0.55400002 -1.802 13
7.3280001 -0.35100001 -1.855 13
7.8769999 -0.38299999 -1.844 12
8.5190001 -0.41999999 -1.835 12
9.2690001 -0.46399999 -1.824 12
10.15 -0.51499999 -1.811 12
11.189 -0.57499999 -1.795 13
7.5479999 -0.36199999 -1.853 12
8.1330004 -0.39500001 -1.8430001 11
8.8140001 -0.43399999 -1.832 12
9.6049995 -0.479 -1.819 13
10.543 -0.53299999 -1.8049999 13
11.65 -0.597 -1.785 13
7.7670002 -0.37200001 -1.848 12
8.3850002 -0.40599999 -1.837 12
9.1120005 -0.447 -1.827 12
9.9510002 -0.495 -1.813 11
10.977 -0.55199999 -1.8 13
12.163 -0.62 -1.777 12
8.0200005 -0.382 -1.847 11
8.6560001 -0.417 -1.831 12
9.4250002 -0.46000001 -1.8200001 13
10.347 -0.51099998 -1.809 13
11.429 -0.57099998 -1.793 14
12.728 -0.64300001 -1.7690001 12
8.276 -0.39199999 -1.844 12
8.9569998 -0.42899999 -1.829 13
9.7609997 -0.472 -1.814 12
10.748 -0.52600002 -1.802 13
11.917 -0.58899999 -1.784 12
13.377 -0.66900003 -1.7640001 12
8.5279999 -0.40000001 -1.836 12
9.2629995 -0.43900001 -1.824 13
10.142 -0.486 -1.811 12
11.193 -0.542 -1.7970001 13
12.457 -0.60900003 -1.776 13
14.045 -0.69400001 -1.7539999 12
8.8129997 -0.40900001 -1.832 12
9.5909996 -0.449 -1.817 13
10.544 -0.49900001 -1.806 12
11.661 -0.55699998 -1.788 13
13.044 -0.62900001 -1.767 12
14.815 -0.72100002 -1.7460001 12
9.1190004 -0.417 -1.8279999 13
9.9399996 -0.45899999 -1.811 12
10.972 -0.51099998 -1.801 13
12.166 -0.57200003 -1.779 13
13.706 -0.64999998 -1.761 12
15.647 -0.74800003 -1.735 13
9.4399996 -0.42500001 -1.824 14
10.325 -0.46900001 -1.808 12
11.416 -0.523 -1.793 13
12.72 -0.58700001 -1.77 12
14.417 -0.67000002 -1.751 12
16.599001 -0.778 -1.725 14
9.7770004 -0.43200001 -1.818 11
10.73 -0.47799999 -1.801 12
11.906 -0.53399998 -1.784 13
13.341 -0.602 -1.763 12
