# .PCD v0.7 - Point Cloud Data file format
VERSION 0.7
FIELDS x y z intensity
SIZE 4 4 4 4
TYPE F F F F
COUNT 1 1 1 1
WIDTH 1890
HEIGHT 1
VIEWPOINT 0 0 0 1 0 0 0
POINTS 1890
DATA ascii
41.054001 2.0280001 -0.81699997 52
46.846001 2.355 -0.21799999 35
47.498001 2.4319999 0.5 49
21.250999 1.117 -1.479 16
24.965 1.3329999 -1.355 14
30.527 1.656 -1.1900001 5
37.516998 2.069 -0.88999999 9
44.646999 2.503 -0.37900001 34
48.976002 2.793 0.32800001 32
20.311001 1.186 -1.495 15
23.778999 1.41 -1.387 19
28.702 1.725 -1.234 6
0 0 0 0
43.144001 2.6689999 -0.53799999 59
47.702999 2.994 0.131 58
19.5 1.253 -1.518 14
22.724001 1.478 -1.419 18
27.111 1.786 -1.278 7
35.742001 2.385 -1.138 5
42.009998 2.8399999 -0.69499999 65
45.226002 3.098 -0.059 2
18.629999 1.304 -1.529 12
21.736 1.538 -1.45 17
25.749001 1.842 -1.321 11
31.327 2.2679999 -1.128 4
38.794998 2.842 -0.80299997 6
45.012001 3.3369999 -0.245 22
17.91 1.355 -1.548 11
20.698 1.581 -1.469 16
24.448 1.887 -1.359 18
29.424999 2.2939999 -1.184 5
37.700001 2.971 -0.93900001 16
42.780998 3.4100001 -0.41299999 65
17.188 1.397 -1.563 10
19.853001 1.628 -1.498 14
23.271 1.926 -1.397 19
27.781 2.3210001 -1.24 6
35.923 3.029 -1.051 8
42.348 3.6070001 -0.59100002 61
16.516001 1.434 -1.577 10
18.782 1.643 -1.502 12
22.188999 1.9579999 -1.431 18
26.266001 2.3369999 -1.288 7
32.637001 2.9289999 -1.099 3
39.051998 3.536 -0.71499997 1
15.89 1.466 -1.591 9
18.066999 1.6799999 -1.528 12
21.132 1.98 -1.46 16
24.884001 2.349 -1.334 13
30.149 2.8699999 -1.152 4
37.804001 3.6270001 -0.86299998 10
15.279 1.494 -1.603 9
17.297001 1.702 -1.545 11
19.996 1.9809999 -1.475 14
23.565001 2.3510001 -1.373 16
28.334 2.8469999 -1.212 5
0 0 0 0
14.737 1.5190001 -1.618 11
16.601999 1.722 -1.563 10
19.083 1.9910001 -1.498 13
22.378 2.3510001 -1.41 18
26.642 2.819 -1.266 6
33.448002 3.563 -1.073 5
14.204 1.54 -1.63 11
15.928 1.7359999 -1.577 9
18.281 2.003 -1.524 12
21.311001 2.349 -1.444 16
25.136 2.7880001 -1.313 13
30.295 3.3829999 -1.115 3
13.709 1.557 -1.642 11
15.287 1.745 -1.59 10
17.434999 2 -1.54 11
20.169001 2.326 -1.466 15
23.745001 2.756 -1.357 15
28.382 3.3150001 -1.182 6
13.225 1.571 -1.653 10
14.712 1.755 -1.605 10
16.664 1.997 -1.556 10
19.132999 2.3039999 -1.4859999 13
22.478001 2.7219999 -1.395 18
26.702 3.2520001 -1.243 7
12.748 1.579 -1.659 11
14.169 1.762 -1.619 11
15.958 1.993 -1.571 9
18.318001 2.2980001 -1.516 12
21.304001 2.687 -1.4299999 16
25.114 3.1830001 -1.294 9
12.303 1.586 -1.6670001 11
13.662 1.767 -1.6339999 11
15.31 1.988 -1.5880001 9
17.438999 2.2739999 -1.533 11
20.257999 2.6530001 -1.4630001 15
23.695 3.1199999 -1.342 14
11.896 1.592 -1.677 11
13.172 1.7690001 -1.646 10
14.692 1.98 -1.602 11
16.639 2.2520001 -1.551 10
19.105 2.596 -1.48 13
22.452999 3.0650001 -1.388 18
11.513 1.597 -1.687 12
12.664 1.763 -1.652 11
14.142 1.975 -1.619 11
15.884 2.2260001 -1.566 9
18.218 2.563 -1.508 12
21.267 3.0050001 -1.427 16
11.143 1.6 -1.696 11
12.199 1.757 -1.659 11
13.603 1.965 -1.633 11
15.205 2.2030001 -1.582 9
17.306 2.516 -1.526 11
20.101999 2.934 -1.456 14
10.772 1.599 -1.701 12
11.779 1.752 -1.669 12
13.088 1.952 -1.6440001 10
14.58 2.181 -1.598 10
16.554001 2.484 -1.55 10
19.040001 2.8670001 -1.482 13
10.433 1.597 -1.7079999 12
11.396 1.748 -1.6799999 12
12.584 1.9349999 -1.652 11
14.041 2.165 -1.617 12
15.759 2.437 -1.564 9
18.065001 2.803 -1.507 12
10.077 1.59 -1.71 12
11.013 1.7410001 -1.689 12
12.106 1.9170001 -1.659 13
13.499 2.1429999 -1.633 10
15.091 2.402 -1.5829999 10
17.166 2.74 -1.527 10
9.7580004 1.584 -1.715 12
10.659 1.732 -1.697 12
11.695 1.904 -1.671 12
12.945 2.112 -1.64 11
14.452 2.3640001 -1.598 11
16.322001 2.678 -1.545 10
9.4530001 1.577 -1.7180001 12
10.31 1.722 -1.7029999 12
11.298 1.8890001 -1.681 11
12.452 2.086 -1.651 12
13.914 2.336 -1.619 10
15.591 2.6240001 -1.564 9
9.1789999 1.572 -1.726 11
9.9650002 1.7079999 -1.7079999 12
10.917 1.873 -1.6900001 12
11.986 2.0599999 -1.66 13
13.337 2.2969999 -1.631 10
14.904 2.572 -1.582 11
8.9119997 1.5650001 -1.7309999 11
9.6280003 1.691 -1.709 12
10.545 1.854 -1.697 12
11.561 2.036 -1.67 12
12.79 2.256 -1.64 11
14.276 2.5239999 -1.6 10
8.6420002 1.5549999 -1.734 11
9.3219995 1.677 -1.714 12
10.191 1.835 -1.704 13
11.162 2.0120001 -1.682 11
12.282 2.2179999 -1.649 12
13.707 2.48 -1.618 10
8.3979998 1.546 -1.739 10
9.0450001 1.665 -1.72 12
9.8459997 1.814 -1.7079999 13
10.759 1.984 -1.687 12
11.824 2.1819999 -1.659 12
13.124 2.4260001 -1.628 11
8.1610003 1.536 -1.744 11
8.7840004 1.653 -1.727 11
9.5129995 1.791 -1.71 12
10.404 1.96 -1.696 12
11.41 2.151 -1.6720001 12
12.592 2.3770001 -1.638 11
7.9419999 1.527 -1.749 11
8.526 1.638 -1.7309999 11
9.2229996 1.772 -1.716 12
10.052 1.933 -1.702 13
11.013 2.119 -1.682 11
12.112 2.3329999 -1.65 12
7.7290001 1.516 -1.7539999 10
8.2790003 1.623 -1.7359999 11
8.9420004 1.753 -1.722 12
9.7010002 1.902 -1.704 12
10.628 2.086 -1.691 11
11.664 2.2909999 -1.6619999 11
7.5229998 1.506 -1.7589999 10
8.0419998 1.609 -1.74 11
8.6750002 1.734 -1.728 11
9.3719997 1.874 -1.7079999 13
10.25 2.05 -1.696 12
11.236 2.2490001 -1.6720001 11
7.3369999 1.497 -1.766 10
7.8189998 1.5930001 -1.745 10
8.4090004 1.712 -1.7309999 11
9.092 1.851 -1.716 12
9.8879995 2.0139999 -1.7 12
10.845 2.21 -1.683 11
7.1430001 1.484 -1.7690001 9
7.6100001 1.579 -1.75 10
8.1669998 1.693 -1.7359999 11
8.8179998 1.827 -1.723 11
9.5629997 1.9809999 -1.705 13
10.456 2.1670001 -1.689 12
6.9219999 1.4630001 -1.762 10
7.4200001 1.566 -1.757 10
7.9349999 1.673 -1.74 10
8.5509996 1.802 -1.727 11
9.2449999 1.948 -1.709 12
10.088 2.1259999 -1.6950001 12
6.7509999 1.451 -1.766 10
7.23 1.551 -1.762 10
7.724 1.656 -1.747 10
8.29 1.775 -1.73 11
8.9650002 1.919 -1.717 12
9.7399998 2.086 -1.701 12
6.5890002 1.4400001 -1.772 11
7.0050001 1.528 -1.757 12
7.5209999 1.638 -1.753 10
8.0469999 1.75 -1.734 10
8.6969995 1.891 -1.724 11
9.4169998 2.0469999 -1.706 13
6.4330001 1.427 -1.776 11
6.8280001 1.512 -1.761 11
7.3249998 1.619 -1.758 10
7.8390002 1.7309999 -1.743 10
8.4250002 1.859 -1.726 11
9.1049995 2.0079999 -1.71 12
6.2750001 1.413 -1.778 10
6.6570001 1.4960001 -1.765 11
7.1209998 1.597 -1.7589999 10
7.6199999 1.707 -1.747 10
8.184 1.832 -1.733 11
8.8330002 1.976 -1.7180001 12
6.1149998 1.398 -1.778 10
6.4920001 1.48 -1.768 11
6.9289999 1.576 -1.761 11
7.4310002 1.688 -1.755 10
7.9429998 1.802 -1.7359999 10
8.5620003 1.941 -1.723 11
5.9689999 1.383 -1.78 10
6.3340001 1.464 -1.772 9
6.7470002 1.556 -1.763 11
7.2150002 1.661 -1.756 11
7.7350001 1.778 -1.745 10
8.2950001 1.905 -1.726 11
5.829 1.369 -1.783 9
6.177 1.446 -1.773 11
6.5890002 1.539 -1.7690001 11
7.033 1.6390001 -1.761 11
7.5289998 1.752 -1.75 10
8.0620003 1.874 -1.732 10
5.6989999 1.3559999 -1.786 10
6.0339999 1.431 -1.776 10
6.4219999 1.5190001 -1.771 11
6.8410001 1.614 -1.761 10
7.3070002 1.721 -1.749 11
7.8369999 1.8430001 -1.738 10
5.573 1.342 -1.789 10
5.881 1.411 -1.775 10
6.2659998 1.499 -1.774 11
6.6669998 1.591 -1.7640001 10
7.1069999 1.693 -1.752 10
7.6290002 1.8150001 -1.745 10
5.4489999 1.3279999 -1.791 10
5.7459998 1.395 -1.778 10
6.1129999 1.479 -1.776 11
6.5019999 1.569 -1.768 11
6.9320002 1.669 -1.758 11
7.427 1.786 -1.75 10
5.3270001 1.313 -1.793 10
5.632 1.383 -1.786 10
5.974 1.462 -1.779 11
6.3530002 1.55 -1.773 11
6.75 1.643 -1.76 11
7.2049999 1.75 -1.748 11
5.2210002 1.301 -1.798 10
5.5079999 1.367 -1.788 10
5.8299999 1.441 -1.78 10
6.1960001 1.527 -1.775 10
6.5910001 1.6210001 -1.766 11
7.0159998 1.721 -1.752 11
5.1160002 1.288 -1.802 10
5.3759999 1.348 -1.7869999 11
5.71 1.426 -1.786 10
6.039 1.503 -1.774 10
6.427 1.595 -1.768 10
6.8299999 1.691 -1.753 11
5.006 1.273 -1.802 10
5.2839999 1.3380001 -1.7970001 11
5.5770001 1.406 -1.7869999 10
5.9109998 1.485 -1.78 10
6.2740002 1.572 -1.771 10
6.6589999 1.664 -1.757 11
4.8909998 1.255 -1.801 9
5.1609998 1.318 -1.795 10
5.4460001 1.385 -1.786 10
5.7649999 1.461 -1.779 10
6.118 1.546 -1.772 11
6.5040002 1.6390001 -1.763 11
4.7930002 1.242 -1.803 9
5.0669999 1.306 -1.802 9
5.3369999 1.369 -1.791 11
5.6360002 1.441 -1.781 9
5.9749999 1.522 -1.774 10
6.3530002 1.613 -1.767 10
4.7010002 1.229 -1.807 10
4.9559999 1.288 -1.802 10
5.2280002 1.353 -1.795 11
5.5219998 1.423 -1.788 10
5.8520002 1.502 -1.781 10
6.1960001 1.586 -1.768 10
4.6160002 1.217 -1.812 10
4.8530002 1.272 -1.803 11
5.1290002 1.3380001 -1.801 11
5.402 1.403 -1.79 10
5.71 1.477 -1.78 10
6.0479999 1.559 -1.77 10
4.5250001 1.202 -1.813 10
4.756 1.256 -1.8049999 11
5.0190001 1.319 -1.802 11
5.2779999 1.38 -1.788 11
5.5910001 1.456 -1.784 11
5.9159999 1.535 -1.774 10
4.4369998 1.187 -1.814 10
4.6589999 1.239 -1.806 10
4.9130001 1.3 -1.802 11
5.1869998 1.3660001 -1.7970001 12
5.467 1.433 -1.785 10
5.7800002 1.51 -1.776 10
4.3569999 1.174 -1.817 10
4.573 1.225 -1.809 11
4.822 1.284 -1.806 11
5.079 1.346 -1.798 11
5.335 1.4069999 -1.7819999 10
5.6430001 1.483 -1.774 11
4.2789998 1.161 -1.821 10
4.493 1.211 -1.813 11
4.723 1.266 -1.806 10
4.9819999 1.3279999 -1.801 10
5.244 1.391 -1.79 11
5.5159998 1.457 -1.775 11
4.1960001 1.146 -1.8200001 10
4.4070001 1.1950001 -1.814 11
4.6370001 1.25 -1.809 11
4.8759999 1.307 -1.8 10
5.151 1.374 -1.796 11
5.3930001 1.432 -1.774 11
4.1220002 1.132 -1.822 9
4.3309999 1.181 -1.818 10
4.552 1.234 -1.812 11
4.7810001 1.288 -1.801 10
5.046 1.352 -1.7970001 12
5.3039999 1.415 -1.783 11
4.0359998 1.114 -1.817 9
4.256 1.1670001 -1.8200001 10
4.4689999 1.217 -1.813 11
4.6939998 1.271 -1.804 10
4.941 1.33 -1.796 10
5.2090001 1.395 -1.789 11
3.9749999 1.104 -1.823 9
4.1789999 1.151 -1.821 11
4.3920002 1.202 -1.816 11
4.6110001 1.2539999 -1.807 10
4.8600001 1.314 -1.803 10
5.112 1.375 -1.7920001 11
3.905 1.089 -1.823 9
4.0999999 1.135 -1.8200001 10
4.3109999 1.184 -1.816 11
4.5310001 1.237 -1.8099999 11
4.756 1.291 -1.799 10
5.026 1.3559999 -1.798 10
3.839 1.075 -1.824 8
4.0320001 1.12 -1.822 10
4.2410002 1.17 -1.8200001 12
4.448 1.219 -1.811 10
4.6729999 1.273 -1.803 11
4.915 1.331 -1.794 10
3.779 1.063 -1.8279999 9
3.9590001 1.104 -1.821 10
4.165 1.153 -1.8200001 11
4.3720002 1.202 -1.813 11
4.592 1.2539999 -1.8049999 10
4.823 1.3099999 -1.795 10
3.7179999 1.05 -1.83 9
3.891 1.089 -1.821 10
4.086 1.135 -1.818 10
4.2979999 1.1849999 -1.816 11
4.5110002 1.235 -1.807 11
4.7480001 1.2920001 -1.801 11
3.6670001 1.039 -1.835 9
3.8369999 1.077 -1.827 9
4.026 1.1210001 -1.822 10
4.2220001 1.1670001 -1.8150001 11
4.4349999 1.217 -1.809 10
4.6659999 1.273 -1.803 11
3.605 1.025 -1.834 8
3.7709999 1.062 -1.826 10
3.954 1.104 -1.821 10
4.1529999 1.15 -1.817 10
4.362 1.199 -1.811 11
4.579 1.251 -1.803 10
3.5480001 1.011 -1.835 9
3.7090001 1.0470001 -1.825 9
3.8889999 1.0880001 -1.821 9
4.0869999 1.1339999 -1.818 10
4.2940001 1.183 -1.814 11
4.5089998 1.233 -1.807 10
3.5020001 1 -1.84 9
3.6570001 1.034 -1.829 10
3.825 1.072 -1.8200001 9
4.0229998 1.118 -1.8200001 10
4.2220001 1.164 -1.814 11
4.434 1.214 -1.808 10
3.4430001 0.98500001 -1.8380001 8
3.608 1.022 -1.834 9
3.773 1.058 -1.825 9
3.961 1.102 -1.822 10
4.1560001 1.147 -1.816 11
4.368 1.196 -1.812 10
3.392 0.972 -1.839 8
3.5510001 1.007 -1.8329999 9
3.72 1.045 -1.8279999 9
3.8859999 1.081 -1.816 9
4.092 1.1289999 -1.818 10
4.2969999 1.177 -1.813 9
3.3369999 0.958 -1.836 8
3.4960001 0.99199998 -1.832 9
3.6700001 1.031 -1.831 9
3.8380001 1.069 -1.822 9
4.0279999 1.112 -1.818 10
4.2220001 1.156 -1.8099999 10
3.296 0.94700003 -1.841 7
3.461 0.98299998 -1.841 9
3.609 1.0140001 -1.8279999 9
3.7780001 1.051 -1.821 9
3.97 1.095 -1.8200001 10
4.1659999 1.14 -1.8150001 10
3.2479999 0.93300003 -1.84 7
3.4000001 0.96600002 -1.835 8
3.562 1.001 -1.831 10
3.723 1.036 -1.821 8
3.901 1.075 -1.816 9
4.1090002 1.123 -1.818 10
3.2030001 0.92000002 -1.841 7
3.3529999 0.95200002 -1.836 8
3.52 0.98799998 -1.836 9
3.6830001 1.023 -1.8279999 9
3.8529999 1.061 -1.8200001 9
4.0469999 1.105 -1.818 9
3.151 0.90499997 -1.836 7
3.306 0.93800002 -1.835 8
3.4749999 0.97500002 -1.8380001 9
3.6340001 1.0089999 -1.83 9
3.7950001 1.043 -1.818 9
3.9879999 1.087 -1.817 9
3.119 0.89499998 -1.842 7
3.2679999 0.926 -1.839 8
3.4260001 0.95999998 -1.837 9
3.5840001 0.99299997 -1.83 8
3.747 1.028 -1.821 9
3.931 1.068 -1.817 9
3.076 0.88200003 -1.841 7
3.221 0.912 -1.837 8
3.381 0.94499999 -1.837 8
3.5369999 0.97799999 -1.831 8
3.7030001 1.013 -1.824 9
3.878 1.051 -1.818 9
3.0380001 0.87 -1.842 7
3.177 0.898 -1.836 8
3.3340001 0.93000001 -1.836 8
3.497 0.96499997 -1.834 9
3.6570001 0.99800003 -1.826 9
3.8210001 1.0319999 -1.816 9
3.0050001 0.85900003 -1.845 7
3.141 0.88599998 -1.8380001 8
3.2980001 0.91799998 -1.839 8
3.451 0.949 -1.8329999 8
3.6140001 0.98299998 -1.8279999 9
3.789 1.02 -1.825 9
2.9760001 0.84899998 -1.85 6
3.108 0.87400001 -1.842 8
3.256 0.90399998 -1.8380001 8
3.4170001 0.93699998 -1.8380001 8
3.5710001 0.96799999 -1.83 8
3.737 1.002 -1.823 8
0 0 0 0
3.072 0.861 -1.842 8
3.214 0.889 -1.837 8
3.3729999 0.921 -1.836 8
3.5309999 0.95300001 -1.831 8
3.697 0.98799998 -1.826 9
1.581 0.44800001 -1.007 4
3.0380001 0.84899998 -1.8430001 8
3.184 0.87699997 -1.841 7
3.335 0.90700001 -1.837 8
3.4909999 0.93800002 -1.8329999 8
3.654 0.97100002 -1.827 9
1.533 0.433 -0.98699999 3
3.0020001 0.83600003 -1.842 7
3.1459999 0.86299998 -1.84 7
3.2950001 0.89200002 -1.836 8
3.4460001 0.92199999 -1.83 8
3.6140001 0.95599997 -1.8279999 9
1.497 0.421 -0.97399998 2
2.9690001 0.82300001 -1.842 7
3.112 0.85000002 -1.84 7
3.2579999 0.87800002 -1.836 8
3.4130001 0.90799999 -1.8329999 8
3.5780001 0.94099998 -1.83 8
0 0 0 0
1.965 0.542 -1.232 9
3.0780001 0.83600003 -1.839 7
3.23 0.86500001 -1.839 8
3.3840001 0.89499998 -1.837 8
3.5420001 0.926 -1.831 8
0 0 0 0
1.664 0.45699999 -1.054 6
3.049 0.824 -1.841 7
3.1960001 0.85100001 -1.839 8
3.3429999 0.87800002 -1.8329999 8
3.5020001 0.90899998 -1.83 8
0 0 0 0
1.563 0.426 -1 3
3.0250001 0.81199998 -1.845 7
3.165 0.83700001 -1.839 8
3.309 0.86400002 -1.8329999 8
3.467 0.89399999 -1.83 8
0 0 0 0
1.526 0.414 -0.986 2
3 0.801 -1.846 7
3.132 0.82300001 -1.8380001 8
3.2839999 0.85100001 -1.836 8
3.438 0.88 -1.8329999 8
0 0 0 0
1.494 0.40200001 -0.97399998 3
2.961 0.78500003 -1.84 7
3.112 0.81199998 -1.8430001 7
3.2509999 0.83600003 -1.835 7
3.4070001 0.86500001 -1.8329999 8
0 0 0 0
0 0 0 0
0 0 0 0
3.082 0.79799998 -1.842 7
3.2260001 0.82300001 -1.8380001 8
3.3729999 0.84899998 -1.831 8
0 0 0 0
0 0 0 0
1.73 0.45100001 -1.0930001 3
3.0550001 0.78500003 -1.841 7
3.198 0.80900002 -1.837 7
3.346 0.83499998 -1.832 8
0 0 0 0
0 0 0 0
1.579 0.40799999 -1.006 2
3.033 0.77200001 -1.842 6
3.177 0.796 -1.84 7
3.326 0.82200003 -1.836 8
0 0 0 0
0 0 0 0
1.538 0.39399999 -0.98799998 2
3.0090001 0.759 -1.842 7
3.1459999 0.78100002 -1.836 7
3.299 0.80699998 -1.836 7
0 0 0 0
0 0 0 0
1.51 0.384 -0.977 2
2.987 0.74599999 -1.842 6
3.125 0.76800001 -1.8380001 7
3.2720001 0.792 -1.835 8
0 0 0 0
0 0 0 0
1.488 0.37400001 -0.97000003 2
2.9630001 0.73199999 -1.84 7
3.1040001 0.755 -1.8380001 7
3.2520001 0.77899998 -1.836 7
0 0 0 0
0 0 0 0
1.461 0.36300001 -0.958 2
0 0 0 0
3.082 0.741 -1.837 6
3.23 0.764 -1.836 7
0 0 0 0
0 0 0 0
0 0 0 0
0 0 0 0
3.072 0.73000002 -1.8430001 7
3.214 0.75199997 -1.8380001 7
0 0 0 0
0 0 0 0
0 0 0 0
1.615 0.38600001 -1.022 1
3.046 0.71499997 -1.8380001 7
3.1919999 0.73699999 -1.837 7
0 0 0 0
0 0 0 0
0 0 0 0
1.564 0.36899999 -0.995 1
3.0339999 0.70300001 -1.841 7
3.175 0.72299999 -1.837 7
0 0 0 0
0 0 0 0
0 0 0 0
1.544 0.359 -0.98699999 2
3.013 0.68900001 -1.8380001 6
3.1600001 0.70999998 -1.8380001 7
0 0 0 0
0 0 0 0
0 0 0 0
1.523 0.34900001 -0.97799999 2
3 0.676 -1.8380001 6
3.141 0.69599998 -1.836 7
0 0 0 0
0 0 0 0
0 0 0 0
1.506 0.34099999 -0.972 2
2.993 0.66500002 -1.842 6
3.1359999 0.68400002 -1.841 7
0 0 0 0
0 0 0 0
0 0 0 0
1.492 0.333 -0.96700001 2
2.984 0.65200001 -1.8430001 7
3.1199999 0.67000002 -1.8380001 7
0 0 0 0
0 0 0 0
0 0 0 0
1.487 0.32600001 -0.96700001 2
2.9649999 0.63800001 -1.8380001 7
3.112 0.65700001 -1.84 7
0 0 0 0
0 0 0 0
0 0 0 0
1.475 0.31799999 -0.963 2
1.597 0.338 -0.99299997 0
3.098 0.64300001 -1.8380001 7
0 0 0 0
0 0 0 0
0 0 0 0
1.462 0.31 -0.95599997 2
2.9400001 0.611 -1.834 9
3.092 0.63099998 -1.84 7
0 0 0 0
0 0 0 0
0 0 0 0
1.457 0.30399999 -0.95599997 2
0 0 0 0
3.0929999 0.61900002 -1.845 6
0 0 0 0
0 0 0 0
0 0 0 0
1.443 0.29499999 -0.949 2
0 0 0 0
3.0799999 0.60500002 -1.841 6
0 0 0 0
0 0 0 0
0 0 0 0
1.4400001 0.289 -0.94800001 2
0 0 0 0
3.0799999 0.59299999 -1.844 7
0 0 0 0
0 0 0 0
0 0 0 0
1.4349999 0.28200001 -0.94599998 2
0 0 0 0
3.076 0.57999998 -1.844 6
0 0 0 0
0 0 0 0
0 0 0 0
0 0 0 0
1.766 0.333 -1.1109999 2
3.0710001 0.56699997 -1.8430001 6
0 0 0 0
0 0 0 0
0 0 0 0
1.434 0.271 -0.94599998 2
1.651 0.30399999 -1.039 1
3.0669999 0.55299997 -1.841 6
0 0 0 0
0 0 0 0
0 0 0 0
1.433 0.264 -0.94599998 2
1.6440001 0.296 -1.035 1
3.062 0.54000002 -1.8380001 6
0 0 0 0
0 0 0 0
0 0 0 0
1.431 0.25799999 -0.94499999 2
1.633 0.287 -1.028 1
3.072 0.52899998 -1.844 7
0 0 0 0
0 0 0 0
0 0 0 0
1.432 0.252 -0.94499999 2
1.645 0.28200001 -1.034 1
3.079 0.51700002 -1.847 7
0 0 0 0
0 0 0 0
0 0 0 0
1.437 0.24699999 -0.94700003 2
1.74 0.29100001 -1.0930001 2
3.0829999 0.50400001 -1.847 7
0 0 0 0
0 0 0 0
0 0 0 0
1.441 0.241 -0.94800001 2
1.794 0.29300001 -1.126 2
3.0810001 0.491 -1.844 6
0 0 0 0
0 0 0 0
0 0 0 0
1.442 0.235 -0.94700003 2
0 0 0 0
3.0940001 0.479 -1.848 7
0 0 0 0
0 0 0 0
0 0 0 0
1.4450001 0.229 -0.94700003 2
0 0 0 0
3.0999999 0.46599999 -1.848 6
0 0 0 0
0 0 0 0
0 0 0 0
1.456 0.22400001 -0.95200002 2
0 0 0 0
3.1040001 0.45300001 -1.846 6
0 0 0 0
0 0 0 0
0 0 0 0
1.465 0.219 -0.95499998 2
0 0 0 0
3.1140001 0.44100001 -1.847 6
0 0 0 0
0 0 0 0
0 0 0 0
1.472 0.213 -0.95599997 2
2.9719999 0.419 -1.842 8
3.1229999 0.428 -1.845 7
0 0 0 0
0 0 0 0
0 0 0 0
1.4859999 0.208 -0.96200001 2
1.64 0.223 -1.013 0
3.135 0.41499999 -1.846 6
0 0 0 0
0 0 0 0
0 0 0 0
1.502 0.204 -0.96799999 2
3.0079999 0.396 -1.85 7
3.1500001 0.403 -1.848 7
0 0 0 0
0 0 0 0
0 0 0 0
1.506 0.197 -0.96700001 2
3.023 0.384 -1.851 7
3.1630001 0.38999999 -1.847 7
0 0 0 0
0 0 0 0
0 0 0 0
1.52 0.192 -0.972 2
3.0380001 0.37200001 -1.852 7
3.174 0.377 -1.845 7
0 0 0 0
0 0 0 0
1.403 0.176 -0.93599999 4
1.5420001 0.18700001 -0.98100001 1
3.0550001 0.36000001 -1.853 7
3.1930001 0.36500001 -1.847 7
0 0 0 0
0 0 0 0
1.415 0.171 -0.93900001 5
1.5650001 0.183 -0.99000001 1
3.063 0.347 -1.848 7
3.2090001 0.352 -1.846 7
0 0 0 0
0 0 0 0
1.429 0.16599999 -0.94300002 5
1.595 0.17900001 -1.003 1
3.0769999 0.33500001 -1.845 7
3.2260001 0.34 -1.846 7
0 0 0 0
0 0 0 0
1.444 0.161 -0.94700003 4
0 0 0 0
3.1110001 0.324 -1.855 6
3.2539999 0.32800001 -1.85 7
0 0 0 0
0 0 0 0
1.466 0.15700001 -0.95599997 3
2.948 0.30399999 -1.832 6
3.1259999 0.31099999 -1.852 6
3.2739999 0.315 -1.85 7
0 0 0 0
0 0 0 0
1.4859999 0.152 -0.96200001 2
3.0009999 0.296 -1.852 6
3.148 0.29899999 -1.853 7
3.2969999 0.30199999 -1.85 8
0 0 0 0
0 0 0 0
1.508 0.147 -0.97000003 2
3.0339999 0.285 -1.86 7
3.1719999 0.287 -1.854 8
3.326 0.28999999 -1.853 7
0 0 0 0
1.395 0.13500001 -0.93400002 6
1.533 0.14300001 -0.97799999 2
3.0510001 0.273 -1.8559999 6
3.1949999 0.27500001 -1.854 7
3.3429999 0.27700001 -1.849 7
0 0 0 0
1.415 0.131 -0.94 6
1.562 0.138 -0.98900002 2
3.075 0.26100001 -1.857 7
3.217 0.26199999 -1.852 7
3.372 0.264 -1.85 7
0 0 0 0
1.439 0.126 -0.949 6
1.618 0.13600001 -1.016 1
3.0969999 0.249 -1.855 7
3.2409999 0.25 -1.851 8
3.3970001 0.25099999 -1.849 7
0 0 0 0
1.459 0.121 -0.954 4
0 0 0 0
3.128 0.237 -1.858 7
3.2709999 0.237 -1.852 8
3.425 0.23800001 -1.848 8
0 0 0 0
1.488 0.116 -0.96399999 4
3.01 0.22499999 -1.859 6
3.1530001 0.22499999 -1.857 7
3.302 0.22499999 -1.853 8
3.464 0.226 -1.853 8
0 0 0 0
1.518 0.112 -0.97500002 3
3.0380001 0.213 -1.86 7
3.1849999 0.213 -1.859 7
3.332 0.213 -1.854 8
3.4920001 0.212 -1.851 8
1.393 0.101 -0.93000001 5
1.553 0.107 -0.98799998 2
3.062 0.20200001 -1.858 7
3.21 0.20100001 -1.8559999 8
3.3610001 0.2 -1.852 8
3.53 0.199 -1.854 8
1.418 0.097000003 -0.93800002 4
1.595 0.103 -1.005 2
3.098 0.19 -1.8609999 7
3.2449999 0.189 -1.858 8
3.392 0.18700001 -1.851 8
3.559 0.186 -1.85 8
1.45 0.092 -0.949 4
0 0 0 0
3.1229999 0.178 -1.858 6
3.276 0.177 -1.858 7
3.431 0.175 -1.854 8
3.598 0.17299999 -1.852 8
1.48 0.088 -0.95999998 3
3.016 0.169 -1.864 6
3.1559999 0.16599999 -1.859 7
3.3069999 0.164 -1.8559999 8
3.461 0.162 -1.851 8
3.6300001 0.16 -1.849 8
1.513 0.082999997 -0.97100002 2
3.0469999 0.15700001 -1.864 7
3.1919999 0.155 -1.86 7
3.3429999 0.152 -1.857 7
3.51 0.149 -1.857 8
3.6730001 0.146 -1.851 8
1.559 0.079000004 -0.99000001 2
3.0780001 0.146 -1.862 7
3.227 0.14300001 -1.86 8
3.381 0.14 -1.858 8
3.5450001 0.13600001 -1.855 8
3.714 0.133 -1.85 8
1.716 0.079000004 -1.0779999 2
3.1129999 0.134 -1.863 7
3.2650001 0.131 -1.862 7
3.4230001 0.127 -1.859 8
3.5799999 0.123 -1.852 8
3.7609999 0.12 -1.852 8
3.0079999 0.127 -1.868 7
3.1470001 0.123 -1.863 7
3.3039999 0.119 -1.863 7
3.4590001 0.115 -1.858 8
3.6170001 0.11 -1.85 9
3.8 0.106 -1.849 8
3.0409999 0.115 -1.867 6
3.181 0.111 -1.86 8
3.339 0.107 -1.8609999 8
3.503 0.102 -1.859 8
3.671 0.097000003 -1.855 8
3.842 0.092 -1.847 8
3.079 0.104 -1.868 6
3.2219999 0.098999999 -1.862 8
3.3800001 0.094999999 -1.8609999 8
3.5420001 0.089000002 -1.857 8
3.7119999 0.083999999 -1.852 9
3.8929999 0.078000002 -1.848 9
3.1140001 0.093000002 -1.8660001 7
3.2620001 0.086999997 -1.862 8
3.4189999 0.082000002 -1.859 8
3.585 0.077 -1.8559999 9
3.7579999 0.071000002 -1.852 9
3.934 0.064999998 -1.844 9
3.1470001 0.081 -1.863 7
3.3 0.075999998 -1.8609999 8
3.4660001 0.07 -1.862 8
3.6329999 0.064000003 -1.857 9
3.809 0.057999998 -1.853 9
3.994 0.050999999 -1.848 9
3.1860001 0.07 -1.863 7
3.342 0.064000003 -1.8609999 8
3.507 0.057999998 -1.86 9
3.6800001 0.050999999 -1.857 9
3.8529999 0.044 -1.85 8
4.039 0.037 -1.8430001 9
3.2249999 0.057999998 -1.8609999 7
3.3859999 0.052000001 -1.8609999 8
3.5569999 0.045000002 -1.862 9
3.723 0.037999999 -1.854 9
3.9030001 0.030999999 -1.848 9
4.1040001 0.023 -1.847 9
3.2650001 0.046999998 -1.86 7
3.4319999 0.039999999 -1.8609999 8
3.602 0.033 -1.86 9
3.7780001 0.026000001 -1.8559999 9
3.9579999 0.017000001 -1.848 9
4.1659999 0.0089999996 -1.848 9
3.3099999 0.035 -1.86 8
3.4849999 0.028000001 -1.865 9
3.654 0.021 -1.86 9
3.8310001 0.012 -1.855 9
4.013 0.0040000002 -1.847 9
4.2220001 -0.0040000002 -1.845 10
3.362 0.024 -1.864 7
3.5339999 0.016000001 -1.864 9
3.7 0.0080000004 -1.858 9
3.8759999 0 -1.85 9
4.0780001 -0.0089999996 -1.85 9
4.2859998 -0.017999999 -1.845 9
3.4059999 0.012 -1.8609999 7
3.586 0.0040000002 -1.8660001 9
3.7579999 -0.0040000002 -1.86 9
3.934 -0.013 -1.85 8
4.1409998 -0.022 -1.85 10
4.3520002 -0.033 -1.845 9
3.46 0 -1.864 8
3.632 -0.0070000002 -1.862 9
3.813 -0.016000001 -1.859 10
3.993 -0.026000001 -1.85 9
4.1999998 -0.035999998 -1.848 10
4.4190001 -0.046999998 -1.844 10
3.5120001 -0.0099999998 -1.865 7
3.688 -0.018999999 -1.863 10
3.868 -0.028999999 -1.858 9
4.0479999 -0.039000001 -1.847 9
4.2729998 -0.050000001 -1.85 10
4.4899998 -0.061999999 -1.8430001 10
3.562 -0.022 -1.864 8
3.7409999 -0.030999999 -1.8609999 10
3.9219999 -0.041000001 -1.855 10
4.1199999 -0.052000001 -1.85 9
4.3340001 -0.064000003 -1.847 10
4.5599999 -0.075999998 -1.841 10
3.618 -0.034000002 -1.864 9
3.7969999 -0.044 -1.8609999 10
3.9820001 -0.054000001 -1.854 10
4.1880002 -0.066 -1.851 10
4.4039998 -0.078000002 -1.846 10
4.638 -0.090999998 -1.841 10
3.6719999 -0.045000002 -1.863 8
3.8570001 -0.056000002 -1.86 9
4.0450001 -0.067000002 -1.853 9
4.2589998 -0.079000004 -1.851 11
4.4780002 -0.092 -1.845 10
4.7150002 -0.106 -1.839 10
3.7260001 -0.057 -1.8609999 8
3.9119999 -0.068000004 -1.857 10
4.1129999 -0.079999998 -1.854 11
4.323 -0.093000002 -1.848 11
4.5549998 -0.106 -1.845 11
4.7979999 -0.121 -1.8380001 11
3.7880001 -0.068999998 -1.862 9
3.9719999 -0.081 -1.855 10
4.1789999 -0.093000002 -1.852 11
4.4000001 -0.106 -1.849 10
4.625 -0.12 -1.84 10
4.882 -0.13600001 -1.837 11
3.8499999 -0.081 -1.862 8
4.0310001 -0.093000002 -1.851 10
4.2540002 -0.106 -1.854 10
4.4720001 -0.12 -1.847 10
4.7069998 -0.134 -1.839 10
4.9689999 -0.15000001 -1.835 12
3.9119999 -0.093000002 -1.86 9
4.1059999 -0.105 -1.854 11
4.329 -0.119 -1.854 11
4.5549998 -0.133 -1.848 10
4.7839999 -0.148 -1.836 11
5.0650001 -0.16599999 -1.835 11
3.9690001 -0.105 -1.8559999 9
4.1760001 -0.118 -1.853 10
4.4039998 -0.132 -1.853 11
4.6339998 -0.147 -1.845 11
4.8829999 -0.163 -1.8380001 11
5.164 -0.18099999 -1.834 11
4.039 -0.116 -1.8559999 9
4.2480001 -0.13 -1.852 10
4.4840002 -0.145 -1.852 10
4.7119999 -0.161 -1.842 11
4.974 -0.178 -1.837 11
5.2610002 -0.19599999 -1.832 11
4.1090002 -0.12800001 -1.8559999 9
4.3260002 -0.14300001 -1.853 11
4.5630002 -0.15800001 -1.85 10
4.8000002 -0.17399999 -1.84 11
5.0739999 -0.193 -1.836 12
5.368 -0.212 -1.831 11
4.1799998 -0.14 -1.854 10
4.415 -0.156 -1.8559999 12
4.6490002 -0.17200001 -1.85 11
4.8990002 -0.189 -1.842 11
5.1820002 -0.208 -1.8380001 12
5.467 -0.227 -1.825 11
4.2649999 -0.153 -1.857 9
4.4829998 -0.168 -1.85 11
4.7290001 -0.185 -1.845 11
4.9850001 -0.20200001 -1.837 11
5.276 -0.222 -1.8329999 11
5.5900002 -0.244 -1.827 11
4.3330002 -0.164 -1.852 10
4.5760002 -0.18099999 -1.852 11
4.8130002 -0.197 -1.842 12
5.092 -0.21699999 -1.839 12
5.3800001 -0.237 -1.83 12
5.7049999 -0.259 -1.823 12
4.4299998 -0.177 -1.858 10
4.6589999 -0.193 -1.849 11
4.9109998 -0.211 -1.842 12
5.1950002 -0.23100001 -1.837 12
5.4790001 -0.25099999 -1.824 12
5.836 -0.27599999 -1.823 12
4.5050001 -0.18799999 -1.854 10
4.7449999 -0.205 -1.846 12
5.0170002 -0.22400001 -1.8430001 12
5.3070002 -0.245 -1.837 11
5.6149998 -0.26699999 -1.827 11
5.9590001 -0.29100001 -1.819 12
4.5900002 -0.2 -1.851 10
4.8309999 -0.21799999 -1.842 12
5.1290002 -0.23800001 -1.845 11
5.4130001 -0.259 -1.8329999 11
5.743 -0.28200001 -1.827 12
6.1079998 -0.308 -1.8200001 11
4.684 -0.212 -1.852 10
4.9349999 -0.23100001 -1.8430001 12
5.223 -0.25099999 -1.839 12
5.5209999 -0.273 -1.8279999 12
5.8730001 -0.29800001 -1.825 11
6.2470002 -0.32499999 -1.816 12
4.7680001 -0.22400001 -1.847 10
5.0359998 -0.243 -1.841 11
5.3400002 -0.26499999 -1.839 11
5.6560001 -0.28799999 -1.83 12
6.0110002 -0.31299999 -1.824 12
6.4000001 -0.34200001 -1.8150001 12
4.868 -0.236 -1.847 11
5.1500001 -0.25600001 -1.842 12
5.4419999 -0.27700001 -1.8329999 13
5.7849998 -0.30199999 -1.829 11
6.158 -0.329 -1.823 12
6.5700002 -0.359 -1.8150001 12
4.9640002 -0.24699999 -1.8430001 11
5.2540002 -0.26800001 -1.839 11
5.5710001 -0.29100001 -1.8329999 12
5.9260001 -0.317 -1.829 11
6.2909999 -0.34400001 -1.816 13
6.7480001 -0.377 -1.8150001 12
5.0710001 -0.259 -1.8430001 11
5.3699999 -0.28099999 -1.8380001 12
5.7010002 -0.30500001 -1.8329999 12
6.073 -0.33199999 -1.829 11
6.4699998 -0.361 -1.8200001 12
6.9200001 -0.39399999 -1.812 11
5.1849999 -0.271 -1.8430001 11
5.4879999 -0.29300001 -1.835 11
5.835 -0.31900001 -1.831 12
6.217 -0.34599999 -1.826 11
6.638 -0.377 -1.819 13
7.1129999 -0.412 -1.811 12
5.2940001 -0.28299999 -1.84 11
5.6090002 -0.30599999 -1.832 12
5.973 -0.33199999 -1.829 11
6.3629999 -0.36000001 -1.821 11
6.802 -0.39199999 -1.813 11
7.3140001 -0.43000001 -1.809 11
5.4180002 -0.29499999 -1.84 10
5.7360001 -0.31799999 -1.829 13
6.1220002 -0.34599999 -1.8279999 11
6.5419998 -0.37599999 -1.824 12
6.9920001 -0.40900001 -1.813 12
7.5159998 -0.447 -1.8049999 12
5.527 -0.30599999 -1.834 10
5.8850002 -0.331 -1.831 12
6.27 -0.359 -1.825 13
6.6960001 -0.38999999 -1.817 12
7.2080002 -0.42699999 -1.8150001 12
7.7480001 -0.46599999 -1.804 11
5.6599998 -0.317 -1.8329999 12
6.026 -0.34400001 -1.8279999 12
6.434 -0.373 -1.824 11
6.8839998 -0.40599999 -1.816 11
7.4130001 -0.44400001 -1.813 11
8.0109997 -0.48699999 -1.808 11
5.7989998 -0.329 -1.8329999 11
6.1659999 -0.35499999 -1.824 12
6.6040001 -0.38699999 -1.822 12
7.073 -0.41999999 -1.814 12
7.638 -0.461 -1.812 10
8.257 -0.505 -1.803 11
5.9429998 -0.34 -1.832 11
6.3200002 -0.36700001 -1.821 12
6.7709999 -0.40000001 -1.818 11
7.2880001 -0.43599999 -1.8150001 11
7.875 -0.47799999 -1.811 11
8.5120001 -0.52399999 -1.7970001 12
6.0949998 -0.352 -1.83 11
6.4899998 -0.38 -1.8200001 12
6.9629998 -0.41299999 -1.816 12
7.5 -0.45199999 -1.812 11
8.1190004 -0.495 -1.807 11
8.7989998 -0.54400003 -1.794 12
6.2410002 -0.36199999 -1.825 12
6.6620002 -0.39199999 -1.816 12
7.1690001 -0.428 -1.8150001 12
7.7410002 -0.46799999 -1.811 10
8.3640003 -0.51200002 -1.799 12
9.0860004 -0.56300002 -1.786 12
6.4050002 -0.37400001 -1.824 11
6.8449998 -0.40400001 -1.814 11
7.388 -0.442 -1.8150001 11
7.974 -0.48300001 -1.807 11
8.6359997 -0.52899998 -1.795 11
9.4090004 -0.58399999 -1.7819999 11
6.5869999 -0.38499999 -1.824 12
7.04 -0.41600001 -1.812 12
7.6129999 -0.456 -1.814 10
8.2220001 -0.498 -1.803 12
8.927 -0.54699999 -1.791 12
9.7370005 -0.60299999 -1.774 12
6.7610002 -0.39500001 -1.8200001 12
7.257 -0.42899999 -1.813 12
7.8460002 -0.46900001 -1.8099999 11
8.4820004 -0.51300001 -1.7970001 12
9.2340002 -0.56400001 -1.785 11
10.105 -0.62400001 -1.768 11
6.9559999 -0.40599999 -1.819 12
7.4949999 -0.442 -1.816 10
8.0830002 -0.48199999 -1.8049999 11
8.7650003 -0.528 -1.793 11
9.5579996 -0.58200002 -1.779 12
10.506 -0.64600003 -1.7640001 12
7.1389999 -0.41499999 -1.813 12
7.717 -0.454 -1.812 11
8.3380003 -0.495 -1.8 11
9.0609999 -0.54299998 -1.788 12
9.8870001 -0.59799999 -1.7690001 11
10.932 -0.66799998 -1.758 12
7.388 -0.428 -1.8200001 10
7.9499998 -0.465 -1.808 11
8.5939999 -0.50700003 -1.793 11
9.3640003 -0.55699998 -1.779 11
10.287 -0.61799997 -1.767 11
11.402 -0.69099998 -1.752 12
7.6079998 -0.43700001 -1.817 10
8.1809998 -0.47499999 -1.799 11
8.8970003 -0.52100003 -1.79 12
9.7060003 -0.57300001 -1.774 12
10.707 -0.63700002 -1.762 12
11.883 -0.713 -1.743 12
7.8330002 -0.447 -1.812 10
8.4460001 -0.48500001 -1.795 11
9.2019997 -0.53299999 -1.785 12
10.084 -0.58899999 -1.771 11
11.149 -0.65600002 -1.756 12
12.413 -0.736 -1.733 12
8.0719995 -0.45500001 -1.807 11
8.7279997 -0.49599999 -1.79 12
9.5249996 -0.54500002 -1.778 12
10.481 -0.60399997 -1.766 12
11.612 -0.67500001 -1.747 12
12.958 -0.75800002 -1.7180001 13
8.3299999 -0.46399999 -1.803 11
9.0310001 -0.50599998 -1.786 12
9.8800001 -0.55699998 -1.773 11
10.899 -0.61900002 -1.757 13
12.137 -0.69400001 -1.739 12
13.576 -0.78200001 -1.704 13
8.5909996 -0.47099999 -1.795 11
9.342 -0.51599997 -1.78 12
10.261 -0.56999999 -1.767 12
11.365 -0.63499999 -1.752 13
12.691 -0.713 -1.729 12
14.258 -0.80699998 -1.6900001 13
8.8990002 -0.47999999 -1.793 12
9.6759996 -0.52399999 -1.772 12
10.676 -0.58200002 -1.762 12
11.86 -0.64999998 -1.743 13
13.243 -0.73000002 -1.711 13
15.018 -0.833 -1.676 12
9.2089996 -0.48699999 -1.788 12
10.051 -0.53399998 -1.768 11
11.122 -0.59399998 -1.755 13
12.387 -0.66500002 -1.733 13
13.907 -0.75 -1.699 13
15.865 -0.86000001 -1.659 12
9.5200005 -0.49200001 -1.779 12
10.456 -0.54299998 -1.763 12
11.6 -0.60500002 -1.747 13
12.96 -0.67900002 -1.721 13
14.634 -0.76999998 -1.684 12
16.768999 -0.88599998 -1.637 10
9.8719997 -0.498 -1.773 11
10.88 -0.551 -1.757 13
12.114 -0.616 -1.739 12
13.584 -0.69300002 -1.709 12
15.435 -0.79000002 -1.67 11
17.794001 -0.91399997 -1.614 11
10.262 -0.50300002 -1.768 12
11.34 -0.55800003 -1.749 13
12.656 -0.625 -1.727 13
14.22 -0.704 -1.689 11
16.292 -0.80900002 -1.649 12
18.954 -0.94400001 -1.5880001 13
10.67 -0.50800002 -1.761 12
11.824 -0.56400001 -1.74 13
13.234 -0.63300002 -1.7130001 12
15.001 -0.71899998 -1.677 12
17.207001 -0.82700002 -1.623 11
20.299999 -0.977 -1.562 15
11.128 -0.51200002 -1.757 12
12.349 -0.56900001 -1.73 13
13.887 -0.64099997 -1.7 12
15.826 -0.73100001 -1.66 12
18.289 -0.847 -1.6 12
21.847 -1.0140001 -1.533 17
11.593 -0.514 -1.749 13
12.911 -0.57200003 -1.7180001 13
14.594 -0.648 -1.686 12
16.733 -0.74299997 -1.64 10
19.558001 -0.86900002 -1.577 14
23.591 -1.05 -1.497 20
12.097 -0.514 -1.74 12
13.504 -0.574 -1.7029999 13
15.359 -0.653 -1.668 11
17.674 -0.75199997 -1.612 11
20.987 -0.89200002 -1.551 16
25.483999 -1.0829999 -1.4450001 23
12.629 -0.51300001 -1.728 12
14.18 -0.57499999 -1.691 13
16.214001 -0.65700001 -1.65 11
18.82 -0.76200002 -1.589 13
22.632 -0.91600001 -1.52 19
27.577 -1.115 -1.38 8
13.196 -0.50999999 -1.714 12
14.893 -0.574 -1.674 12
17.122 -0.65899998 -1.627 10
20.093 -0.77100003 -1.561 14
24.455999 -0.93699998 -1.48 21
30.455999 -1.165 -1.323 6
13.831 -0.505 -1.702 12
15.708 -0.57200003 -1.659 11
18.167999 -0.65899998 -1.604 12
21.622 -0.78200001 -1.536 17
26.295 -0.94800001 -1.416 15
33.016998 -1.186 -1.215 2
14.516 -0.498 -1.686 12
16.57 -0.56599998 -1.637 9
19.389999 -0.65899998 -1.581 13
23.292999 -0.78799999 -1.5 19
28.6 -0.96399999 -1.353 6
37.379002 -1.2539999 -1.132 30
15.264 -0.48800001 -1.67 11
17.49 -0.55599999 -1.6109999 11
20.708 -0.65399998 -1.55 15
25.091999 -0.78799999 -1.449 20
31.695 -0.98900002 -1.29 5
41.583 -1.29 -0.98699999 63
16.105 -0.47600001 -1.653 11
18.608 -0.546 -1.59 12
22.280001 -0.64899999 -1.522 18
27.103001 -0.78299999 -1.3890001 9
0 0 0 0
43.737 -1.243 -0.75700003 29
16.976999 -0.45899999 -1.63 10
19.811001 -0.52999997 -1.563 14
24.058001 -0.63800001 -1.4859999 21
29.683001 -0.77899998 -1.33 6
37.428001 -0.97299999 -1.0420001 9
0 0 0 0
17.938999 -0.43900001 -1.6059999 12
21.16 -0.51099998 -1.5319999 16
25.818001 -0.616 -1.429 17
32.462002 -0.764 -1.2460001 3
42.201 -0.98100001 -0.90799999 64
54.810001 -1.255 -0.25 3
19.091999 -0.414 -1.5829999 13
22.768999 -0.486 -1.5 19
27.905001 -0.58700001 -1.365 8
37.222 -0.76999998 -1.191 19
44.167 -0.89899999 -0.667 2
79.801003 -1.597 0.133 8
20.358 -0.38499999 -1.557 15
24.569 -0.45500001 -1.462 21
30.283001 -0.55000001 -1.289 6
37.806 -0.67299998 -0.97299999 1
47.813 -0.83200002 -0.42500001 3
82.482002 -1.401 0.65600002 6
21.794001 -0.34799999 -1.527 17
26.33 -0.41 -1.399 16
33.433998 -0.50599998 -1.211 3
42.902 -0.63200003 -0.83399999 45
57.599998 -0.82499999 -0.15099999 10
0 0 0 0
23.52 -0.30500001 -1.498 20
28.469999 -0.35600001 -1.3329999 6
37.23 -0.44800001 -1.115 21
40.383999 -0.46700001 -0.53100002 150
78.523003 -0.87199998 0.28400001 6
89.318001 -0.95099998 1.8150001 84
25.207001 -0.24699999 -1.4450001 22
31.191999 -0.28999999 -1.2640001 6
40.383999 -0.35600001 -0.958 150
40.41 -0.33700001 -0.28299999 57
88.765999 -0.69400001 0.86699998 8
109.943 -0.80299997 2.9130001 31
27.215 -0.178 -1.3890001 12
35.208 -0.212 -1.2079999 11
40.395 -0.222 -0.70899999 150
40.414001 -0.20100001 -0.033 14
0 0 0 0
109.278 -0.42500001 3.556 12
29.469999 -0.094999999 -1.322 6
37.271999 -0.097999997 -1.048 12
40.412998 -0.083999999 -0.46200001 150
42.186001 -0.064000003 0.221 3
92.959999 -0.086999997 2.0380001 24
88.866997 -0.029999999 3.4300001 13
32.498001 0.0070000002 -1.257 4
40.422001 0.034000002 -0.88800001 98
40.411999 0.057 -0.21600001 151
44.719002 0.090999998 0.505 25
61.368999 0.164 1.716 21
62.521 0.207 2.789 33
0 0 0 0
40.422001 0.17900001 -0.64399999 87
41.291 0.208 0.026000001 60
92.808998 0.52700001 1.599 22
61.198002 0.389 2.0739999 51
61.620998 0.43399999 3.1140001 32
37.305 0.27700001 -0.991 4
40.476002 0.32699999 -0.405 69
41.868999 0.366 0.27500001 61
61.316002 0.579 1.42 21
60.955002 0.61699998 2.4219999 65
62.171001 0.67400002 3.503 13
40.544998 0.45300001 -0.83600003 31
41.585999 0.49399999 -0.169 61
42.094002 0.52999997 0.52499998 9
60.882999 0.81099999 1.7690001 64
61.330002 0.861 2.796 55
89.235001 1.324 5.553 30
41.828999 0.62800002 -0.61500001 62
41.577 0.65499997 0.074000001 55
62.398998 1.029 1.141 7
60.826 1.05 2.119 33
61.740002 1.113 3.171 39
88.663002 1.67 6.0240002 45
41.577999 0.78600001 -0.373 77
41.768002 0.82200003 0.31299999 56
58.569 1.2 1.405 4
60.973999 1.296 2.4679999 42
38.706001 0.85500002 2.207 3
38.146999 0.875 2.8069999 89
41.578999 0.95499998 -0.132 74
42.085999 0.99900001 0.55599999 3
38.155998 0.93800002 1.132 11
37.884998 0.963 1.749 107
37.894001 0.995 2.375 119
37.910999 1.029 3.003 8
37.939999 1.026 0.090999998 84
37.876999 1.056 0.713 147
37.898998 1.09 1.336 42
37.841 1.1210001 1.9579999 31
37.460999 1.145 2.5580001 13
37.301998 1.174 3.1630001 23
44.727001 1.399 0.36000001 20
47.147999 1.517 1.152 53
37.304001 1.233 1.523 5
61.477001 2.0880001 3.5209999 50
110.529 3.8559999 8.1499996 24
111.621 4.0029998 10.077 12
47.23 1.6799999 0.63999999 71
47.201 1.722 1.4119999 32
61.408001 2.3 2.846 50
61.404999 2.358 3.8529999 15
0 0 0 0
111.154 4.487 10.641 26
47.301998 1.891 0.89999998 2
61.604 2.52 2.1760001 34
61.588001 2.5799999 3.184 38
110.558 4.7389998 7.527 31
111.383 4.888 9.4180002 29
112.3 5.053 11.359 31
47.422001 2.109 1.158 65
61.667999 2.8039999 2.5120001 25
110.26 5.1230001 6.2909999 27
111.379 5.2909999 8.1820002 28
112.026 5.441 10.073 24
73.258003 3.6359999 7.7950001 50
47.389999 2.325 1.408 50
62.676998 3.1389999 2.8829999 15
0 0 0 0
110.735 5.7810001 8.7189999 9
73.188004 3.902 6.9660001 4
73.361 3.9949999 8.1940002 37
108.464 5.829 3.7939999 36
110.788 6.0710001 5.6760001 12
111.073 6.204 7.5 35
111.95 6.3779998 9.3929996 16
73.975998 4.3000002 7.4229999 23
71.751999 4.257 8.3879995 51
109.498 6.4050002 4.3940001 26
110.146 6.5650001 6.2119999 26
110.544 6.7140002 8.0369997 26
112.225 6.9460001 9.9960003 13
73.927002 4.6609998 7.7979999 20
71.697998 4.6059999 8.7440004 48
110.52 7.0019999 4.9990001 25
0 0 0 0
111.907 7.3460002 8.6999998 30
0 0 0 0
72.031998 4.9029999 7.9629998 16
71.824997 4.98 9.1260004 44
112.653 7.698 5.6669998 16
112.135 7.7940001 7.4569998 27
112.825 7.9780002 9.3389997 17
73.748001 5.3060002 7.3099999 16
71.781998 5.2529998 8.2930002 33
72.352997 5.3870001 9.552 37
112.286 8.2370005 6.2010002 16
0 0 0 0
0 0 0 0
72.835999 5.6129999 7.5770001 15
71.702003 5.6199999 8.6370001 12
72.386002 5.7719998 9.915 42
0 0 0 0
0 0 0 0
72.958 5.9070001 6.7490001 30
74.503998 6.1269999 8.1070004 10
72.869003 6.092 9.1269999 49
72.527 6.165 10.283 38
0 0 0 0
73.264999 6.223 5.9380002 13
74.685997 6.4390001 7.2649999 18
75.541 6.6149998 8.5819998 4
73.526001 6.5380001 9.559 23
73.936996 6.6789999 10.833 40
0 0 0 0
74.585999 6.7249999 6.3899999 21
70.183998 6.4229999 7.1529999 10
71.040001 6.598 8.3990002 10
70.266998 6.6269999 9.4630003 12
74.146004 7.1009998 11.209 16
74.611 7.0300002 5.5320001 26
0 0 0 0
69.927002 6.777 7.447 17
69.609001 6.8460002 8.5500002 30
70.009003 6.9860001 9.7480001 33
0 0 0 0
75.191002 7.4959998 5.9190001 9
0 0 0 0
69.925003 7.1609998 7.7639999 8
69.591003 7.2290001 8.8640003 44
74.681 7.8720002 10.741 40
0 0 0 0
0 0 0 0
74.365997 7.9299998 7.3850002 36
59.168999 6.3930001 6.835 6
69.601997 7.6230001 9.1759996 47
73.708 8.1879997 10.93 33
0 0 0 0
71.685997 7.9460001 6.2800002 59
74.516998 8.368 7.7290001 35
58.228001 6.6259999 6.9850001 54
59.395 6.849 8.0939999 7
71.262001 8.335 10.886 34
38.561001 4.5739999 6.5310001 29
71.758003 8.3669996 6.599 11
58.681 6.9289999 6.342 32
57.987 6.9369998 7.2090001 50
58.972 7.1459999 8.2939997 55
71.301003 8.7580004 11.203 44
38.387001 4.7810001 6.6690001 55
73.184998 8.96 7.0440001 29
58.393002 7.2360001 6.5599999 37
58.006001 7.2789998 7.4580002 55
38.348999 4.8730001 5.5570002 21
38.402 4.9450002 6.198 55
35.661999 4.6550002 6.348 23
0 0 0 0
58.287998 7.566 6.789 33
38.342999 5.0370002 5.0879998 9
38.282001 5.0929999 5.7059999 53
38.429001 5.178 6.3610001 44
35.505001 4.848 6.4679999 32
58.636002 7.8670001 6.1220002 29
38.297001 5.1999998 4.618 54
38.073002 5.2329998 5.2090001 63
38.153 5.3070002 5.8439999 53
38.367001 5.4039998 6.5100002 39
35.955002 5.131 6.6989999 39
38.355999 5.3769999 4.1589999 22
59.264 8.4029999 7.3800001 27
38.243 5.4850001 5.3829999 48
38.176998 5.5430002 6 38
38.819 5.7069998 6.7420001 2
35.978001 5.3579998 6.848 49
59.137001 8.6479998 6.6409998 12
57.976002 8.5719995 7.4439998 26
38.345001 5.7379999 5.5500002 2
57.965 8.776 9.3389997 42
0 0 0 0
35.722 5.5450001 6.9429998 48
60.234001 9.1800003 6.9959998 4
57.674999 8.8879995 7.6290002 21
56.658001 8.8319998 8.4160004 55
56.782001 8.9560003 9.3669996 21
35.938 5.7379999 6.5250001 17
35.682999 5.7670002 7.0749998 43
59.27 9.4069996 7.1079998 11
56.342999 9.0369997 7.665 33
56.209 9.1169996 8.5620003 44
57.139 9.3730001 9.6420002 22
0 0 0 0
35.990002 6.0479999 7.2729998 50
56.525002 9.3269997 6.9840002 8
56.112999 9.3599997 7.842 25
56.120998 9.4619999 8.757 59
56.611 9.651 9.7639999 29
36.437 6.2859998 6.8899999 2
36.553001 6.381 7.5240002 51
56.150002 9.6239996 7.1399999 36
56.203999 9.7320004 8.0539999 39
56.002998 9.8030005 8.9390001 54
56.825001 10.059 10.006 16
36.077999 6.461 6.954 4
35.717999 6.473 7.4850001 50
55.903 9.9429998 7.3049998 43
55.604 9.9919996 8.165 55
55.585999 10.096 9.0699997 38
0 0 0 0
35.945999 6.6750002 7.0560002 17
35.816002 6.7270002 7.632 46
55.412998 10.217 7.428 26
55.286999 10.299 8.3079996 57
55.608002 10.467 9.2650003 34
0 0 0 0
36.101002 6.9450002 7.2129998 11
35.655998 6.9390001 7.7249999 17
55.242001 10.553 7.5900002 33
55.638 10.732 8.5450001 32
56.890999 11.088 9.6680002 20
0 0 0 0
0 0 0 0
0 0 0 0
55.512001 10.971 7.8039999 32
55.701 11.117 8.7360001 54
57.002998 11.491 9.8739996 14
0 0 0 0
0 0 0 0
41.5 8.6420002 9.2709999 47
55.622002 11.369 7.9959998 36
55.476002 11.447 8.875 54
56.835999 11.845 10.025 22
0 0 0 0
38.613998 8.2189999 8.1000004 24
38.721001 8.3339996 8.7779999 4
55.437 11.708 8.1400003 51
56.549999 12.054 9.2220001 38
0 0 0 0
0 0 0 0
38.404999 8.4399996 8.1759996 49
38.134998 8.4720001 8.7659998 51
55.110001 12.013 8.2530003 55
56.334999 12.396 9.3529997 45
0 0 0 0
42.623001 9.5649996 8.4879999 16
38.053001 8.6280003 8.2180004 57
38.023998 8.7159996 8.8590002 43
55.777 12.544 8.5150003 45
56.019001 12.715 9.4639997 58
41.019001 9.3979998 7.605 12
38.603001 8.934 7.8010001 51
36.950001 8.6409998 8.0889997 55
37.786999 8.9309998 8.9169998 56
56.403999 13.077 8.7659998 35
56.981998 13.329 9.7849998 61
40.985001 9.6789999 7.7160001 49
0 0 0 0
36.757999 8.8579998 8.1549997 54
37.213001 9.0620003 8.8920002 50
56.507999 13.496 8.9359999 34
38.068001 9.1739998 6.6409998 3
38.964001 9.4759998 7.441 14
36.688 9.0100002 7.6199999 52
36.125 8.9630003 8.1149998 51
36.112999 9.0530005 8.7299995 53
57.516998 14.143 9.2440004 53
37.847 9.3870001 6.7010002 55
38.188999 9.5600004 7.3940001 58
36.375 9.1929998 7.652 54
35.812 9.1420002 8.1409998 51
36.006001 9.2880001 8.8050003 52
57.486 14.542 9.3839998 42
38.009998 9.6999998 6.8280001 56
36.02 9.2770004 7.0679998 2
35.766998 9.3000002 7.618 50
35.800999 9.401 8.2340002 51
35.755001 9.4849997 8.8389997 53
40.556999 10.551 6.7179999 8
38.484001 10.098 7.006 63
35.959999 9.5200005 7.1440001 52
35.818001 9.573 7.7179999 51
36.140999 9.7559996 8.4049997 53
36.313 9.9040003 9.0719995 54
38.405998 10.269 6.4520001 1
37.27 10.051 6.8740001 56
36.952 10.053 7.4299998 56
35.909 9.8590002 7.8260002 53
35.737 9.9090004 8.3990002 45
0 0 0 0
37.507999 10.299 6.3839998 40
37.355 10.344 6.973 36
37.126999 10.373 7.5500002 55
36.018002 10.155 7.9330001 47
35.808998 10.193 8.5 52
35.674999 10.259 9.0889997 3
37.327 10.523 6.434 36
37.798 10.745 7.1389999 13
0 0 0 0
36.356998 10.521 8.0909996 59
35.973999 10.511 8.6230001 55
37.916 11.191 9.7469997 58
37.209 10.764 6.4889998 23
37.445 10.922 7.1500001 39
36.348 10.692 7.5489998 3
35.611 10.572 8.0010004 51
0 0 0 0
37.727001 11.42 9.7849998 56
38.889999 11.538 6.8600001 32
36.192001 10.826 6.9840002 3
36.056 10.879 7.5630002 54
35.660999 10.857 8.0869999 53
35.729 10.982 8.7200003 4
37.783001 11.728 9.882 14
38.709 11.775 6.901 46
36.192001 11.097 7.053 52
35.724998 11.048 7.5640001 52
35.807999 11.173 8.1920004 49
35.68 11.237 8.7799997 4
38.437 12.225 10.132 1
38.449001 11.984 6.9219999 52
36.171001 11.364 7.1139998 12
36.758999 11.645 7.8499999 54
35.931 11.485 8.2889996 54
36.287998 11.706 9 19
0 0 0 0
38.126999 12.17 6.9289999 12
37.742001 12.146 7.4889998 28
37.083 12.032 7.9850001 58
35.865002 11.74 8.3369999 54
36.291 11.988 9.0670004 8
0 0 0 0
36.848999 12.041 6.756 37
36.707001 12.089 7.3439999 46
37.333 12.398 8.1020002 31
36.318001 12.167 8.5059996 24
39.000999 13.187 9.8140001 15
0 0 0 0
36.582001 12.233 6.7610002 33
37.077999 12.493 7.474 58
39.643002 13.469 8.6660004 65
39.448002 13.519 9.3030005 46
0 0 0 0
0 0 0 0
36.323002 12.423 6.7639999 54
36.702999 12.65 7.4520001 53
37.631001 13.076 8.2810001 12
39.450001 13.825 9.3629999 60
0 0 0 0
0 0 0 0
36.375999 12.719 6.823 36
36.605 12.895 7.4819999 51
37.966 13.483 8.408 50
37.568001 13.456 8.9709997 53
0 0 0 0
0 0 0 0
36.491001 13.038 6.8870001 9
38.241001 13.767 7.8629999 62
38.117001 13.834 8.4919996 62
37.763 13.822 9.0690002 57
0 0 0 0
0 0 0 0
38.964001 14.221 7.3979998 63
38.361 14.107 7.9320002 62
37.422001 13.871 8.3800001 37
0 0 0 0
0 0 0 0
0 0 0 0
38.372002 14.301 7.3249998 61
37.585999 14.114 7.8119998 43
36.911999 13.969 8.3079996 39
38.744999 14.786 9.3970003 56
0 0 0 0
0 0 0 0
37.751999 14.362 7.2399998 48
37.046001 14.2 7.7360001 58
36.597 14.137 8.2740002 10
38.727001 15.084 9.434 64
0 0 0 0
0 0 0 0
37.650002 14.614 7.2519999 39
37.036999 14.481 7.7649999 60
36.608002 14.425 8.309 5
38.311001 15.219 9.368 38
0 0 0 0
0 0 0 0
37.616001 14.891 7.2709999 53
37.258999 14.855 7.842 57
38.301998 15.389 8.7259998 59
38.360001 15.54 9.415 45
0 0 0 0
0 0 0 0
36.395 14.689 7.059 37
36.512001 14.84 7.7080002 60
38.345001 15.705 8.7620001 59
38.049 15.711 9.3660002 63
39.916 16.622999 10.542 4
0 0 0 0
36.126999 14.858 7.027 53
35.967999 14.898 7.6139998 6
36.625999 15.284 8.3929996 44
37.893002 15.941 9.3549995 45
39.900002 16.931 10.568 2
0 0 0 0
36.019001 15.093 7.02 48
37.158001 15.678 7.8829999 6
36.469002 15.504 8.3739996 53
37.965 16.268 9.3929996 5
0 0 0 0
0 0 0 0
35.769001 15.265 6.9840002 51
36.025002 15.481 7.6560001 57
36.075001 15.617 8.3000002 42
39.862 17.395 9.882 28
0 0 0 0
0 0 0 0
35.719002 15.518 6.9809999 47
35.842999 15.678 7.6290002 56
35.970001 15.851 8.2889996 52
39.798 17.677999 9.882 39
0 0 0 0
0 0 0 0
35.846001 15.853 7.0120001 58
36.077999 16.063999 7.6849999 52
36.043999 16.167 8.3140001 20
39.492001 17.854 9.8170004 40
0 0 0 0
0 0 0 0
35.280998 15.873 6.901 55
36.500999 16.535 7.7779999 60
38.202999 17.431 8.8170004 59
39.313999 18.079 9.7810001 20
0 0 0 0
0 0 0 0
35.221001 16.115 6.888 51
36.393002 16.764 7.7529998 50
37.476002 17.386999 8.6490002 42
38.431999 17.969999 9.5629997 23
0 0 0 0
0 0 0 0
35.313999 16.427 6.901 35
36.245998 16.973 7.7179999 36
37.634998 17.752001 8.684 61
0 0 0 0
0 0 0 0
0 0 0 0
35.008999 16.554001 6.8309999 1
36.374001 17.313999 7.737 1
37.617001 18.032 8.6730003 50
37.535 18.129999 9.3360004 3
0 0 0 0
0 0 0 0
37.151001 17.844 7.2350001 56
38.021999 18.385 8.0740004 23
37.335999 18.183001 8.5979996 61
0 0 0 0
0 0 0 0
0 0 0 0
37.096001 18.1 7.2059999 33
37.860001 18.591999 8.0240002 49
37.421001 18.506001 8.6029997 47
0 0 0 0
0 0 0 0
0 0 0 0
36.763 18.209 7.1220002 50
36.256001 18.073999 7.6659999 34
37.962002 19.058001 8.71 43
0 0 0 0
0 0 0 0
0 0 0 0
36.528 18.365 7.0500002 61
36.224998 18.326 7.6360002 47
38.181999 19.452 8.7370005 20
0 0 0 0
0 0 0 0
0 0 0 0
36.576 18.657 7.0320001 62
36.018002 18.489 7.566 48
38.465 19.879 8.7770004 35
41.139 21.42 10.144 2
0 0 0 0
0 0 0 0
36.730999 19 7.0289998 63
35.911999 18.693001 7.5139999 60
38.311001 20.079 8.7130003 42
40.409 21.334 9.9370003 2
0 0 0 0
0 0 0 0
36.519001 19.155001 6.9530001 49
36.09 19.047001 7.5170002 61
38.152 20.273001 8.6429996 51
38.389 20.549999 9.4069996 1
0 0 0 0
0 0 0 0
36.549999 19.433001 6.9190001 48
36.536999 19.544001 7.5739999 62
37.706001 20.305 8.5039997 63
40.967999 22.221001 10 5
0 0 0 0
0 0 0 0
37.014 19.938 6.9629998 25
36.785 19.934999 7.585 35
37.394001 20.399 8.3950005 66
37.912998 20.833 9.2159996 1
0 0 0 0
0 0 0 0
36.901001 20.132999 6.8959999 39
36.839001 20.219999 7.5489998 29
37.261002 20.587999 8.3210001 43
38.016998 21.156 9.1990004 56
39.623001 22.222 10.339 4
0 0 0 0
36.638 20.242001 6.796 54
36.867001 20.488001 7.507 40
37.387001 20.914 8.3000002 55
37.487999 21.121 9.0249996 49
39.624001 22.497999 10.289 18
0 0 0 0
36.705002 20.527 6.756 33
36.304001 20.422001 7.3400002 4
36.917999 20.900999 8.1450005 38
37.542999 21.406 8.9860001 69
37.160999 21.351999 9.6020002 3
0 0 0 0
37.701 21.333 6.8779998 7
38.486 21.905001 7.7210002 3
36.152 20.707001 7.921 60
37.485001 21.622999 8.9189997 69
37.124001 21.577 9.5430002 21
0 0 0 0
0 0 0 0
37.720001 21.712999 7.5079999 8
36.022999 20.868 7.8369999 60
37.528 21.892 8.8699999 29
37.095001 21.802999 9.4779997 21
0 0 0 0
35.923 20.791 6.4289999 59
40.644001 23.658001 8.0190001 4
35.782001 20.958 7.7249999 54
