# .PCD v0.7 - Point Cloud Data file format
VERSION 0.7
FIELDS x y z intensity
SIZE 4 4 4 4
TYPE F F F F
COUNT 1 1 1 1
WIDTH 1777
HEIGHT 1
VIEWPOINT 0 0 0 1 0 0 0
POINTS 1777
DATA ascii
3.0350001 0.37 -1.834 6
0 0 0 0
0 0 0 0
0 0 0 0
1.4170001 0.176 -0.93900001 2
1.563 0.189 -0.98699999 1
3.043 0.35800001 -1.834 6
0 0 0 0
0 0 0 0
0 0 0 0
1.426 0.171 -0.94199997 3
1.576 0.183 -0.99299997 1
3.053 0.34599999 -1.835 6
0 0 0 0
0 0 0 0
0 0 0 0
1.433 0.16599999 -0.94300002 2
1.607 0.18000001 -1.0089999 1
3.062 0.333 -1.834 6
0 0 0 0
0 0 0 0
0 0 0 0
1.447 0.161 -0.94999999 3
1.779 0.191 -1.113 2
3.076 0.32100001 -1.836 6
0 0 0 0
0 0 0 0
0 0 0 0
1.454 0.155 -0.95099998 2
0 0 0 0
3.092 0.30899999 -1.8380001 6
0 0 0 0
0 0 0 0
0 0 0 0
1.465 0.15000001 -0.954 2
0 0 0 0
3.099 0.29699999 -1.835 7
0 0 0 0
0 0 0 0
0 0 0 0
1.48 0.14399999 -0.95899999 2
0 0 0 0
3.115 0.28400001 -1.836 7
0 0 0 0
0 0 0 0
0 0 0 0
1.4960001 0.139 -0.96499997 2
2.99 0.26899999 -1.8380001 6
3.1259999 0.27200001 -1.8329999 7
0 0 0 0
0 0 0 0
1.387 0.12800001 -0.93300003 5
1.5089999 0.134 -0.96799999 2
3.0009999 0.257 -1.836 6
3.1429999 0.259 -1.834 6
1.168 0.111 -0.861 5
0 0 0 0
1.397 0.122 -0.935 5
1.534 0.12899999 -0.97899997 2
3.0239999 0.245 -1.839 6
3.165 0.24699999 -1.836 7
0 0 0 0
0 0 0 0
1.408 0.117 -0.93699998 5
1.554 0.124 -0.98500001 2
3.0439999 0.234 -1.84 6
3.184 0.235 -1.835 7
0 0 0 0
0 0 0 0
1.4299999 0.113 -0.94499999 4
1.582 0.119 -0.99699998 1
3.0610001 0.222 -1.839 7
3.201 0.222 -1.8329999 6
0 0 0 0
0 0 0 0
1.45 0.108 -0.95200002 3
0 0 0 0
3.0829999 0.20999999 -1.84 6
3.223 0.20999999 -1.834 7
0 0 0 0
0 0 0 0
1.466 0.102 -0.95599997 3
2.931 0.19499999 -1.822 6
3.0999999 0.197 -1.837 6
3.25 0.198 -1.836 7
0 0 0 0
0 0 0 0
1.49 0.097000003 -0.96399999 2
2.984 0.186 -1.841 6
3.1199999 0.185 -1.835 7
3.276 0.185 -1.837 7
0 0 0 0
0 0 0 0
1.516 0.092 -0.97399998 2
3.0109999 0.175 -1.844 6
3.1500001 0.17299999 -1.839 7
3.302 0.17299999 -1.837 7
0 0 0 0
1.399 0.083999999 -0.93599999 6
1.545 0.086999997 -0.98500001 2
3.0339999 0.163 -1.8430001 6
3.1689999 0.161 -1.835 7
3.3280001 0.16 -1.837 7
0 0 0 0
1.423 0.079000004 -0.94400001 5
1.576 0.082000002 -0.99599999 1
3.0599999 0.15099999 -1.8430001 6
3.2049999 0.149 -1.84 7
3.358 0.148 -1.8380001 7
0 0 0 0
1.444 0.074000001 -0.949 4
0 0 0 0
3.085 0.139 -1.8430001 6
3.233 0.13699999 -1.84 7
3.385 0.134 -1.836 7
0 0 0 0
1.47 0.068999998 -0.958 4
2.964 0.13 -1.841 5
3.1129999 0.12800001 -1.8430001 7
3.2609999 0.125 -1.84 7
3.4200001 0.122 -1.8380001 7
0 0 0 0
1.495 0.064000003 -0.96600002 3
3.003 0.119 -1.848 6
3.1400001 0.116 -1.842 6
3.29 0.112 -1.8380001 7
3.448 0.109 -1.836 8
0 0 0 0
1.53 0.059 -0.97899997 2
3.0339999 0.108 -1.849 7
3.1689999 0.104 -1.841 7
3.326 0.1 -1.841 7
3.4809999 0.096000001 -1.835 8
1.406 0.052000001 -0.935 4
1.574 0.054000001 -0.99699998 2
3.0599999 0.096000001 -1.847 7
3.201 0.092 -1.841 7
3.3559999 0.088 -1.839 8
3.523 0.082999997 -1.839 8
1.437 0.046999998 -0.94599998 4
0 0 0 0
3.0899999 0.083999999 -1.846 7
3.2390001 0.079999998 -1.844 7
3.388 0.075000003 -1.8380001 7
3.5510001 0.07 -1.834 8
1.467 0.041999999 -0.95499998 3
1.597 0.041000001 -0.991 0
3.1300001 0.072999999 -1.85 7
3.273 0.067000002 -1.844 8
3.4300001 0.061999999 -1.84 8
3.5869999 0.057 -1.8329999 8
1.503 0.037 -0.96799999 3
3.017 0.066 -1.852 6
3.151 0.061000001 -1.8430001 7
3.3099999 0.055 -1.844 7
3.46 0.048999999 -1.836 8
3.6289999 0.043000001 -1.834 8
1.5420001 0.032000002 -0.98199999 2
3.05 0.055 -1.852 7
3.188 0.048999999 -1.844 7
3.3440001 0.043000001 -1.842 7
3.5050001 0.037 -1.839 8
3.674 0.029999999 -1.835 7
1.63 0.027000001 -1.027 2
3.0780001 0.043000001 -1.848 7
3.2260001 0.037 -1.845 7
3.3800001 0.030999999 -1.841 8
3.5409999 0.024 -1.836 8
3.7190001 0.017000001 -1.835 8
0 0 0 0
3.1170001 0.032000002 -1.849 7
3.266 0.025 -1.846 7
3.4200001 0.017999999 -1.841 7
3.5899999 0.011 -1.84 8
3.763 0.003 -1.834 8
3.0090001 0.027000001 -1.852 6
3.154 0.02 -1.849 7
3.3050001 0.013 -1.846 8
3.4649999 0.0060000001 -1.8430001 8
3.6340001 -0.001 -1.839 8
3.8110001 -0.0089999996 -1.835 8
3.0439999 0.016000001 -1.851 7
3.184 0.0089999996 -1.844 8
3.349 0.0020000001 -1.847 8
3.51 -0.0049999999 -1.8430001 8
3.6760001 -0.014 -1.837 8
3.8469999 -0.022 -1.8279999 8
3.082 0.0049999999 -1.852 6
3.23 -0.001 -1.848 7
3.3859999 -0.0099999998 -1.845 8
3.5510001 -0.017999999 -1.841 8
3.7249999 -0.027000001 -1.837 8
3.905 -0.035999998 -1.831 9
3.1170001 -0.0049999999 -1.849 7
3.267 -0.013 -1.846 8
3.424 -0.022 -1.841 8
3.596 -0.029999999 -1.84 8
3.773 -0.039999999 -1.837 8
3.9449999 -0.050000001 -1.826 9
3.1559999 -0.016000001 -1.848 7
3.312 -0.025 -1.847 8
3.4779999 -0.034000002 -1.846 8
3.6459999 -0.043000001 -1.841 8
3.8180001 -0.052999999 -1.8329999 8
4.0050001 -0.064000003 -1.827 9
3.198 -0.027000001 -1.848 7
3.3529999 -0.035999998 -1.845 8
3.523 -0.046 -1.845 8
3.698 -0.056000002 -1.8430001 8
3.8699999 -0.066 -1.8329999 8
4.0539999 -0.077 -1.824 9
3.2390001 -0.039000001 -1.847 7
3.4030001 -0.048 -1.847 8
3.5739999 -0.057999998 -1.846 8
3.74 -0.068000004 -1.837 8
3.9219999 -0.079000004 -1.831 8
4.119 -0.090999998 -1.826 9
3.2820001 -0.050000001 -1.846 7
3.4519999 -0.059999999 -1.848 8
3.619 -0.07 -1.8430001 8
3.799 -0.081 -1.84 8
3.9779999 -0.093000002 -1.83 9
4.1849999 -0.106 -1.8279999 9
3.3299999 -0.061000001 -1.847 7
3.494 -0.071999997 -1.844 9
3.665 -0.082000002 -1.84 8
3.846 -0.093999997 -1.835 8
4.04 -0.106 -1.831 9
4.2540002 -0.12 -1.829 9
3.3840001 -0.072999999 -1.85 7
3.55 -0.083999999 -1.847 8
3.7290001 -0.094999999 -1.845 9
3.9030001 -0.107 -1.835 9
4.1009998 -0.12 -1.83 10
4.3189998 -0.134 -1.8279999 9
3.425 -0.083999999 -1.845 8
3.6059999 -0.096000001 -1.848 9
3.7820001 -0.108 -1.8430001 8
3.967 -0.12 -1.836 9
4.171 -0.134 -1.832 10
4.3829999 -0.148 -1.826 9
3.4749999 -0.096000001 -1.845 8
3.6489999 -0.108 -1.8430001 9
3.8340001 -0.12 -1.84 8
4.0209999 -0.133 -1.8329999 9
4.2309999 -0.147 -1.829 10
4.4629998 -0.163 -1.8279999 10
3.5309999 -0.107 -1.847 8
3.7079999 -0.119 -1.844 8
3.8900001 -0.132 -1.8380001 9
4.0840001 -0.146 -1.832 10
4.3049998 -0.162 -1.831 10
4.533 -0.178 -1.826 10
3.589 -0.119 -1.848 8
3.7690001 -0.132 -1.845 9
3.9549999 -0.145 -1.839 9
4.1599998 -0.16 -1.835 9
4.3730001 -0.175 -1.829 10
4.6110001 -0.192 -1.825 10
3.6459999 -0.131 -1.848 8
3.823 -0.14399999 -1.841 9
4.0100002 -0.15800001 -1.834 10
4.224 -0.17299999 -1.832 9
4.4499998 -0.189 -1.829 10
4.6919999 -0.208 -1.824 10
3.6989999 -0.142 -1.845 8
3.885 -0.156 -1.841 9
4.0760002 -0.17 -1.8329999 9
4.3039999 -0.18700001 -1.835 10
4.5250001 -0.204 -1.827 10
4.7670002 -0.222 -1.8200001 10
3.766 -0.154 -1.848 8
3.9400001 -0.168 -1.836 10
4.1570001 -0.184 -1.8380001 10
4.3730001 -0.2 -1.832 10
4.5970001 -0.21699999 -1.823 10
4.8590002 -0.237 -1.821 10
3.8239999 -0.16599999 -1.846 9
4.0089998 -0.18000001 -1.837 9
4.2179999 -0.19599999 -1.8329999 10
4.4520001 -0.214 -1.8329999 10
4.6859999 -0.23199999 -1.825 9
4.9569998 -0.25299999 -1.823 11
3.885 -0.177 -1.844 8
4.0739999 -0.192 -1.835 9
4.3010001 -0.20900001 -1.836 10
4.5289998 -0.227 -1.831 10
4.7690001 -0.24600001 -1.822 11
5.0510001 -0.26800001 -1.821 11
3.951 -0.189 -1.8430001 9
4.152 -0.205 -1.837 10
4.3769999 -0.222 -1.835 11
4.6110001 -0.241 -1.829 11
4.8600001 -0.26100001 -1.821 11
5.1500001 -0.28400001 -1.8200001 10
4.013 -0.2 -1.839 9
4.2259998 -0.21699999 -1.836 11
4.4520001 -0.235 -1.832 11
4.6900001 -0.25400001 -1.825 11
4.9629998 -0.27599999 -1.823 10
5.2529998 -0.29899999 -1.819 11
4.079 -0.212 -1.836 9
4.3060002 -0.23 -1.837 10
4.5359998 -0.248 -1.832 11
4.777 -0.26800001 -1.823 10
5.0630002 -0.29100001 -1.823 11
5.3579998 -0.315 -1.817 11
4.1529999 -0.22400001 -1.836 9
4.388 -0.242 -1.837 11
4.6290002 -0.26199999 -1.8329999 11
4.8779998 -0.28299999 -1.825 10
5.1739998 -0.30599999 -1.824 11
5.4749999 -0.331 -1.817 12
4.23 -0.235 -1.835 10
4.4650002 -0.25400001 -1.834 11
4.7049999 -0.27399999 -1.827 11
4.9770002 -0.29699999 -1.824 11
5.277 -0.32100001 -1.822 12
5.5900002 -0.347 -1.814 12
4.316 -0.248 -1.837 9
4.552 -0.26699999 -1.834 11
4.8010001 -0.28799999 -1.8279999 11
5.0879998 -0.31099999 -1.827 12
5.3790002 -0.336 -1.818 12
5.7210002 -0.36399999 -1.8150001 12
4.4039998 -0.25999999 -1.839 10
4.6409998 -0.28 -1.8329999 11
4.9029999 -0.301 -1.8279999 11
5.1950002 -0.32600001 -1.826 11
5.507 -0.352 -1.819 11
5.8400002 -0.38 -1.8099999 12
4.4850001 -0.271 -1.836 10
4.7280002 -0.292 -1.83 11
5.0040002 -0.315 -1.827 11
5.302 -0.34 -1.823 12
5.6259999 -0.36700001 -1.817 12
5.9910002 -0.398 -1.813 13
4.573 -0.28299999 -1.835 10
4.8189998 -0.30399999 -1.827 11
5.1209998 -0.329 -1.831 11
5.415 -0.354 -1.821 11
5.7519999 -0.38299999 -1.816 12
6.1100001 -0.41299999 -1.8049999 12
4.664 -0.29499999 -1.834 10
4.9200001 -0.317 -1.826 11
5.2179999 -0.34200001 -1.825 11
5.5450001 -0.36899999 -1.823 11
5.8600001 -0.396 -1.806 12
6.2789998 -0.43099999 -1.809 11
4.756 -0.30700001 -1.832 10
5.0180001 -0.329 -1.824 11
5.3369999 -0.35499999 -1.825 12
5.6659999 -0.38299999 -1.8200001 12
6.0409999 -0.41499999 -1.818 11
6.4310002 -0.44800001 -1.807 12
4.8509998 -0.31799999 -1.829 10
5.1399999 -0.34200001 -1.827 11
5.4559999 -0.36899999 -1.824 11
5.796 -0.398 -1.818 13
6.171 -0.43000001 -1.811 11
6.5910001 -0.46599999 -1.804 12
4.9530001 -0.33000001 -1.8279999 10
5.2470002 -0.354 -1.824 11
5.5749998 -0.382 -1.821 12
5.9369998 -0.41299999 -1.817 12
6.3369999 -0.447 -1.812 12
6.7740002 -0.484 -1.804 11
5.0539999 -0.34099999 -1.825 10
5.368 -0.36700001 -1.824 11
5.7020001 -0.39500001 -1.819 11
6.085 -0.428 -1.817 11
6.5009999 -0.463 -1.811 12
6.9590001 -0.50199997 -1.803 11
5.1760001 -0.35299999 -1.827 11
5.493 -0.38 -1.824 11
5.849 -0.41 -1.821 12
6.2420001 -0.44299999 -1.816 11
6.671 -0.479 -1.809 13
7.1539998 -0.52100003 -1.801 12
5.2820001 -0.36399999 -1.822 11
5.6139998 -0.39199999 -1.819 11
5.9959998 -0.42399999 -1.8200001 12
6.3979998 -0.458 -1.814 11
6.8509998 -0.49599999 -1.807 11
7.3499999 -0.53899997 -1.796 11
5.421 -0.377 -1.827 10
5.7490001 -0.405 -1.818 11
6.1360002 -0.43700001 -1.816 11
6.5669999 -0.47299999 -1.812 12
7.0370002 -0.51300001 -1.804 11
7.5650001 -0.55800003 -1.794 12
5.5359998 -0.38800001 -1.822 11
5.8979998 -0.41800001 -1.8200001 11
6.296 -0.45100001 -1.816 11
6.7350001 -0.48800001 -1.808 12
7.2319999 -0.52899998 -1.801 12
7.789 -0.57599998 -1.791 12
5.6609998 -0.398 -1.819 11
6.046 -0.43000001 -1.819 12
6.4590001 -0.46399999 -1.813 12
6.921 -0.50300002 -1.807 11
7.4489999 -0.54699999 -1.8 11
8.0450001 -0.597 -1.791 11
5.8070002 -0.41100001 -1.8200001 11
6.1859999 -0.442 -1.813 10
6.6230001 -0.47799999 -1.808 12
7.1220002 -0.51899999 -1.806 11
7.6659999 -0.56400001 -1.796 12
8.2950001 -0.616 -1.786 11
5.96 -0.42199999 -1.821 11
6.3470001 -0.454 -1.811 11
6.8099999 -0.49200001 -1.808 11
7.3099999 -0.53299999 -1.799 12
7.8979998 -0.58099997 -1.7920001 10
8.5679998 -0.63599998 -1.783 12
6.1079998 -0.433 -1.818 11
6.5289998 -0.46700001 -1.813 12
6.994 -0.505 -1.804 11
7.5349998 -0.54900002 -1.798 12
8.1529999 -0.59899998 -1.79 11
8.8450003 -0.65600002 -1.777 12
6.2729998 -0.44499999 -1.818 11
6.6900001 -0.47799999 -1.806 13
7.197 -0.51899999 -1.802 12
7.7709999 -0.565 -1.7970001 10
8.4069996 -0.616 -1.784 11
9.1379995 -0.676 -1.77 12
6.4289999 -0.45500001 -1.813 12
6.8759999 -0.49000001 -1.803 11
7.4120002 -0.53299999 -1.8 11
8.0089998 -0.57999998 -1.7920001 11
8.6929998 -0.63499999 -1.781 12
9.474 -0.69700003 -1.766 12
6.618 -0.46700001 -1.8150001 12
7.0700002 -0.50199997 -1.8 12
7.6370001 -0.546 -1.7970001 12
8.2580004 -0.59500003 -1.786 11
8.9949999 -0.653 -1.777 12
9.8079996 -0.71799999 -1.757 13
6.789 -0.47600001 -1.808 11
7.2839999 -0.514 -1.799 12
7.875 -0.56 -1.794 11
8.5319996 -0.611 -1.783 11
9.3009996 -0.671 -1.771 12
10.171 -0.73900002 -1.75 13
6.9710002 -0.486 -1.8049999 11
7.494 -0.52600002 -1.795 12
8.125 -0.57300001 -1.791 11
8.8210001 -0.62699997 -1.779 12
9.618 -0.68800002 -1.762 12
10.563 -0.76099998 -1.742 12
7.1810002 -0.49599999 -1.804 11
7.7350001 -0.53799999 -1.795 10
8.3839998 -0.58700001 -1.7869999 12
9.1219997 -0.64200002 -1.774 12
9.9720001 -0.70599997 -1.755 12
10.966 -0.78100002 -1.73 13
7.4180002 -0.50800002 -1.807 10
7.9749999 -0.54900002 -1.79 11
8.6610003 -0.59899998 -1.781 12
9.4379997 -0.65700001 -1.766 12
10.355 -0.72500002 -1.748 12
11.415 -0.80400002 -1.721 12
7.632 -0.51599997 -1.801 10
8.224 -0.55900002 -1.785 11
8.9530001 -0.61199999 -1.776 12
9.7690001 -0.671 -1.758 12
10.745 -0.74199998 -1.737 12
11.91 -0.82700002 -1.711 12
7.8699999 -0.52600002 -1.798 11
8.4980001 -0.56999999 -1.781 11
9.2709999 -0.625 -1.771 13
10.131 -0.68599999 -1.749 12
11.173 -0.75999999 -1.726 13
12.441 -0.85100001 -1.699 12
8.1029997 -0.53299999 -1.79 11
8.7889996 -0.57999998 -1.778 12
9.5909996 -0.63599998 -1.763 12
10.52 -0.70099998 -1.742 12
11.639 -0.77899998 -1.717 12
13.013 -0.875 -1.687 11
8.3739996 -0.542 -1.788 12
9.0880003 -0.58999997 -1.771 12
9.9469995 -0.648 -1.756 12
10.923 -0.71499997 -1.73 13
12.156 -0.79799998 -1.707 12
13.644 -0.89999998 -1.673 13
8.6459999 -0.54900002 -1.783 11
9.4020004 -0.59899998 -1.765 12
10.313 -0.65899998 -1.747 13
11.385 -0.73000002 -1.722 14
12.702 -0.81699997 -1.694 11
14.302 -0.92299998 -1.654 12
8.9469995 -0.55599999 -1.779 11
9.7440004 -0.60699999 -1.758 13
10.711 -0.67000002 -1.738 12
11.877 -0.745 -1.7130001 12
13.308 -0.83700001 -1.681 12
15.063 -0.94999999 -1.637 13
9.2580004 -0.56199998 -1.773 12
10.09 -0.61400002 -1.748 13
11.132 -0.67900002 -1.727 13
12.392 -0.75800002 -1.7 13
13.934 -0.85500002 -1.664 13
15.885 -0.977 -1.618 12
9.5760002 -0.56699997 -1.765 12
10.485 -0.62199998 -1.742 12
11.593 -0.68900001 -1.717 13
12.949 -0.77200001 -1.688 12
14.629 -0.87400001 -1.648 13
16.834999 -1.007 -1.6 11
9.9139996 -0.57099998 -1.756 12
10.876 -0.62699997 -1.73 13
12.09 -0.69800001 -1.706 13
13.579 -0.78600001 -1.675 12
15.422 -0.89399999 -1.631 12
17.927999 -1.041 -1.5829999 12
10.289 -0.57499999 -1.75 12
11.32 -0.63300002 -1.721 14
12.632 -0.70700002 -1.6950001 12
14.235 -0.79699999 -1.658 13
16.302999 -0.91399997 -1.613 10
19.101999 -1.072 -1.557 13
10.681 -0.57800001 -1.74 13
11.805 -0.63800001 -1.712 14
13.224 -0.71499997 -1.682 12
14.954 -0.80900002 -1.64 12
17.299999 -0.93599999 -1.594 11
20.459 -1.107 -1.529 15
11.104 -0.579 -1.73 13
12.308 -0.64099997 -1.699 13
13.834 -0.72000003 -1.665 13
15.78 -0.82099998 -1.622 11
18.415001 -0.958 -1.573 12
22.007 -1.1440001 -1.497 18
11.539 -0.57800001 -1.717 13
12.853 -0.64300001 -1.6849999 12
14.523 -0.72600001 -1.649 13
16.712 -0.83399999 -1.605 10
19.603001 -0.977 -1.543 14
23.582001 -1.174 -1.449 19
12.025 -0.57700002 -1.707 12
13.471 -0.64499998 -1.675 13
15.275 -0.73000002 -1.631 12
17.736 -0.84500003 -1.584 11
21.058001 -1.001 -1.517 16
25.558001 -1.2130001 -1.401 13
12.567 -0.574 -1.697 12
14.099 -0.64300001 -1.656 13
16.146 -0.73400003 -1.615 9
18.903999 -0.85699999 -1.562 13
22.601 -1.021 -1.479 19
27.827 -1.2539999 -1.344 6
13.142 -0.56999999 -1.686 12
14.766 -0.63800001 -1.636 13
17.076 -0.73500001 -1.594 10
20.163 -0.86400002 -1.534 15
24.18 -1.033 -1.424 20
30.427 -1.295 -1.271 5
13.749 -0.56300002 -1.671 13
15.568 -0.634 -1.62 12
18.134001 -0.73500001 -1.574 12
21.605 -0.87099999 -1.503 17
26.299999 -1.056 -1.378 9
33.223999 -1.326 -1.173 2
14.403 -0.55299997 -1.653 13
16.424999 -0.62599999 -1.6 10
19.34 -0.73299998 -1.551 13
23.181 -0.87300003 -1.461 19
28.667 -1.073 -1.317 6
35.397999 -1.318 -1.025 44
15.108 -0.54000002 -1.6339999 12
17.410999 -0.61799997 -1.582 11
20.66 -0.727 -1.522 16
24.771 -0.86500001 -1.4 14
32.721001 -1.133 -1.2920001 12
35.687 -1.226 -0.80299997 106
15.927 -0.52499998 -1.617 11
18.495001 -0.60399997 -1.559 12
22.115999 -0.71600002 -1.487 18
26.907 -0.86299998 -1.35 7
35.068001 -1.114 -1.163 43
35.752998 -1.125 -0.58200002 93
16.826 -0.50700003 -1.599 10
19.683001 -0.58700001 -1.534 14
23.658001 -0.69700003 -1.439 20
29.459999 -0.85699999 -1.29 6
35.465 -1.021 -0.954 50
0 0 0 0
17.799999 -0.484 -1.576 11
21.094 -0.56599998 -1.5089999 16
25.466 -0.67299998 -1.388 11
32.735001 -0.85299999 -1.229 6
40.835999 -1.05 -0.84399998 59
47.624001 -1.206 -0.18099999 26
18.929001 -0.45699999 -1.5549999 13
22.521 -0.53399998 -1.4680001 18
27.865999 -0.64999998 -1.3430001 6
35.144001 -0.80599999 -1.101 44
44.929001 -1.011 -0.64999998 41
47.609001 -1.051 0.114 58
20.169001 -0.42300001 -1.53 15
24.041 -0.49399999 -1.415 21
30.021999 -0.60399997 -1.261 5
35.736 -0.70300001 -0.898 0
47.326 -0.90799999 -0.391 28
0 0 0 0
21.603001 -0.38299999 -1.502 17
25.898001 -0.447 -1.363 9
34.814999 -0.58399999 -1.2460001 17
41.106998 -0.67000002 -0.77899998 47
55.861 -0.88099998 -0.119 6
0 0 0 0
23.021 -0.33000001 -1.457 19
28.243999 -0.391 -1.312 7
35.049999 -0.46799999 -1.04 8
42.754002 -0.54900002 -0.55199999 1
79.130997 -0.97600001 0.30199999 15
118.06 -1.393 2.4260001 26
24.598 -0.26899999 -1.4069999 20
30.650999 -0.31900001 -1.239 5
39.513 -0.389 -0.93400002 57
47.474998 -0.44 -0.32600001 7
86.558998 -0.75800002 0.84500003 5
115.386 -0.94199997 3.0580001 10
26.743999 -0.198 -1.367 13
34.801998 -0.237 -1.196 20
41.610001 -0.259 -0.73400003 26
66.384003 -0.375 -0.063000001 10
119.771 -0.60799998 1.88 85
107.993 -0.48199999 3.4949999 15
28.948999 -0.109 -1.306 6
35.145 -0.111 -0.99900001 5
0 0 0 0
79.675003 -0.155 0.38800001 14
0 0 0 0
108.258 -0.071999997 4.132 39
31.323999 -0.001 -1.227 3
39.733002 0.023 -0.89600003 58
37.952999 0.046 -0.22400001 2
86.682999 0.164 0.92799997 45
86.919998 0.221 2.372 63
87.042 0.278 3.819 16
34.813 0.13 -1.161 22
38.02 0.167 -0.63800001 150
38.027 0.193 -0.0070000002 8
0 0 0 0
107.078 0.69300002 3.53 40
107.429 0.76899999 5.3210001 35
35.077 0.26699999 -0.96799999 2
38.013 0.31799999 -0.41800001 150
78.875 0.71700001 0.43799999 27
0 0 0 0
91.689003 0.96899998 3.5469999 6
85.304001 0.96600002 4.7140002 16
38.014 0.44400001 -0.829 110
38.041 0.47299999 -0.20100001 150
42.432999 0.55900002 0.47600001 4
90.532997 1.266 2.517 33
86.578003 1.278 3.839 28
85.466003 1.3279999 5.2020001 35
38.028999 0.602 -0.61199999 87
38.477001 0.639 0.014 150
0 0 0 0
59.138 1.0779999 1.976 20
0 0 0 0
85.473999 1.698 5.6789999 17
38.063 0.76300001 -0.39899999 83
39.455002 0.82300001 0.235 56
58.870998 1.275 1.317 3
58.681 1.3200001 2.28 41
59.599998 1.39 3.2969999 40
85.222 2.0599999 6.1199999 29
38.687 0.94099998 -0.19400001 60
39.662998 0.99800003 0.45100001 28
58.723 1.526 1.631 44
58.734001 1.5779999 2.598 56
59.07 1.6390001 3.586 4
85.845001 2.4630001 6.6329999 33
39.167 1.126 0.018999999 72
42.647999 1.262 0.71700001 4
58.445999 1.7819999 1.942 38
58.741001 1.842 2.915 56
86.526001 2.7950001 5.7179999 40
85.966003 2.8559999 7.0960002 37
39.319 1.3049999 0.228 54
59.592999 2.0320001 1.3200001 36
58.278999 2.0409999 2.2449999 65
58.966999 2.119 3.237 58
36.326 1.341 2.5929999 1
35.790001 1.357 3.1440001 56
39.560001 1.495 0.44100001 27
55.974998 2.1689999 1.538 24
35.866001 1.424 1.571 20
35.492001 1.4450001 2.138 107
35.473999 1.48 2.72 123
35.494999 1.516 3.3050001 8
35.484001 1.508 0.583 96
35.477001 1.543 1.161 137
35.509998 1.579 1.7410001 32
35.414001 1.6109999 2.316 29
35.021999 1.6289999 2.8640001 14
34.895 1.661 3.4300001 7
44.724998 2.1159999 0.96799999 37
58.386002 2.819 2.211 53
34.900002 1.721 1.89 20
108.602 5.4699998 7.6589999 26
109.039 5.6100001 9.4779997 15
109.701 5.763 11.337 12
44.782001 2.3340001 1.194 39
58.814999 3.128 2.5250001 57
59.036999 3.2 3.494 53
107.667 5.954 8.1300001 28
108.68 6.1279998 9.9849997 29
110.112 6.3379998 11.932 24
44.845001 2.5599999 1.4220001 18
59.084 3.4360001 2.8310001 60
59.000999 3.494 3.7850001 30
109.374 6.5999999 8.802 28
0 0 0 0
70.910004 4.4429998 8.0319996 45
58.922001 3.6570001 2.1559999 3
59.57 3.7620001 3.1440001 8
108.395 6.9720001 7.4850001 38
109.722 7.184 9.3660002 26
70.880997 4.723 7.2090001 34
70.615997 4.7919998 8.3430004 34
106.139 7.1300001 4.4000001 31
108.456 7.4089999 6.2490001 27
108.028 7.5050001 7.9770002 35
109.574 7.744 9.8769999 29
70.787003 5.0869999 7.5370002 30
69.362 5.0770001 8.5299997 51
106.978 7.7470002 4.9499998 20
108.827 8.0080004 6.7919998 15
108.084 8.0819998 8.4980001 90
109.625 8.3330002 10.404 24
69.325996 5.355 7.7119999 17
69.448997 5.4559999 8.8669996 46
109.273 8.4919996 5.5689998 12
108.46 8.5609999 7.2810001 28
109.463 8.7709999 9.118 31
0 0 0 0
69.516998 5.7470002 8.0570002 28
69.486 5.8410001 9.198 42
107.814 8.9580002 5.993 35
108.917 9.1829996 7.809 30
110.27 9.4370003 9.691 16
71.440002 6.2090001 7.4429998 21
69.380997 6.1240001 8.3640003 28
69.695999 6.2459998 9.5459995 39
0 0 0 0
110.931 9.9619999 8.4560003 9
0 0 0 0
70.194 6.4860001 7.6259999 5
69.474998 6.5159998 8.684 28
69.907997 6.6570001 9.8879995 43
0 0 0 0
0 0 0 0
70.813004 6.848 6.8579998 13
72.166 7.0749998 8.1610003 18
70.382004 7.0009999 9.1099997 47
70.052002 7.0710001 10.22 50
0 0 0 0
70.592003 7.132 6.0019999 8
72.116997 7.382 7.296 9
0 0 0 0
68.507004 7.2069998 9.1630001 3
71.486 7.631 10.741 48
0 0 0 0
72.108002 7.698 6.441 3
67.637001 7.3130002 7.132 18
68.698997 7.5279999 8.3610001 12
71.849998 7.9809999 9.9200001 18
71.519997 8.0559998 11.052 41
72.058998 8.0100002 5.5799999 27
0 0 0 0
67.529999 7.6939998 7.402 26
67.158997 7.7490001 8.4519997 36
67.473 7.8899999 9.5959997 56
72.331001 8.5699997 11.477 17
72.740997 8.5039997 5.927 17
0 0 0 0
67.435997 8.0799999 7.6690001 13
67.052002 8.1359997 8.7150002 39
67.488998 8.2930002 9.875 9
72.103996 8.9790001 11.739 7
0 0 0 0
71.866997 8.9320002 7.3000002 34
67.596001 8.5030003 7.9569998 16
67.093002 8.5419998 8.9879999 52
69.164001 8.9169998 10.398 21
70.662003 9.2259998 11.788 9
69.251999 8.9230003 6.198 34
72.016998 9.3859997 7.5999999 30
56.466 7.4460001 6.8709998 58
57.130001 7.625 7.881 9
68.878998 9.3070002 10.631 36
0 0 0 0
69.237999 9.3479996 6.4679999 28
56.085999 7.6570001 6.138 11
55.764999 7.6989999 7.0029998 52
56.630001 7.9109998 8.033 61
68.754997 9.7220001 10.881 44
36.116001 5.1690001 6.3109999 19
70.703003 9.9799995 6.8699999 27
55.833 7.9640002 6.3189998 19
55.597 8.0200005 7.191 39
56.481998 8.2419996 8.2250004 39
68.586998 10.125 11.112 45
36.082001 5.3920002 6.4419999 45
0 0 0 0
56.034 8.3409996 6.5489998 19
55.646 8.375 7.4029999 45
35.911999 5.4660001 5.362 36
35.73 5.5040002 5.9219999 48
35.771 5.5760002 6.5209999 37
57.451 8.8319998 6.0040002 15
55.764 8.6590004 6.7210002 35
35.928001 5.6389999 4.9109998 34
35.688999 5.664 5.46 48
35.284 5.664 5.9780002 39
35.16 5.7090001 6.539 29
35.912998 5.7490001 3.878 23
35.847 5.7969999 4.4460001 39
35.750999 5.8410001 5.0120001 30
35.659 5.8889999 5.5809999 47
35.869999 5.9920001 6.2049999 51
35.791 6.0479999 6.7859998 40
56.039001 9.3319998 6.2449999 7
55.873001 9.3970003 7.1230001 20
55.515999 9.434 7.9759998 28
36.047001 6.1890001 5.7670002 31
36.341 6.3099999 6.414 12
0 0 0 0
56.722 9.8170004 6.513 3
55.657001 9.7250004 7.283 20
53.971001 9.5240002 7.9359999 54
54.057999 9.6400003 8.8319998 46
0 0 0 0
33.705002 6.1420002 6.6220002 17
58.449001 10.497 6.8990002 7
58.16 10.546 7.7989998 4
53.820999 9.8559999 8.0889997 41
54.044998 9.9969997 9.0059996 56
56.534 10.571 10.356 9
33.685001 6.368 6.7319999 18
56.490002 10.52 6.8470001 28
53.508999 10.062 7.3460002 48
53.631001 10.181 8.2320004 42
53.654999 10.29 9.1140003 47
0 0 0 0
33.780998 6.6160002 6.8590002 9
58.215 11.231 7.2329998 6
53.623001 10.445 7.5279999 22
53.494999 10.518 8.3780003 41
53.596001 10.641 9.2720003 42
0 0 0 0
33.615002 6.8140001 6.9320002 36
0 0 0 0
53.076 10.696 7.6079998 52
53.056 10.793 8.4680004 57
54.181 11.128 9.5360003 57
0 0 0 0
33.523998 7.0300002 7.0159998 1
54.268002 11.21 7.0640001 13
52.726002 10.99 7.7129998 46
52.931999 11.133 8.6029997 32
54.182999 11.51 9.6969995 15
0 0 0 0
0 0 0 0
52.817001 11.274 7.0219998 32
52.683998 11.345 7.8540001 41
53.077 11.532 8.776 58
54.380001 11.929 9.8889999 5
0 0 0 0
33.509998 7.5009999 7.2129998 9
52.653 11.607 7.1440001 33
52.761002 11.733 8.0100002 28
53.116001 11.916 8.9300003 57
0 0 0 0
0 0 0 0
0 0 0 0
53.097 12.078 7.3449998 13
53.178001 12.2 8.2150002 44
53.299 12.334 9.1029997 46
54.439999 12.716 10.196 5
0 0 0 0
0 0 0 0
53.292 12.497 7.5050001 10
52.736 12.471 8.2790003 69
53.852001 12.849 9.3369999 56
0 0 0 0
0 0 0 0
0 0 0 0
52.872002 12.775 7.5749998 35
52.591999 12.813 8.3870001 52
54.007 13.27 9.4960003 46
0 0 0 0
40.035999 10.019 8.3719997 2
35.806 9.0489998 8.0930004 41
53.694 13.358 7.8169999 23
53.154999 13.334 8.6029997 55
53.529999 13.54 9.5410004 65
0 0 0 0
39.816002 10.257 8.4239998 9
34.741001 9.0380001 7.9400001 49
53.652 13.735 7.9330001 40
53.681999 13.854 8.809 44
54.442001 14.166 9.8269997 48
38.625 10.14 7.6129999 36
36.527 9.6789999 7.8150001 19
34.660999 9.2740002 8.0050001 49
54.713001 14.408 8.2089996 22
53.783001 14.273 8.9440002 36
55.507999 14.854 10.143 12
35.345001 9.5410004 7.0469999 10
36.361 9.9040003 7.8610001 28
33.956001 9.3380003 7.9190001 47
54.264 14.687 8.2539997 46
54.970001 14.992 9.257 53
35.356998 9.7220001 6.5359998 3
36.205002 10.04 7.2969999 18
0 0 0 0
33.792 9.5469999 7.9569998 41
54.148998 15.054 8.342 50
54.826 15.36 9.3400002 41
35.354 9.9860001 6.6079998 45
36.005001 10.258 7.3309999 52
33.358002 9.5889997 7.3559999 25
33.367001 9.6820002 7.9289999 45
55.074001 15.725 8.5880003 48
55.955002 16.099001 9.6400003 15
35.501999 10.296 6.7049999 38
33.687 9.8520002 6.9260001 2
33.228001 9.8050003 7.3940001 44
33.216999 9.8929996 7.961 43
55.400002 16.233999 8.7390003 54
0 0 0 0
35.741001 10.637 6.8169999 39
34.398998 10.322 7.1370001 45
33.126999 10.028 7.4359999 45
33.306999 10.177 8.0489998 45
56.098999 16.858999 8.9440002 37
0 0 0 0
35.493999 10.829 6.8299999 50
34.403999 10.584 7.1989999 29
33.778 10.483 7.6420002 49
33.123001 10.374 8.0649996 26
0 0 0 0
35.066002 10.879 6.2210002 50
35.445999 11.084 6.8800001 12
35.175999 11.09 7.4200001 50
33.577999 10.678 7.6560001 47
34.175999 10.968 8.382 48
35.945999 11.347 5.8410001 15
34.639 11.012 6.1989999 49
35.154999 11.262 6.8769999 7
35.042 11.318 7.448 50
33.768002 10.999 7.7550001 24
33.342999 10.957 8.2349997 47
0 0 0 0
34.946999 11.376 6.3049998 31
0 0 0 0
34.426998 11.384 7.368 24
33.198002 11.071 7.6739998 45
33.550999 11.29 8.3380003 44
0 0 0 0
35.237 11.742 6.4050002 34
36.592999 12.284 7.2639999 6
33.651001 11.387 7.2509999 47
32.903 11.226 7.6550002 45
33.187 11.425 8.2980003 47
0 0 0 0
36.473 12.434 6.6729999 2
35.481998 12.184 7.0869999 51
33.521999 11.603 7.2659998 47
33.021 11.523 7.7259998 45
33.294998 11.722 8.3710003 47
0 0 0 0
0 0 0 0
35.596001 12.499 7.1529999 42
33.490002 11.85 7.3010001 42
34.445999 12.29 8.1040001 49
33.356998 12.006 8.4309998 48
0 0 0 0
0 0 0 0
35.617001 12.782 7.1950002 36
0 0 0 0
34.169998 12.459 8.0780001 55
33.374001 12.275 8.4750004 48
0 0 0 0
0 0 0 0
34.328999 12.585 6.9699998 49
35.282001 13.034 7.7670002 18
0 0 0 0
33.458 12.57 8.5349998 41
0 0 0 0
0 0 0 0
34.313 12.848 6.9959998 39
34.627998 13.065 7.6539998 47
34.785999 13.23 8.2950001 1
33.578999 12.882 8.6009998 12
0 0 0 0
34.098999 12.942 6.401 32
34.061001 13.021 6.9720001 51
34.367001 13.237 7.6259999 51
0 0 0 0
36.868999 14.438 9.4770002 12
0 0 0 0
33.903 13.134 6.3870001 16
33.863998 13.209 6.9569998 16
34.296001 13.479 7.6370001 50
35.347 14.003 8.4890003 44
35.120998 14.03 9.0579996 45
0 0 0 0
33.728001 13.326 6.3730001 13
33.849998 13.468 6.973 3
35.118999 14.077 7.842 53
35.431 14.317 8.5349998 53
35.240002 14.358 9.1149998 44
0 0 0 0
0 0 0 0
36.243 14.706 7.4850001 57
35.252998 14.411 7.8920002 58
0 0 0 0
0 0 0 0
35.98 14.685 6.2189999 2
37.563999 15.43 7.1279998 60
35.793999 14.801 7.4060001 55
34.963001 14.564 7.842 53
34.485001 14.477 8.3439999 18
36.157001 15.305 9.3950005 57
36.061001 14.999 6.2420001 3
37.683998 15.773 7.1620002 36
35.306999 14.876 7.3179998 54
34.375 14.59 7.724 51
33.924999 14.511 8.2229996 6
36.047001 15.546 9.3839998 54
36.705002 15.551 6.3569999 12
36.087002 15.383 6.8639998 9
35.056999 15.045 7.2729998 53
34.212002 14.789 7.697 45
33.992001 14.806 8.2489996 12
35.932999 15.782 9.3690004 51
36.658001 15.816 6.3509998 8
36.264999 15.743 6.901 2
35.046001 15.316 7.2750001 54
34.581001 15.219 7.7849998 53
35.786999 15.872 8.6929998 40
35.798 16.007999 9.342 54
36.403 15.991 6.3049998 34
36.881001 16.299999 7.0180001 15
34.620998 15.4 7.1880002 52
34.681 15.537 7.8099999 36
35.733002 16.129 8.6850004 57
35.435001 16.125999 9.2539997 57
36.084999 16.127001 6.243 14
37.071999 16.669001 7.0489998 40
33.518002 15.17 6.9559999 45
33.478001 15.26 7.54 20
35.516998 16.309999 8.6350002 43
35.244999 16.316999 9.2080002 41
35.575001 16.176001 6.1459999 30
34.639999 15.843 6.5799999 22
33.444 15.396 6.9359999 49
33.355 15.463 7.507 23
33.902 15.835 8.2379999 50
35.363998 16.65 9.2370005 10
34.823002 16.101 6.0019999 53
34.448002 16.02 6.5320001 38
33.334 15.6 6.9029999 50
34.171001 16.103001 7.6820002 9
33.731998 16.016001 8.1920004 48
37.224998 17.818001 9.7200003 22
34.845001 16.378 5.9910002 23
34.459999 16.290001 6.5209999 53
33.115002 15.754 6.8460002 49
33.326 15.964 7.4819999 50
33.544998 16.190001 8.1379995 51
37.162998 18.077999 9.6969995 26
36.234001 17.306999 6.21 19
34.387001 16.518 6.4899998 32
33.209 16.052999 6.8509998 50
33.338001 16.226 7.4720001 50
33.484001 16.416 8.1110001 51
33.243999 16.429001 8.6630001 3
36.266998 17.594999 6.1919999 21
34.110001 16.643999 6.4159999 15
32.874001 16.141001 6.763 49
33.669998 16.645 7.5279999 52
33.342999 16.605 8.0609999 49
36.946999 18.544001 9.6140003 41
39.146999 19.290001 6.6539998 25
33.870998 16.785 6.3470001 43
32.791 16.351 6.724 50
33.589001 16.862 7.4889998 52
0 0 0 0
35.389 18.034 9.1879997 43
36.976002 18.496 6.2519999 15
33.929001 17.068001 6.3319998 26
32.720001 16.562 6.6849999 49
34.007 17.327999 7.559 38
34.02 17.461 8.1820002 54
35.499001 18.361 9.1960001 61
34.153 17.34 5.743 1
33.757 17.233999 6.2670002 54
32.662998 16.775999 6.645 40
33.672001 17.41 7.4590001 14
33.639999 17.518 8.066 54
34.883999 18.306 9.0129995 53
34.056999 17.542999 5.6919999 44
33.966 17.591999 6.2729998 58
32.623001 16.997999 6.605 26
33.808998 17.731001 7.4569998 3
35.018002 18.496 8.3649998 57
34.785999 18.517 8.96 45
34.243999 17.889999 5.6849999 35
34.188999 17.958 6.277 56
34.450001 18.202999 6.9400001 55
37.549999 19.971001 8.2449999 43
34.814999 18.648001 8.2840004 58
34.714001 18.735001 8.908 46
34.228001 18.129 5.6389999 13
34.338001 18.284 6.2620001 38
34.374001 18.412001 6.8860002 55
0 0 0 0
35.132 19.073999 8.323 59
34.417999 18.829 8.7980003 31
35.694 19.165001 5.8309999 4
35.198002 18.996 6.3740001 5
34.108002 18.516001 6.7880001 56
34.273998 18.724001 7.4460001 48
35.071999 19.297001 8.2679996 59
37.98 21.052999 9.6669998 41
38.794998 21.105 6.283 3
33.534 18.337999 6.026 36
33.514999 18.434 6.625 37
33.964001 18.799 7.3330002 55
35.071999 19.546 8.2229996 60
38.474998 21.605 9.7469997 35
34.966999 19.268999 5.6090002 2
33.557999 18.586 5.9809999 11
33.271 18.531 6.5310001 52
33.655998 18.863001 7.2220001 44
33.463001 18.885 7.802 3
38.431 21.849001 9.6850004 45
41.067001 22.909 6.5229998 28
34.233002 19.193001 6.0469999 9
33.402 18.834 6.5040002 52
33.741001 19.142 7.1900001 55
33.792 19.302 7.829 45
36.023998 20.73 9.026 20
38.334999 21.648001 6.0219998 1
34.542 19.603001 6.0440001 5
33.351002 19.033001 6.4390001 53
33.766998 19.388 7.1409998 59
33.418999 19.318001 7.691 32
35.837002 20.867001 8.927 40
34.564999 19.749001 5.3660002 2
34.359001 19.726999 5.9499998 38
33.631001 19.416 6.4349999 56
33.452 19.431 7.0170002 55
33.391998 19.527 7.6300001 43
35.650002 21.000999 8.823 50
38.191002 22.073999 5.8559999 14
34.198002 19.861 5.8579998 47
34.313 20.037001 6.5029998 32
33.687 19.788 7.007 56
33.419998 19.761999 7.5770001 37
35.152 20.936001 8.6389999 62
38.207001 22.330999 5.783 12
34.171001 20.068001 5.7870002 42
35.166 20.761999 6.598 11
33.801998 20.075001 6.967 49
34.368 20.546 7.7280002 40
35.012001 21.083 8.54 61
38.306999 22.632999 5.7150002 19
38.705002 22.975 6.4759998 33
34.877998 20.813 6.473 16
34.242001 20.555 6.9889998 58
34.569 20.886999 7.7059999 28
34.527 21.01 8.3570004 46
38.187 22.799 5.6139998 44
36.991001 22.190001 6.1079998 6
34.620998 20.875999 6.3520002 26
34.001999 20.622 6.8699999 57
34.206001 20.879999 7.5549998 13
34.664001 21.309 8.3210001 33
37.971001 22.902 5.4959998 30
38.035999 23.046 6.1939998 32
34.657001 21.108 6.2820001 35
33.958 20.802 6.7870002 44
34.709999 21.396999 7.5939999 4
34.599998 21.48 8.2320004 42
37.097 22.596001 5.2810001 39
36.611 22.398001 5.8769999 12
35.082001 21.572001 6.277 6
33.979 21.014 6.7129998 31
33.926998 21.113001 7.3449998 5
34.175999 21.416 8.0550003 56
38.660999 23.768999 5.408 15
36.584999 22.591999 5.783 1
34.998001 21.719 6.178 27
35.104 21.908001 6.855 9
35.808998 22.488001 7.671 14
33.471001 21.164 7.8140001 57
38.126999 23.655001 5.2379999 24
36.431999 22.701 5.6690001 1
35.396 22.163 6.1620002 13
0 0 0 0
35.037998 22.197001 7.4190001 6
33.411999 21.311001 7.7189999 54
37.158001 23.254999 5.006 11
37.655998 23.665001 5.7610002 32
35.398998 22.355 6.0700002 8
33.348 21.174999 6.3449998 37
0 0 0 0
33.205002 21.356001 7.5900002 43
94.917999 59.903999 12.532 37
36.824001 23.337 5.5349998 40
36.535 23.261999 6.1690001 21
33.347 21.347 6.256 46
40.195999 25.886999 8.3050003 3
33.131001 21.481001 7.487 37
94.419998 60.073002 12.2 13
0 0 0 0
37.009998 23.752001 6.1469998 18
33.268002 21.462999 6.152 40
34.007 22.070999 6.9359999 5
33.293999 21.750999 7.4330001 52
0 0 0 0
0 0 0 0
37.250999 24.084999 6.0819998 5
33.348999 21.674 6.0739999 35
33.944 22.190001 6.829 18
33.401001 21.979 7.3670001 43
0 0 0 0
0 0 0 0
33.612999 21.888 5.3909998 5
33.555 21.962999 6.0139999 58
33.867001 22.296 6.7160001 39
33.648998 22.295 7.3249998 5
0 0 0 0
0 0 0 0
39.577999 25.948 6.2280002 15
33.287998 21.933001 5.8670001 42
33.889 22.457001 6.6199999 3
0 0 0 0
88.292 57.792 10.355 18
0 0 0 0
39.403 25.997999 6.0830002 3
33.394001 22.143 5.7849998 47
35.699001 23.805 6.8660002 14
39.582001 26.559999 8.3789997 39
87.969002 57.939999 10.033 11
0 0 0 0
0 0 0 0
33.388 22.271 5.678 7
35.051998 23.509001 6.632 2
39.187 26.445999 8.1739998 30
39.188999 25.962 4.342 24
0 0 0 0
0 0 0 0
33.487999 22.462 5.5900002 9
38.212002 25.771 7.1069999 10
35.257999 23.923 7.2420001 27
39.021999 25.996 4.1929998 35
0 0 0 0
38.710999 25.979 5.6009998 3
33.567001 22.632999 5.4910002 7
33.509998 22.715 6.1230001 8
34.935001 23.823999 7.0619998 25
38.851002 26.014999 4.0430002 34
0 0 0 0
38.612999 26.042 5.4559999 41
33.478001 22.683001 5.3629999 1
33.436001 22.774 5.9959998 33
34.917 23.923 6.9400001 27
38.706001 26.041 3.892 36
38.629002 26.073 4.6020002 23
38.308998 25.955 5.2820001 3
38.326 26.083 6.0110002 65
33.495998 22.913 5.8940001 37
34.786999 23.934999 6.7969999 36
38.631001 26.105 3.7490001 15
38.561001 26.139 4.4559999 6
38.311001 26.066 5.1440001 69
0 0 0 0
33.554001 23.045 5.783 18
34.678001 23.954 6.6490002 35
38.564999 26.165001 3.6029999 18
38.332001 26.084999 4.2930002 55
38.286999 26.148001 5.007 30
0 0 0 0
41.914001 28.891001 7.0780001 31
34.694 24.048 6.5320001 46
38.359001 26.120001 3.444 53
38.187 26.077999 4.138 41
0 0 0 0
0 0 0 0
41.819 28.919001 6.908 8
34.68 24.114 6.4000001 39
38.216 26.108999 3.289 36
38.07 26.082001 3.9820001 38
0 0 0 0
0 0 0 0
41.605999 28.853001 6.717 5
34.723 24.209999 6.277 12
38.119999 26.118999 3.138 34
37.990002 26.099001 3.832 35
37.862 26.097 4.5289998 5
0 0 0 0
42.183998 29.326 6.652 11
34.769001 24.299 6.1539998 1
38.039001 26.128 2.9849999 32
37.917 26.111 3.6800001 35
37.794998 26.108999 4.3779998 21
0 0 0 0
42.035999 29.284 6.4660001 13
40.901001 28.639999 7.0830002 15
37.993999 26.153 2.836 30
37.872002 26.132999 3.529 36
37.749001 26.129 4.224 35
0 0 0 0
0 0 0 0
41.265999 28.941999 6.9819999 22
37.93 26.155001 2.6819999 23
37.825001 26.143 3.3759999 39
37.689999 26.128 4.0679998 35
0 0 0 0
0 0 0 0
41.691002 29.275 6.8870001 27
37.903999 26.174 2.527 6
37.780998 26.146 3.221 36
37.695 26.160999 3.9189999 28
0 0 0 0
0 0 0 0
41.977001 29.497999 6.7659998 28
91.496002 63.242001 5.7379999 16
37.757999 26.153 3.069 39
37.669998 26.163 3.766 18
0 0 0 0
0 0 0 0
42.108002 29.603001 6.6170001 5
91.290001 63.136002 5.3610001 22
37.758999 26.167 2.9170001 43
37.668999 26.172001 3.615 14
0 0 0 0
0 0 0 0
0 0 0 0
91.287003 63.148998 4.9879999 31
37.771999 26.177999 2.763 32
37.676998 26.177 3.461 19
94.045998 65.549004 10.407 9
0 0 0 0
0 0 0 0
0 0 0 0
37.769001 26.169001 2.609 11
37.689999 26.177 3.3039999 34
94.139 65.580002 10.031 22
0 0 0 0
0 0 0 0
52.717999 36.443001 2.4489999 5
91.559998 63.397999 5.9460001 12
37.699001 26.163 3.152 37
94.322998 65.650002 9.6540003 17
0 0 0 0
0 0 0 0
45.939999 31.729 1.9450001 3
91.417999 63.235001 5.5599999 37
37.734001 26.157 2.9990001 35
37.662998 26.18 3.698 4
0 0 0 0
0 0 0 0
45.948002 31.694 1.7539999 19
91.234001 63.02 5.1719999 26
37.801998 26.164 2.8440001 35
37.681999 26.150999 3.5420001 35
0 0 0 0
0 0 0 0
45.805 31.542999 1.5599999 35
92.105003 63.507999 4.8390002 12
37.875 26.165001 2.6919999 25
37.757 26.15 3.388 31
37.646 26.156 4.0879998 5
0 0 0 0
38.299 26.320999 1.143 19
92.301003 63.506001 4.4549999 12
37.929001 26.143999 2.5350001 4
37.828999 26.138 3.233 33
37.729 26.148001 3.931 34
0 0 0 0
38.310001 26.266001 0.98199999 75
38.312 26.295 1.689 34
91.522003 62.916 5.7329998 23
37.936001 26.139 3.0829999 34
37.806999 26.125999 3.78 33
37.671001 26.125999 4.4780002 8
38.361 26.228001 0.82599998 62
38.320999 26.225 1.531 76
38.300999 26.252001 2.237 54
38.061001 26.143999 2.9319999 39
37.937 26.132 3.6300001 38
37.790001 26.120001 4.3260002 27
38.438999 26.200001 0.66799998 27
38.402 26.195999 1.372 7
38.344002 26.194 2.076 73
38.189999 26.139999 2.777 35
38.054001 26.117001 3.4779999 38
37.901001 26.098 4.1739998 33
38.484001 26.139 0.50999999 3
38.618 26.247 1.216 65
38.548 26.233999 1.925 9
38.354 26.152 2.6240001 48
38.178001 26.098 3.3210001 38
38.047001 26.091999 4.0229998 34
44.368999 30.02 0.39899999 26
44.131001 29.875 1.206 53
38.645 26.191999 1.766 6
38.609001 26.214001 2.4760001 54
38.365002 26.111 3.171 18
38.224998 26.094 3.8740001 35
21.033001 14.17 0.102 1
44.141998 29.752001 1.021 51
47.615002 32.125999 1.973 7
88.744003 59.976002 5.3099999 15
38.618999 26.16 3.026 50
38.402 26.089001 3.7249999 5
21.202999 14.219 0.014 5
44.223 29.667999 0.83600003 58
47.622002 31.976999 1.771 23
88.941002 59.812 4.9460001 11
38.719002 26.094 2.8670001 35
38.609001 26.093 3.576 9
21.17 14.127 -0.071999997 41
21.171 14.13 0.31200001 14
44.526001 29.743999 1.471 2
97.550003 65.257004 5.0079999 18
38.914001 26.084 2.7130001 28
38.784 26.063999 3.4219999 31
20.731001 13.76 -0.15700001 4
21.160999 14.048 0.22400001 21
21.184999 14.073 0.61000001 23
97.679001 64.972 4.5999999 8
39.091999 26.052 2.559 6
38.994999 26.052 3.27 36
21.098 13.925 -0.245 19
21.083 13.915 0.13500001 17
21.132 13.955 0.52200001 2
0 0 0 0
89.351997 59.18 5.467 15
39.201 26.025 3.1170001 31
21.381001 14.028 -0.33700001 24
20.966999 13.755 0.048999999 14
21.063999 13.824 0.43099999 37
21.077 13.848 0.815 1
99.070999 65.195999 5.6399999 32
87.671997 57.820999 6.599 74
20.455999 13.336 -0.403 23
20.938999 13.648 -0.034000002 16
20.989 13.685 0.345 15
54.976002 35.879002 1.901 10
92.507004 60.466 4.8850002 9
87.794998 57.507999 6.2410002 27
19.518 12.641 -0.46200001 31
20.912001 13.539 -0.118 18
20.921 13.548 0.25799999 55
20.966 13.588 0.63800001 32
0 0 0 0
88.264 57.393002 5.8979998 25
18.490999 11.892 -0.51099998 28
20.233 13.006 -0.19499999 1
20.865999 13.414 0.17399999 1
20.924 13.461 0.551 6
53.287998 34.325001 2.3699999 11
88.371002 57.032001 5.5349998 36
17.759001 11.338 -0.56 56
21.139999 13.489 -0.287 2
42.570999 27.165001 0.186 16
53.512001 34.164001 1.1950001 3
53.381001 34.120998 2.1559999 38
88.635002 56.751999 5.1799998 22
16.639999 10.542 -0.58899999 47
20.441999 12.942 -0.35800001 22
20.465 12.955 0.0070000002 1
53.534 33.903 0.98000002 32
53.543999 33.945 1.944 28
88.674004 56.305 4.8140001 20
15.773 9.9139996 -0.62 41
18.209999 11.436 -0.38999999 1
20.533001 12.892 -0.072999999 2
51.07 32.073002 0.73299998 2
53.716 33.764999 1.733 4
78.643997 49.505001 3.9460001 27
14.983 9.3380003 -0.64499998 52
18.525999 11.536 -0.46799999 58
20.516001 12.771 -0.15099999 20
20.537001 12.787 0.214 20
20.524 12.788 0.579 2
53.765999 33.543999 2.4820001 5
14.55 8.9899998 -0.68099999 48
18.263 11.272 -0.52999997 56
20.378 12.572 -0.23 32
20.431 12.605 0.132 22
20.478001 12.643 0.49700001 53
38.069 23.530001 1.604 12
13.809 8.4549999 -0.69700003 42
17.532 10.722 -0.57499999 44
20.332001 12.427 -0.30599999 15
20.315001 12.416 0.052999999 28
38.193001 23.356001 0.77899998 49
38.147999 23.354 1.454 43
13.583 8.2399998 -0.736 43
16.774 10.163 -0.61199999 59
20.134001 12.189 -0.37799999 19
20.212999 12.235 -0.022 28
20.283001 12.283 0.336 46
20.295 12.302 0.69499999 2
13.087 7.8629999 -0.755 37
15.751 9.4499998 -0.63099998 37
20.443001 12.255 -0.45899999 32
19.601999 11.748 -0.094999999 0
50.931 30.531 0.65200001 3
60.112999 36.068001 1.831 25
12.425 7.3909998 -0.76099998 42
15.499 9.2049999 -0.676 43
19.356001 11.486 -0.50300002 49
37.280998 22.115 -0.315 12
41.882 24.85 0.382 24
41.833 24.836 1.113 26
11.855 6.9790001 -0.76800001 44
14.65 8.6110001 -0.69099998 37
18.413 10.812 -0.54400003 40
19.908001 11.684 -0.23999999 18
19.752001 11.593 0.107 2
19.933001 11.707 0.45699999 9
11.631 6.7750001 -0.792 38
14.531 8.4499998 -0.73500001 45
17.485001 10.156 -0.579 63
19.511999 11.326 -0.30399999 5
19.789 11.487 0.035999998 38
19.806999 11.502 0.38100001 29
11.799 6.7979999 -0.84200001 36
13.898 7.993 -0.75 47
17.016001 9.7740002 -0.62099999 51
19.669001 11.29 -0.37599999 11
19.631001 11.267 -0.033 14
19.662001 11.289 0.308 0
7.8790002 4.4889998 -0.58899999 12
14.09 8.0120001 -0.80599999 41
16.683001 9.474 -0.66399997 46
19.191999 10.89 -0.43099999 17
19.514999 11.07 -0.098999999 15
19.561001 11.099 0.23800001 9
12.658 7.1279998 -0.986 33
7.8940001 4.4369998 -0.477 4
15.753 8.842 -0.67900002 55
18.975 10.639 -0.48899999 39
19.257 10.793 -0.163 17
19.392 10.87 0.169 0
12.029 6.6939998 -0.97399998 41
7.882 4.3769999 -0.50099999 0
15.547 8.6210003 -0.72000003 47
18.07 10.009 -0.52499998 26
35.303001 19.547001 -0.417 4
43.924 24.318001 0.237 17
8.507 4.6760001 -0.71499997 6
12.919 7.086 -0.86199999 39
7.901 4.3270001 -0.38999999 10
16.806999 9.1940002 -0.542 32
18.358 10.036 -0.27599999 6
18.969 10.369 0.037999999 5
11.486 6.2350001 -1 37
8.5249996 4.6170001 -0.59399998 0
14.705 7.9510002 -0.77200001 43
7.9169998 4.2750001 -0.28 19
18.971001 10.237 -0.34599999 24
18.976999 10.238 -0.022 33
0 0 0 0
8.5240002 4.5570002 -0.61900002 2
14.329 7.6469998 -0.79500002 45
16.184999 8.6260004 -0.62099999 40
7.921 4.2179999 -0.169 9
18.750999 9.9809999 -0.081 28
7.9299998 4.1939998 -0.736 12
7.8870001 4.1609998 -0.59600002 16
7.9109998 4.1659999 -0.46200001 17
7.9180002 4.164 -0.32800001 17
7.9120002 4.1560001 -0.192 16
7.9039998 4.1500001 -0.057999998 16
10.02 5.2280002 -0.95700002 45
8.1300001 4.2309999 -0.63700002 9
8.1049995 4.21 -0.49599999 18
8.1520004 4.2280002 -0.36000001 14
8.073 4.1820002 -0.22 27
8.059 4.1729999 -0.082999997 36
8.217 4.2290001 -0.80599999 4
8.2379999 4.2280002 -0.66799998 19
8.2629995 4.2319999 -0.52899998 45
8.2530003 4.2199998 -0.38800001 40
8.5150003 4.349 -0.25600001 22
8.2550001 4.2140002 -0.109 8
0 0 0 0
8.3970003 4.25 -0.70200002 14
8.7770004 4.4320002 -0.58499998 22
8.4519997 4.2610002 -0.41999999 15
8.4560003 4.257 -0.278 39
8.4440002 4.2480001 -0.13500001 43
9.5179996 4.7600002 -0.98199999 22
10.885 5.4289999 -0.93800002 36
0 0 0 0
8.6110001 4.277 -0.45100001 21
8.6210003 4.276 -0.30599999 5
8.5690002 4.2470002 -0.16 1
0 0 0 0
11.17 5.4889998 -0.99000001 42
11.284 5.5310001 -0.80900002 18
10.005 4.895 -0.54900002 34
9.4189997 4.6020002 -0.359 2
16.374001 7.9920001 -0.34999999 2
9.9119997 4.8119998 -1.069 42
11.164 5.4039998 -1.016 32
0 0 0 0
13.51 6.5089998 -0.77499998 43
9.7390003 4.6849999 -0.39500001 9
17.121 8.2270002 -0.40900001 17
0 0 0 0
11.112 5.296 -1.036 46
11.705 5.5640001 -0.89399999 44
10.946 5.1919999 -0.653 29
10.037 4.7529998 -0.43099999 1
9.4370003 4.4640002 -0.248 31
8.8170004 4.1500001 -0.99000001 39
9.4569998 4.4369998 -0.90200001 27
9.4510002 4.4219999 -0.74299997 29
9.4209995 4.3990002 -0.583 57
9.4119997 4.3860002 -0.426 49
9.3599997 4.3569999 -0.26800001 40
8.7270002 4.0419998 -0.99800003 42
9.9169998 4.579 -0.96700001 39
11.174 5.1459999 -0.90200001 47
9.9060001 4.5510001 -0.634 8
9.7939997 4.4910002 -0.465 3
9.8129997 4.494 -0.303 2
8.573 3.9059999 -0.99599999 35
9.7749996 4.4400001 -0.972 44
0 0 0 0
13.044 5.8940001 -0.86199999 42
12.112 5.4629998 -0.60000002 49
11.183 5.0359998 -0.37 59
8.4160004 3.7720001 -0.99400002 44
9.5039997 4.2449999 -0.963 44
0 0 0 0
12.3 5.4640002 -0.838 44
14.353 6.3629999 -0.74000001 51
12.222 5.4089999 -0.43000001 99
8.4610004 3.7279999 -1.0140001 39
9.7919998 4.2989998 -1.01 34
10.707 4.6859999 -0.92699999 52
12.17 5.3130002 -0.852 51
11.146 4.855 -0.597 20
11.123 4.836 -0.41299999 12
8.3549995 3.6170001 -1.016 36
9.448 4.0749998 -0.991 34
10.743 4.6199999 -0.949 39
11.78 5.052 -0.84600002 46
13.764 5.8889999 -0.76200002 31
13.624 5.8189998 -0.53200001 41
8.3780003 3.562 -1.0319999 32
9.3430004 3.9579999 -0.99599999 37
10.47 4.4219999 -0.94199997 53
11.581 4.8769999 -0.85100001 48
13.347 5.6079998 -0.76200002 46
12.693 5.323 -0.51800001 2
8.4639997 3.5339999 -1.0549999 32
9.309 3.8729999 -1.006 43
10.257 4.2529998 -0.93900001 44
11.604 4.7969999 -0.87199998 45
13.672 5.638 -0.80400002 47
15.79 6.4990001 -0.67199999 10
8.875 3.6370001 -1.119 28
9.1199999 3.723 -0.99900001 47
10.213 4.1550002 -0.94999999 51
11.56 4.6900001 -0.88599998 51
13.709 5.5469999 -0.82800001 47
15.576 6.289 -0.68800002 10
9.3520002 3.7609999 -1.192 33
9.2229996 3.6949999 -1.023 40
10.147 4.0500002 -0.95899999 48
11.444 4.5539999 -0.89399999 45
13.241 5.2550001 -0.81900001 42
15.384 6.092 -0.70300001 6
9.5059996 3.7490001 -1.223 33
9.4169998 3.6989999 -1.056 50
10.141 3.9690001 -0.97100002 48
11.449 4.4679999 -0.90899998 39
13.118 5.1040001 -0.829 41
14.958 5.8070002 -0.704 5
9.8210001 3.7980001 -1.275 35
9.8769999 3.803 -1.119 41
10.169 3.901 -0.986 54
11.373 4.348 -0.917 40
13.057 4.9780002 -0.84200001 39
24.316999 9.2489996 -1.177 8
10.881 4.1230001 -1.424 19
10.191 3.845 -1.166 38
10.278 3.8629999 -1.008 45
11.31 4.237 -0.92500001 45
13.038 4.8709998 -0.85600001 47
23.849001 8.8859997 -1.182 7
11.654 4.3249998 -1.536 5
11.756 4.3439999 -1.3559999 28
11.449 4.2150002 -1.1339999 40
11.392 4.1789999 -0.94400001 39
12.779 4.6739998 -0.852 33
23.591999 8.6070004 -1.1950001 7
12.237 4.448 -1.623 10
13.609 4.9250002 -1.582 11
15.32 5.5209999 -1.531 9
17.402 6.2490001 -1.4579999 12
20.025 7.1700001 -1.355 13
23.4 8.3529997 -1.209 9
12.178 4.3319998 -1.624 11
13.561 4.802 -1.587 12
15.247 5.3769999 -1.5369999 9
17.299999 6.079 -1.464 12
19.903 6.9710002 -1.364 14
23.285 8.1309996 -1.223 10
12.127 4.2199998 -1.625 12
13.464 4.6630001 -1.585 10
15.165 5.2309999 -1.539 9
17.238001 5.9229999 -1.471 11
19.783001 6.776 -1.3710001 14
23.125 7.8979998 -1.233 9
12.05 4.0999999 -1.622 12
13.404 4.54 -1.586 10
15.097 5.092 -1.541 9
17.167999 5.7670002 -1.475 11
19.665001 6.5830002 -1.375 12
23.014 7.6799998 -1.243 10
11.99 3.987 -1.619 11
13.363 4.4229999 -1.587 10
15.034 4.954 -1.5420001 9
17.117001 5.6170001 -1.4809999 12
19.547001 6.3930001 -1.378 13
22.875999 7.4569998 -1.249 10
11.965 3.8870001 -1.62 11
13.343 4.3119998 -1.589 11
15.011 4.8299999 -1.546 9
17.058001 5.467 -1.482 11
19.496 6.2249999 -1.383 12
22.76 7.2449999 -1.253 10
11.957 3.793 -1.622 11
13.328 4.2069998 -1.591 10
14.973 4.704 -1.546 9
17.018 5.3249998 -1.484 11
19.546 6.092 -1.393 15
22.733999 7.0619998 -1.261 12
11.947 3.698 -1.623 11
13.331 4.105 -1.594 10
14.953 4.5840001 -1.548 9
17 5.1880002 -1.487 11
19.528 5.9369998 -1.397 14
22.757999 6.8940001 -1.268 10
11.964 3.6110001 -1.625 11
13.327 4.0019999 -1.595 10
14.946 4.467 -1.548 8
16.99 5.0549998 -1.488 11
19.537001 5.79 -1.401 14
22.735001 6.7119999 -1.27 12
11.966 3.52 -1.625 11
13.329 3.901 -1.595 11
14.941 4.3520002 -1.5470001 8
17.021 4.9349999 -1.4910001 11
19.497999 5.6290002 -1.398 14
22.799 6.5570002 -1.275 13
