# .PCD v0.7 - Point Cloud Data file format
VERSION 0.7
FIELDS x y z intensity
SIZE 4 4 4 4
TYPE F F F F
COUNT 1 1 1 1
WIDTH 1781
HEIGHT 1
VIEWPOINT 0 0 0 1 0 0 0
POINTS 1781
DATA ascii
60.818001 2.8310001 4.0430002 3
110.394 5.0640001 8.9949999 16
110.59 5 10.68 21
0 0 0 0
0 0 0 0
0 0 0 0
60.734001 2.7049999 3.6270001 45
109.951 4.823 8.2119999 26
110.516 4.776 9.9219999 9
0 0 0 0
0 0 0 0
0 0 0 0
60.681999 2.5769999 3.221 34
60.952999 2.5469999 4.1459999 8
110.681 4.553 9.1940002 26
0 0 0 0
0 0 0 0
0 0 0 0
36.966 1.487 1.715 14
36.868999 1.459 2.2620001 11
36.856998 1.434 2.813 12
36.905998 1.4119999 3.3710001 11
0 0 0 0
0 0 0 0
37.32 1.415 1.4859999 1
37.273998 1.3890001 2.04 22
37.292 1.365 2.598 24
37.296001 1.342 3.1589999 34
0 0 0 0
0 0 0 0
37.259998 1.322 1.24 121
37.269001 1.298 1.795 119
37.271 1.274 2.3499999 127
37.271999 1.251 2.9070001 121
37.277 1.228 3.4679999 105
37.278 1.205 4.0289998 110
37.519001 1.238 1.007 5
37.661999 1.2180001 1.569 7
37.792 1.198 2.1359999 18
37.719002 1.1720001 2.6960001 33
37.629002 1.145 3.2509999 39
37.563999 1.12 3.809 36
56.691002 1.722 1.156 2
60.116001 1.7869999 2.115 52
60.762001 1.768 3.0420001 51
88.630997 2.523 5.7550001 32
88.105003 2.4549999 7.039 43
88.217003 2.404 8.3669996 29
41.438 1.147 0.57999998 7
60.153 1.624 1.729 55
60.217999 1.587 2.622 54
61.298 1.5779999 3.582 3
87.851997 2.2090001 6.4450002 36
87.228996 2.141 7.6989999 39
41.132999 1.022 0.31400001 54
60.403 1.462 1.352 10
60.046001 1.416 2.2349999 52
60.761002 1.395 3.161 53
87.984001 1.965 5.8839998 26
87.165001 1.896 7.1279998 39
40.958 0.898 0.055 55
44.078999 0.93900001 0.71100003 14
60.348999 1.2460001 1.862 44
60.556999 1.2130001 2.7639999 51
61.588001 1.196 3.723 3
87.696999 1.65 6.6009998 36
40.966999 0.77399999 -0.20100001 56
41.271 0.75300002 0.40400001 59
60.706001 1.071 1.492 21
60.330002 1.027 2.3729999 50
61.34 1.008 3.322 34
87.103996 1.38 6.006 29
39.841999 0.62800002 -0.44299999 50
40.799999 0.61699998 0.145 61
92.199997 1.337 1.686 23
60.676998 0.84399998 2.006 26
60.955002 0.81099999 2.914 27
87.545998 1.112 5.4770002 18
39.82 0.49900001 -0.68699998 55
40.625999 0.484 -0.104 67
41.691002 0.472 0.50700003 1
60.756001 0.64999998 1.632 8
62.075001 0.62599999 2.579 2
87.334 0.82999998 4.9190001 38
37.081001 0.34099999 -0.86699998 0
39.821999 0.34200001 -0.347 150
41.501999 0.331 0.24699999 23
92.350998 0.68000001 1.908 6
93.637001 0.63099998 3.3069999 6
87.242996 0.53600001 4.3639998 22
36.632999 0.20999999 -1.08 17
39.800999 0.204 -0.58999997 108
39.804001 0.18099999 -0.0040000002 150
0 0 0 0
93.758003 0.31299999 2.74 16
109.144 0.30000001 4.7909999 12
32.719002 0.072999999 -1.161 2
39.803001 0.063000001 -0.82999998 150
39.811001 0.039000001 -0.24600001 74
81.306 0.032000002 0.68800002 36
0 0 0 0
108.797 -0.082999997 4.1129999 53
30.385 -0.043000001 -1.26 5
36.733002 -0.074000001 -0.98500001 9
39.801998 -0.103 -0.48199999 150
39.796001 -0.12800001 0.097999997 18
88.684998 -0.338 1.517 97
88.721001 -0.38800001 2.819 50
27.764999 -0.14300001 -1.316 6
34.841 -0.2 -1.14 1
42.276001 -0.26699999 -0.76300001 38
53.141998 -0.36700001 -0.18099999 8
0 0 0 0
0 0 0 0
25.889999 -0.233 -1.3789999 10
31.27 -0.29899999 -1.206 5
40.648998 -0.41299999 -0.97299999 59
0 0 0 0
79.042999 -0.89499998 0.421 6
0 0 0 0
24.24 -0.31299999 -1.4299999 20
28.827 -0.38800001 -1.277 7
36.636002 -0.514 -1.086 19
44.044998 -0.64300001 -0.66100001 15
0 0 0 0
0 0 0 0
22.740999 -0.38499999 -1.472 18
26.664 -0.46700001 -1.335 8
33.058998 -0.597 -1.17 3
41.599998 -0.77499998 -0.86400002 62
49.015999 -0.94 -0.30199999 9
0 0 0 0
21.318001 -0.449 -1.501 16
25.098 -0.54100001 -1.397 17
30.657 -0.67900002 -1.2589999 5
37.084999 -0.84100002 -0.97799999 15
0 0 0 0
0 0 0 0
20.122999 -0.50700003 -1.528 14
23.618999 -0.60799998 -1.447 19
28.257 -0.74400002 -1.317 6
36.640999 -0.98400003 -1.171 17
42.735001 -1.1720001 -0.74299997 23
49.355999 -1.382 -0.141 79
19.044001 -0.56199998 -1.551 13
22.132 -0.66500002 -1.478 17
26.163 -0.80000001 -1.363 10
31.938 -0.99400002 -1.197 2
37.32 -1.184 -0.85600001 49
0 0 0 0
18.118999 -0.61400002 -1.575 12
20.903 -0.71899998 -1.51 15
24.763 -0.866 -1.425 21
29.989 -1.064 -1.2869999 5
36.965 -1.332 -1.048 42
37.507 -1.372 -0.51800001 104
17.26 -0.662 -1.5930001 11
19.768999 -0.76899999 -1.534 14
23.304001 -0.91900003 -1.467 19
27.737 -1.109 -1.342 7
34.700001 -1.4069999 -1.173 5
37.521 -1.541 -0.722 82
16.513 -0.70999998 -1.614 10
18.771999 -0.81599998 -1.557 13
21.938 -0.96499997 -1.498 17
25.774 -1.148 -1.383 12
31.643999 -1.427 -1.237 3
37.588001 -1.717 -0.926 28
15.843 -0.755 -1.632 9
17.886 -0.861 -1.579 11
20.708 -1.0089999 -1.524 15
24.518 -1.206 -1.4450001 21
29.334999 -1.459 -1.302 5
36.917999 -1.8559999 -1.102 24
15.238 -0.79799998 -1.649 9
17.09 -0.90399998 -1.597 10
19.694 -1.052 -1.551 14
23.018 -1.2410001 -1.475 18
27.438999 -1.493 -1.358 7
34.435001 -1.893 -1.204 20
14.677 -0.83999997 -1.663 10
16.4 -0.94599998 -1.6160001 9
18.761999 -1.091 -1.572 13
21.808001 -1.279 -1.508 17
25.754999 -1.524 -1.405 11
31.42 -1.877 -1.258 4
14.143 -0.87900001 -1.675 10
15.758 -0.98699999 -1.633 9
17.870001 -1.128 -1.5880001 11
20.646999 -1.313 -1.5319999 15
24.452999 -1.568 -1.457 19
29.224001 -1.89 -1.317 6
13.662 -0.91799998 -1.686 10
15.202 -1.028 -1.651 8
17.113001 -1.166 -1.6059999 10
19.716 -1.353 -1.561 14
22.912001 -1.584 -1.48 18
27.318001 -1.903 -1.368 8
13.217 -0.95599997 -1.698 10
14.626 -1.064 -1.661 9
16.441 -1.204 -1.624 10
18.74 -1.382 -1.576 13
21.832001 -1.6210001 -1.517 17
25.749001 -1.925 -1.414 15
12.802 -0.99299997 -1.707 11
14.133 -1.103 -1.675 11
15.817 -1.2410001 -1.64 9
17.903999 -1.413 -1.5930001 12
20.759001 -1.649 -1.543 15
24.426001 -1.9529999 -1.46 16
12.416 -1.03 -1.716 11
13.692 -1.141 -1.688 10
15.265 -1.279 -1.656 10
17.188999 -1.448 -1.612 11
19.761 -1.674 -1.563 14
23.018 -1.962 -1.485 15
12.068 -1.066 -1.726 11
13.25 -1.175 -1.696 10
14.749 -1.3150001 -1.67 10
16.530001 -1.48 -1.627 10
18.862 -1.699 -1.58 13
21.893 -1.983 -1.5140001 17
11.753 -1.102 -1.735 10
12.843 -1.21 -1.705 11
14.276 -1.351 -1.682 11
15.935 -1.515 -1.642 11
18.094999 -1.728 -1.599 12
20.907 -2.007 -1.5420001 16
11.451 -1.138 -1.744 11
12.493 -1.2460001 -1.715 11
13.815 -1.3839999 -1.691 10
15.393 -1.548 -1.6569999 10
17.363001 -1.755 -1.613 11
19.98 -2.029 -1.564 14
11.159 -1.173 -1.751 10
12.154 -1.281 -1.724 12
13.405 -1.419 -1.702 11
14.893 -1.582 -1.669 10
16.721001 -1.784 -1.628 11
19.145 -2.052 -1.584 13
10.888 -1.207 -1.757 12
11.853 -1.318 -1.734 12
13.015 -1.452 -1.71 12
14.424 -1.615 -1.6799999 10
16.166 -1.817 -1.6440001 11
18.371 -2.0739999 -1.6 12
10.628 -1.24 -1.763 10
11.553 -1.352 -1.7410001 11
12.659 -1.4859999 -1.7180001 12
13.985 -1.646 -1.689 10
15.616 -1.845 -1.656 11
17.620001 -2.0910001 -1.609 11
10.38 -1.272 -1.766 11
11.275 -1.386 -1.748 11
12.353 -1.522 -1.729 11
13.616 -1.683 -1.7029999 11
15.155 -1.88 -1.671 12
16.971001 -2.1129999 -1.6210001 10
10.154 -1.306 -1.771 11
11.009 -1.419 -1.753 11
12.032 -1.554 -1.735 12
13.238 -1.715 -1.71 11
14.719 -1.913 -1.684 12
16.465 -2.148 -1.641 10
9.9250002 -1.337 -1.773 11
10.767 -1.4529999 -1.7589999 11
11.742 -1.5880001 -1.7410001 12
12.894 -1.749 -1.719 12
14.299 -1.944 -1.693 12
15.945 -2.1760001 -1.653 10
9.7410002 -1.3710001 -1.78 10
10.53 -1.485 -1.763 12
11.492 -1.624 -1.75 12
12.58 -1.781 -1.726 11
13.922 -1.977 -1.7029999 11
15.487 -2.2060001 -1.666 11
9.5450001 -1.403 -1.783 11
10.315 -1.518 -1.768 11
11.239 -1.658 -1.756 13
12.282 -1.816 -1.734 11
13.53 -2.0050001 -1.7079999 12
15.074 -2.2390001 -1.679 12
9.3710003 -1.436 -1.7869999 11
10.108 -1.551 -1.772 11
11.014 -1.693 -1.763 12
12.005 -1.85 -1.7410001 11
13.19 -2.0369999 -1.715 12
14.656 -2.27 -1.688 11
9.1990004 -1.469 -1.79 11
9.9119997 -1.585 -1.776 11
10.768 -1.724 -1.765 12
11.767 -1.888 -1.751 11
12.897 -2.0739999 -1.725 11
14.258 -2.2980001 -1.6950001 12
9.0500002 -1.5039999 -1.796 11
9.7340002 -1.619 -1.781 11
10.564 -1.7589999 -1.771 12
11.495 -1.916 -1.752 11
12.614 -2.1070001 -1.732 11
13.928 -2.3329999 -1.705 11
8.9099998 -1.538 -1.801 12
9.5539999 -1.65 -1.783 10
10.363 -1.7920001 -1.774 12
11.27 -1.952 -1.758 13
12.349 -2.1429999 -1.74 11
13.588 -2.3640001 -1.711 12
8.7530003 -1.569 -1.801 11
9.4040003 -1.687 -1.789 11
10.183 -1.8279999 -1.78 12
11.071 -1.9910001 -1.766 12
12.095 -2.1789999 -1.747 12
13.296 -2.4000001 -1.72 12
8.6339998 -1.6059999 -1.808 11
9.2480001 -1.721 -1.7920001 11
9.9969997 -1.862 -1.7819999 12
10.857 -2.0239999 -1.7690001 12
11.865 -2.2149999 -1.753 11
13.005 -2.4319999 -1.725 12
8.5139999 -1.64 -1.812 11
9.1099997 -1.755 -1.796 10
9.8380003 -1.897 -1.7869999 11
10.661 -2.0580001 -1.773 12
11.653 -2.253 -1.76 11
12.766 -2.4719999 -1.735 11
8.3800001 -1.671 -1.812 11
8.9779997 -1.791 -1.8 12
9.6920004 -1.934 -1.7920001 12
10.488 -2.095 -1.778 12
11.441 -2.2880001 -1.7640001 12
12.518 -2.507 -1.74 12
8.2709999 -1.706 -1.816 11
8.8570004 -1.826 -1.8049999 11
9.5430002 -1.9680001 -1.795 12
10.323 -2.131 -1.7819999 12
11.23 -2.3210001 -1.766 13
12.291 -2.5450001 -1.747 10
8.1820002 -1.744 -1.823 12
8.7410002 -1.863 -1.809 11
9.4060001 -2.0050001 -1.799 11
10.163 -2.168 -1.786 11
11.051 -2.3599999 -1.772 11
12.087 -2.585 -1.7539999 12
8.0819998 -1.779 -1.826 11
8.6330004 -1.9 -1.814 11
9.2860003 -2.0439999 -1.8049999 11
10.018 -2.207 -1.79 11
10.88 -2.398 -1.776 11
11.885 -2.6229999 -1.7589999 11
7.9650002 -1.8099999 -1.824 10
8.5229998 -1.936 -1.816 11
9.1549997 -2.079 -1.806 12
9.8830004 -2.2460001 -1.795 11
10.718 -2.438 -1.781 12
11.687 -2.661 -1.762 11
7.888 -1.848 -1.831 11
8.4139996 -1.971 -1.818 11
9.0439997 -2.118 -1.8099999 11
9.7460003 -2.283 -1.798 11
10.569 -2.477 -1.785 12
11.515 -2.7030001 -1.767 11
7.789 -1.881 -1.83 7
8.3179998 -2.0079999 -1.8200001 10
8.9399996 -2.158 -1.8150001 11
9.618 -2.3210001 -1.8 11
10.416 -2.516 -1.7869999 12
11.344 -2.743 -1.771 12
7.7259998 -1.9220001 -1.837 10
8.2259998 -2.0450001 -1.823 8
8.8389997 -2.197 -1.818 11
9.5159998 -2.365 -1.806 11
10.29 -2.559 -1.7920001 11
11.166 -2.779 -1.772 12
7.6399999 -1.956 -1.837 10
8.1450005 -2.0840001 -1.827 9
8.7370005 -2.234 -1.819 9
9.4099998 -2.4059999 -1.8099999 10
10.143 -2.595 -1.7920001 12
11.04 -2.8269999 -1.778 12
7.572 -1.995 -1.842 10
8.0699997 -2.1229999 -1.831 11
8.6470003 -2.2739999 -1.822 10
9.2939997 -2.4449999 -1.811 8
10.049 -2.6440001 -1.799 9
10.904 -2.8710001 -1.7819999 12
7.4990001 -2.0309999 -1.8430001 10
7.9920001 -2.1619999 -1.8329999 10
8.5670004 -2.316 -1.827 11
9.198 -2.4860001 -1.814 10
9.9230003 -2.6830001 -1.799 11
10.803 -2.9230001 -1.79 10
7.4419999 -2.0699999 -1.847 10
7.9190001 -2.201 -1.836 10
8.4870005 -2.3570001 -1.83 11
9.1199999 -2.5320001 -1.819 11
9.8290005 -2.7290001 -1.804 12
10.655 -2.961 -1.788 11
7.3800001 -2.108 -1.85 11
7.848 -2.2390001 -1.8380001 10
8.4130001 -2.3989999 -1.832 11
9.0349998 -2.576 -1.822 11
9.7340002 -2.7750001 -1.807 11
10.546 -3.0079999 -1.7920001 11
7.3179998 -2.1459999 -1.851 10
7.7810001 -2.279 -1.84 10
8.3450003 -2.4419999 -1.836 11
8.9510002 -2.618 -1.824 11
9.6379995 -2.819 -1.809 11
10.445 -3.056 -1.795 11
7.2579999 -2.184 -1.853 10
7.7259998 -2.322 -1.8430001 10
8.2690001 -2.483 -1.837 11
8.875 -2.6630001 -1.827 11
9.5559998 -2.8670001 -1.813 11
10.333 -3.102 -1.796 11
7.2049999 -2.224 -1.854 10
7.658 -2.3599999 -1.8430001 10
8.2060003 -2.527 -1.839 10
8.8210001 -2.714 -1.8329999 12
9.4759998 -2.915 -1.8150001 10
10.256 -3.1559999 -1.801 11
7.1589999 -2.2650001 -1.858 10
7.6090002 -2.4030001 -1.846 9
8.1470003 -2.5710001 -1.841 10
8.7449999 -2.757 -1.8329999 11
9.3979998 -2.9630001 -1.817 11
10.175 -3.2079999 -1.804 10
7.1129999 -2.3050001 -1.86 10
7.5599999 -2.4460001 -1.849 10
8.0909996 -2.6140001 -1.844 10
8.6829996 -2.8039999 -1.835 11
9.342 -3.016 -1.822 10
10.096 -3.2590001 -1.806 12
7.0700002 -2.346 -1.862 10
7.5079999 -2.487 -1.849 10
8.0469999 -2.6619999 -1.847 11
8.6289997 -2.852 -1.8380001 11
9.2779999 -3.066 -1.824 10
10.022 -3.3110001 -1.808 11
7.02 -2.3840001 -1.8609999 9
7.4650002 -2.5309999 -1.852 10
7.9959998 -2.707 -1.849 11
8.5690002 -2.898 -1.8380001 11
9.2159996 -3.1159999 -1.825 10
9.9530001 -3.365 -1.8099999 10
6.993 -2.4300001 -1.8660001 10
7.4310002 -2.5769999 -1.855 10
7.9559999 -2.7550001 -1.852 11
8.526 -2.95 -1.842 11
9.1750002 -3.1719999 -1.83 11
9.901 -3.4230001 -1.813 11
6.9429998 -2.467 -1.863 9
7.3909998 -2.6210001 -1.8559999 10
7.9109998 -2.8010001 -1.853 10
8.4919996 -3.003 -1.846 11
9.132 -3.227 -1.8329999 11
9.8470001 -3.48 -1.8150001 11
6.9109998 -2.51 -1.865 9
7.3540001 -2.665 -1.857 10
7.875 -2.849 -1.854 10
8.4510002 -3.0539999 -1.847 11
9.0860004 -3.2809999 -1.835 10
9.7969999 -3.5369999 -1.817 11
6.895 -2.5580001 -1.87 10
7.3179998 -2.7090001 -1.858 9
7.8429999 -2.898 -1.857 10
8.4099998 -3.1040001 -1.848 10
9.0270004 -3.329 -1.8329999 10
9.7589998 -3.598 -1.8200001 11
6.8540001 -2.5969999 -1.869 9
7.2940001 -2.757 -1.8609999 9
7.8099999 -2.947 -1.858 11
8.3830004 -3.1589999 -1.851 10
8.9989996 -3.388 -1.836 10
9.7159996 -3.6570001 -1.821 11
6.8249998 -2.641 -1.869 9
7.2690001 -2.8050001 -1.863 10
7.776 -2.9949999 -1.858 10
8.3509998 -3.2130001 -1.852 10
8.9799995 -3.451 -1.84 11
9.6940002 -3.724 -1.824 11
6.8060002 -2.687 -1.872 9
7.244 -2.8529999 -1.864 9
7.7470002 -3.0450001 -1.859 11
8.3290005 -3.2690001 -1.855 11
8.9449997 -3.507 -1.84 10
9.6630001 -3.7869999 -1.826 11
6.7859998 -2.733 -1.873 9
7.2280002 -2.904 -1.867 10
7.7329998 -3.0999999 -1.862 10
8.3050003 -3.325 -1.8559999 9
8.9219999 -3.5669999 -1.842 10
9.6450005 -3.855 -1.8279999 10
6.763 -2.777 -1.873 9
7.204 -2.95 -1.867 9
7.724 -3.1570001 -1.8660001 10
8.2770004 -3.378 -1.8559999 10
8.9029999 -3.6289999 -1.8430001 10
9.6149998 -3.9170001 -1.8279999 10
6.7509999 -2.826 -1.876 9
7.1900001 -3.0020001 -1.869 9
7.7069998 -3.211 -1.867 10
8.2690001 -3.4389999 -1.859 10
8.8839998 -3.691 -1.844 10
9.6059999 -3.9879999 -1.83 11
6.7340002 -2.8729999 -1.876 9
7.1690001 -3.05 -1.868 10
7.6859999 -3.2620001 -1.8660001 10
8.2639999 -3.5020001 -1.862 11
8.8809996 -3.7590001 -1.847 10
9.6000004 -4.0599999 -1.8329999 11
6.7280002 -2.9230001 -1.8789999 9
7.1680002 -3.1059999 -1.872 10
7.677 -3.319 -1.868 10
8.2510004 -3.5610001 -1.862 10
8.8760004 -3.825 -1.849 11
9.6040001 -4.1360002 -1.835 10
6.724 -2.9749999 -1.881 9
7.1560001 -3.1570001 -1.872 9
7.678 -3.3789999 -1.8710001 10
8.243 -3.6210001 -1.863 9
8.8760004 -3.8940001 -1.851 10
9.5950003 -4.2059999 -1.835 10
6.7189999 -3.026 -1.883 9
7.151 -3.211 -1.873 10
7.6750002 -3.437 -1.872 10
8.2379999 -3.6830001 -1.863 10
8.8739996 -3.9619999 -1.852 10
9.6020002 -4.283 -1.837 10
6.7150002 -3.0769999 -1.885 10
7.152 -3.267 -1.876 10
7.6659999 -3.494 -1.872 10
8.2399998 -3.747 -1.865 10
8.8760004 -4.0300002 -1.852 10
9.6120005 -4.3600001 -1.8380001 10
6.711 -3.128 -1.885 9
7.152 -3.323 -1.877 9
7.6729999 -3.556 -1.874 9
8.2460003 -3.8139999 -1.8660001 10
8.8789997 -4.0999999 -1.852 10
9.6219997 -4.4390001 -1.839 11
6.7090001 -3.1800001 -1.886 9
7.1440001 -3.375 -1.875 9
7.6750002 -3.6159999 -1.875 10
8.2530003 -3.881 -1.867 11
8.8920002 -4.1739998 -1.853 10
9.6350002 -4.5180001 -1.839 10
6.7090001 -3.233 -1.886 9
7.1539998 -3.4349999 -1.878 9
7.6830001 -3.6800001 -1.876 10
8.2690001 -3.951 -1.869 10
8.9119997 -4.2519999 -1.855 10
9.6549997 -4.6009998 -1.839 10
6.7160001 -3.2880001 -1.888 9
7.1659999 -3.4960001 -1.88 9
7.6950002 -3.744 -1.877 10
8.2749996 -4.0170002 -1.868 9
8.9320002 -4.3280001 -1.8559999 10
9.6759996 -4.6830001 -1.839 9
6.7160001 -3.339 -1.887 9
7.1719999 -3.5539999 -1.881 9
7.717 -3.813 -1.88 10
8.3009996 -4.092 -1.8710001 10
8.948 -4.4029999 -1.855 9
9.7259998 -4.7800002 -1.8430001 9
6.7290001 -3.3970001 -1.8890001 9
7.1929998 -3.619 -1.883 10
7.7329998 -3.8789999 -1.881 10
8.3170004 -4.1620002 -1.87 10
8.9799995 -4.4860001 -1.8559999 10
9.7609997 -4.869 -1.8430001 8
6.7340002 -3.451 -1.888 9
7.2059999 -3.6800001 -1.8839999 10
7.7529998 -3.948 -1.882 10
8.3439999 -4.2379999 -1.8710001 10
9.0179996 -4.572 -1.858 10
9.8050003 -4.9640002 -1.844 9
6.75 -3.5109999 -1.89 9
7.223 -3.744 -1.885 9
7.7729998 -4.0159998 -1.882 10
8.3669996 -4.3119998 -1.87 10
9.0539999 -4.6560001 -1.858 9
9.8369999 -5.052 -1.841 9
6.763 -3.5680001 -1.89 9
7.2470002 -3.8099999 -1.886 9
7.8010001 -4.0879998 -1.883 9
8.408 -4.3940001 -1.873 10
9.0959997 -4.7449999 -1.859 9
9.901 -5.1570001 -1.844 9
6.7810001 -3.628 -1.89 9
7.27 -3.875 -1.887 9
7.8260002 -4.158 -1.883 9
8.4329996 -4.4689999 -1.8710001 10
9.1440001 -4.836 -1.86 8
9.9619999 -5.2600002 -1.845 9
6.8060002 -3.691 -1.893 9
7.2950001 -3.9419999 -1.888 9
7.862 -4.2340002 -1.8839999 10
8.4790001 -4.5539999 -1.873 10
9.1870003 -4.9239998 -1.859 8
10.03 -5.368 -1.845 8
6.8270001 -3.753 -1.893 9
7.3210001 -4.0079999 -1.888 9
7.8940001 -4.3080001 -1.8839999 9
8.5290003 -4.6420002 -1.874 9
9.2460003 -5.0209999 -1.86 8
10.112 -5.4829998 -1.848 8
6.8579998 -3.819 -1.8940001 9
7.355 -4.0799999 -1.888 10
7.9320002 -4.3850002 -1.8839999 9
8.5620003 -4.7199998 -1.872 9
9.309 -5.1209998 -1.86 8
10.188 -5.5949998 -1.848 8
6.8930001 -3.888 -1.897 9
7.3870001 -4.1500001 -1.888 10
7.9759998 -4.4650002 -1.885 9
8.6169996 -4.8099999 -1.872 8
9.3579998 -5.2119999 -1.857 8
10.298 -5.7270002 -1.853 7
6.9299998 -3.9579999 -1.899 9
7.4299998 -4.2259998 -1.89 10
8.0209999 -4.546 -1.885 9
8.6619997 -4.895 -1.87 8
9.4289999 -5.316 -1.857 8
10.404 -5.8559999 -1.855 8
6.954 -4.02 -1.897 10
7.4689999 -4.2989998 -1.8890001 9
8.0710001 -4.6290002 -1.885 9
8.7159996 -4.9840002 -1.868 8
9.5080004 -5.4239998 -1.858 7
10.524 -5.993 -1.86 8
6.994 -4.0900002 -1.898 9
7.5170002 -4.3769999 -1.891 9
8.1280003 -4.7150002 -1.886 9
8.7969999 -5.0879998 -1.8710001 8
9.6090002 -5.5440001 -1.8609999 8
10.647 -6.132 -1.863 8
7.0339999 -4.1599998 -1.899 9
7.566 -4.4549999 -1.892 9
8.177 -4.7969999 -1.8839999 9
8.8610001 -5.1820002 -1.87 9
9.6999998 -5.6589999 -1.862 8
10.778 -6.276 -1.8660001 7
7.0760002 -4.2309999 -1.898 9
7.6139998 -4.5320001 -1.891 8
8.243 -4.8889999 -1.885 8
8.9399996 -5.2849998 -1.8710001 8
9.79 -5.7729998 -1.8609999 7
10.917 -6.4250002 -1.869 8
7.125 -4.3049998 -1.9 9
7.677 -4.618 -1.893 9
8.2959995 -4.9720001 -1.881 8
9.0200005 -5.3889999 -1.87 8
9.9139996 -5.908 -1.865 7
11.057 -6.5760002 -1.87 7
7.1729999 -4.3800001 -1.899 9
7.7350001 -4.7010002 -1.892 9
8.3710003 -5.0679998 -1.882 8
9.0970001 -5.4899998 -1.867 7
10.041 -6.0440001 -1.868 7
11.222 -6.7410002 -1.874 8
7.2220001 -4.4530001 -1.899 9
7.79 -4.7820001 -1.891 9
8.4390001 -5.1589999 -1.88 8
9.1899996 -5.5999999 -1.867 7
10.169 -6.1799998 -1.869 7
11.389 -6.9070001 -1.876 6
7.283 -4.533 -1.9 8
7.8499999 -4.8639998 -1.8890001 9
8.5209999 -5.2589998 -1.88 8
9.3000002 -5.7199998 -1.869 7
10.321 -6.3309999 -1.874 8
11.576 -7.086 -1.88 6
7.3449998 -4.6139998 -1.901 9
7.928 -4.9569998 -1.891 9
8.6029997 -5.3569999 -1.8789999 8
9.4399996 -5.8590002 -1.875 6
10.458 -6.473 -1.874 8
11.767 -7.2680001 -1.882 6
7.4109998 -4.697 -1.902 9
8.0019999 -5.0479999 -1.89 9
8.7030001 -5.467 -1.881 8
9.5629997 -5.987 -1.877 7
10.632 -6.6370001 -1.8789999 7
11.996 -7.473 -1.888 7
7.4819999 -4.7820001 -1.903 8
8.0830002 -5.1409998 -1.89 8
8.7869997 -5.566 -1.878 8
9.71 -6.1290002 -1.882 8
10.801 -6.7979999 -1.881 7
12.208 -7.6669998 -1.891 7
7.5510001 -4.8660002 -1.902 9
8.165 -5.2350001 -1.89 8
8.8970003 -5.6799998 -1.8789999 7
9.8339996 -6.257 -1.881 8
10.989 -6.9720001 -1.885 6
12.446 -7.8779998 -1.893 7
7.6220002 -4.9489999 -1.9 9
8.2559996 -5.3340001 -1.8890001 7
9.0039997 -5.7930002 -1.878 7
9.9630003 -6.3870001 -1.8789999 8
11.187 -7.151 -1.8890001 6
12.681 -8.0880003 -1.8940001 8
7.7049999 -5.04 -1.901 9
8.3470001 -5.4330001 -1.888 8
9.1599998 -5.9359999 -1.886 6
10.131 -6.5409999 -1.883 7
11.393 -7.335 -1.891 6
12.943 -8.3140001 -1.896 7
7.7930002 -5.1329999 -1.902 8
8.4499998 -5.5370002 -1.888 8
9.3610001 -6.1079998 -1.901 7
10.308 -6.7020001 -1.886 7
11.631 -7.54 -1.897 6
13.227 -8.5539999 -1.898 8
7.875 -5.2220001 -1.9 8
8.5480003 -5.6399999 -1.885 7
9.5129995 -6.2490001 -1.904 6
10.494 -6.8670001 -1.8890001 7
11.875 -7.7480001 -1.901 7
13.52 -8.8009996 -1.899 8
7.9679999 -5.316 -1.899 8
8.6639996 -5.7509999 -1.885 7
9.6619997 -6.3860002 -1.905 7
10.696 -7.0430002 -1.893 6
12.124 -7.9580002 -1.904 7
13.853 -9.0719995 -1.903 9
8.0830002 -5.4250002 -1.902 7
8.7869997 -5.8670001 -1.885 7
9.7690001 -6.494 -1.896 8
10.911 -7.2259998 -1.897 6
12.385 -8.1759996 -1.906 8
14.195 -9.349 -1.905 9
8.177 -5.5180001 -1.899 7
8.9259996 -5.9920001 -1.887 7
9.8940001 -6.6129999 -1.888 7
11.106 -7.3940001 -1.895 6
12.648 -8.3950005 -1.905 7
14.71 -9.7399998 -1.925 18
8.2889996 -5.6220002 -1.899 7
9.1350002 -6.164 -1.902 7
10.082 -6.7719998 -1.892 6
11.367 -7.6059999 -1.903 6
12.971 -8.6520004 -1.911 8
14.916 -9.9250002 -1.902 40
8.4020004 -5.7249999 -1.897 8
9.3120003 -6.3119998 -1.908 6
10.279 -6.9359999 -1.895 4
11.599 -7.7969999 -1.903 7
13.269 -8.8909998 -1.91 9
15.061 -10.067 -1.87 14
8.5249996 -5.835 -1.896 7
9.4770002 -6.4520001 -1.909 4
10.5 -7.1160002 -1.899 5
11.898 -8.0319996 -1.91 7
13.606 -9.1560001 -1.911 8
15.829 -10.625 -1.909 10
8.6459999 -5.941 -1.893 7
9.6309996 -6.5819998 -1.9069999 6
10.711 -7.2870002 -1.9 6
12.168 -8.2460003 -1.911 7
13.96 -9.4300003 -1.911 10
16.362 -11.024 -1.915 12
8.79 -6.0609999 -1.893 8
9.7530003 -6.6890001 -1.897 7
10.947 -7.473 -1.903 6
12.474 -8.4820004 -1.915 8
14.427 -9.7790003 -1.924 27
16.854 -11.395 -1.911 14
8.9619999 -6.1989999 -1.898 6
9.9200001 -6.8249998 -1.8940001 6
11.195 -7.6659999 -1.906 6
12.751 -8.6969995 -1.911 8
14.547 -9.8900003 -1.887 37
17.518999 -11.88 -1.9220001 13
9.1969995 -6.3790002 -1.914 4
10.131 -6.9889998 -1.896 5
11.472 -7.8779998 -1.911 6
13.127 -8.9790001 -1.918 8
15.135 -10.318 -1.906 12
17.773001 -12.085 -1.8839999 11
9.3850002 -6.5250001 -1.918 4
10.36 -7.164 -1.9 5
11.754 -8.0900002 -1.913 7
13.48 -9.2410002 -1.919 9
15.638 -10.686 -1.91 11
17.780001 -12.118 -1.816 13
9.5469999 -6.651 -1.914 5
10.576 -7.3280001 -1.9 6
12.047 -8.3079996 -1.915 7
13.977 -9.6000004 -1.936 11
16.263 -11.134 -1.924 10
17.974001 -12.273 -1.768 16
9.698 -6.7670002 -1.908 6
10.829 -7.5149999 -1.903 6
12.378 -8.5489998 -1.919 8
14.281 -9.8249998 -1.9220001 34
16.903 -11.59 -1.9349999 11
18.632 -12.742 -1.7589999 19
9.8590002 -6.8870001 -1.899 6
11.098 -7.711 -1.906 6
12.7 -8.783 -1.919 8
14.378 -9.9029999 -1.8789999 28
17.451 -11.98 -1.9299999 14
19.052 -13.044 -1.724 26
10.1 -7.0619998 -1.906 5
11.377 -7.9109998 -1.909 7
13.07 -9.0459995 -1.923 9
15.145 -10.44 -1.918 10
17.549 -12.057 -1.868 13
19.056999 -13.058 -1.649 25
10.336 -7.23 -1.908 5
11.671 -8.1190004 -1.91 7
13.424 -9.2950001 -1.92 9
15.667 -10.804 -1.921 9
17.641001 -12.125 -1.808 14
19.039 -13.051 -1.571 23
10.594 -7.4109998 -1.9119999 6
11.993 -8.3439999 -1.914 7
13.973 -9.6750002 -1.942 20
16.268999 -11.219 -1.929 11
17.944 -12.333 -1.765 17
19.038 -13.05 -1.492 28
10.849 -7.586 -1.9119999 6
12.339 -8.5810003 -1.9170001 8
14.204 -9.8319998 -1.915 38
16.910999 -11.659 -1.934 15
18.632 -12.802 -1.756 18
19.033001 -13.042 -1.414 28
11.114 -7.7670002 -1.9119999 6
12.681 -8.8129997 -1.918 8
14.388 -9.9519997 -1.88 17
17.406 -11.991 -1.921 13
19.066999 -13.091 -1.719 19
19.025 -13.027 -1.336 29
11.422 -7.973 -1.9170001 7
13.061 -9.0670004 -1.92 9
15.183 -10.491 -1.919 10
17.534 -12.066 -1.8609999 14
19.049999 -13.065 -1.637 22
19.028999 -13.016 -1.256 41
11.732 -8.1780005 -1.918 7
13.441 -9.3170004 -1.9170001 9
15.738 -10.858 -1.924 11
17.674999 -12.145 -1.801 16
19.039 -13.039 -1.557 19
19.042999 -13.006 -1.177 48
12.07 -8.3979998 -1.921 7
14.018 -9.6999998 -1.9400001 19
16.322001 -11.24 -1.925 11
18.124001 -12.431 -1.7690001 17
19.025999 -13.006 -1.474 29
19.041 -12.981 -1.096 54
12.414 -8.6169996 -1.92 8
14.255 -9.8409996 -1.91 34
17.072001 -11.731 -1.939 13
18.884001 -12.923 -1.762 19
19.042 -12.988 -1.395 32
19.059999 -12.965 -1.016 56
12.802 -8.8629999 -1.923 8
14.475 -9.967 -1.876 19
17.551001 -12.028 -1.918 12
19.061001 -13.011 -1.698 33
19.065001 -12.97 -1.314 56
19.066 -12.936 -0.93599999 65
13.19 -9.1049995 -1.923 8
15.292 -10.499 -1.915 10
17.688 -12.087 -1.855 13
19.068001 -12.977 -1.614 38
19.073 -12.938 -1.233 56
19.096001 -12.918 -0.85600001 75
13.593 -9.3509998 -1.9220001 9
15.853 -10.848 -1.916 10
17.896 -12.188 -1.799 16
19.070999 -12.936 -1.5319999 45
19.091999 -12.907 -1.152 56
19.124001 -12.895 -0.77499998 87
14.192 -9.7279997 -1.942 24
16.448999 -11.214 -1.915 9
18.539 -12.579 -1.783 19
19.083 -12.897 -1.451 56
19.125999 -12.883 -1.074 48
19.167999 -12.877 -0.69599998 15
14.432 -9.8520002 -1.91 39
17.194 -11.674 -1.924 11
19.055 -12.877 -1.748 37
19.122999 -12.872 -1.37 47
19.155001 -12.851 -0.991 10
0 0 0 0
14.656 -9.96 -1.874 20
17.809 -12.038 -1.915 14
19.122999 -12.866 -1.67 38
19.172001 -12.848 -1.291 11
0 0 0 0
69.211998 -46.105999 -1.919 5
15.578 -10.536 -1.921 9
18.018999 -12.122 -1.857 16
19.177 -12.842 -1.591 14
29.406 -19.614 -1.852 3
0 0 0 0
75.761002 -50.233002 -1.78 4
16.202999 -10.903 -1.926 11
18.249001 -12.215 -1.801 17
23.323 -15.539 -1.8329999 9
34.320999 -22.775999 -2.016 8
0 0 0 0
78.755997 -51.953999 -1.518 24
16.819 -11.255 -1.923 10
18.849001 -12.548 -1.776 18
24.076 -15.953 -1.786 11
0 0 0 0
0 0 0 0
78.876999 -51.751999 -1.194 150
17.604 -11.712 -1.9349999 11
19.622 -12.986 -1.762 13
24.549999 -16.174 -1.716 3
0 0 0 0
0 0 0 0
76.092003 -49.639999 -0.829 56
18.268999 -12.079 -1.927 14
20.591999 -13.544 -1.7589999 5
27.878 -18.253 -1.827 6
0 0 0 0
0 0 0 0
0 0 0 0
18.562 -12.193 -1.873 11
22.469 -14.683 -1.8200001 8
33.442001 -21.754 -2.0480001 14
0 0 0 0
0 0 0 0
0 0 0 0
18.820999 -12.278 -1.816 16
23.6 -15.316 -1.809 16
33.299999 -21.514 -1.895 7
0 0 0 0
84.469002 -54.188 -1.505 7
26.493 -16.951 0.041999999 4
19.337999 -12.525 -1.781 19
24.037001 -15.489 -1.737 28
0 0 0 0
0 0 0 0
0 0 0 0
24.299 -15.437 0.138 20
20.086 -12.911 -1.761 11
24.184 -15.466 -1.643 43
0 0 0 0
24.353001 -15.445 -0.70499998 0
24.302 -15.363 -0.23100001 45
24.271999 -15.303 0.237 47
20.992001 -13.387 -1.748 5
24.288 -15.411 -1.545 50
24.398001 -15.412 -1.077 15
24.332001 -15.311 -0.60100001 59
24.32 -15.254 -0.132 47
24.320999 -15.215 0.336 40
23.355 -14.771 -1.8430001 10
24.362 -15.331 -1.447 69
24.357 -15.26 -0.972 83
24.358 -15.202 -0.50099999 50
24.388 -15.172 -0.030999999 25
24.468 -15.183 0.435 7
23.938999 -15.012 -1.7869999 24
24.413 -15.231 -1.345 91
24.399 -15.156 -0.87300003 87
24.455 -15.134 -0.40400001 26
117.983 -72.777 0.31999999 14
88.93 -54.716999 1.939 18
24.23 -15.059 -1.705 37
24.472 -15.135 -1.248 79
24.532 -15.105 -0.77700001 47
88.958 -54.569 -1.115 23
89.070999 -54.464001 0.58700001 17
0 0 0 0
24.382 -15.017 -1.613 49
24.620001 -15.088 -1.153 24
0 0 0 0
0 0 0 0
0 0 0 0
0 0 0 0
24.528 -14.963 -1.52 41
0 0 0 0
78.492996 -47.442001 -1.8559999 4
78.615997 -47.341 -0.36399999 14
69.459999 -41.695 0.99800003 59
0 0 0 0
24.830999 -15 -1.436 5
0 0 0 0
69.491997 -41.596001 -1.367 35
79.792999 -47.585999 -0.057999998 8
0 0 0 0
68.526001 -40.627998 2.5420001 4
0 0 0 0
0 0 0 0
78.736 -46.653 -1.24 25
68.323997 -40.332001 0.21600001 35
68.261002 -40.166 1.5 18
0 0 0 0
38.571999 -22.825001 -1.92 10
0 0 0 0
68.429001 -40.127998 -0.81999999 57
77.058998 -45.021 0.528 5
0 0 0 0
68.130997 -39.578999 3.0250001 30
0 0 0 0
0 0 0 0
77.203003 -44.787998 -0.63200003 10
65.293999 -37.737999 0.69 10
65.422997 -37.695 1.9170001 59
0 0 0 0
0 0 0 0
0 0 0 0
0 0 0 0
65.613998 -37.505001 0.93400002 42
65.748001 -37.465 2.1630001 52
64.088997 -36.428001 3.299 9
25.816 -14.777 -0.98299998 0
79.152 -45.092999 -1.538 6
65.750999 -37.299999 -0.050000001 10
65.935997 -37.266998 1.177 54
66.004997 -37.193001 2.401 58
68.236 -38.354 3.7460001 34
52.804001 -29.877001 -1.817 2
65.972 -37.152 -1.044 5
75.769997 -42.488998 0.208 19
66.217003 -36.995998 1.409 58
64.620003 -35.993 2.569 9
64.644997 -35.915001 3.7650001 5
25.784 -14.417 -0.792 30
25.704 -14.303 -0.31299999 11
64.5 -35.742001 0.40599999 34
0 0 0 0
0 0 0 0
68.684998 -37.709999 4.2290001 6
25.603001 -14.142 -0.69400001 31
25.825001 -14.198 -0.22400001 33
68.100998 -37.279999 0.65899998 33
0 0 0 0
0 0 0 0
0 0 0 0
25.707001 -14.023 -0.60699999 30
71.263 -38.688 -0.37400001 11
67.663002 -36.580002 0.88499999 13
69.949997 -37.681 2.1930001 10
74.412003 -39.959999 3.694 15
65.047997 -34.845001 4.415 5
25.903999 -13.95 -0.52100003 65
69.517998 -37.258999 -0.127 4
68.528999 -36.573002 1.1210001 17
74.768997 -39.757999 2.5869999 9
71.703003 -38.008999 3.7869999 27
43.445999 -22.973 3.0840001 5
62.75 -33.345001 -1.048 5
68.385002 -36.171001 0.098999999 12
69.223 -36.462002 1.358 35
71.731003 -37.641998 2.7060001 26
71.834 -37.578999 4.013 8
43.620998 -22.761 3.2279999 17
26.007 -13.634 -0.34799999 7
68.589996 -35.792999 0.31900001 33
69.276001 -36 1.576 16
60.321999 -31.232 2.4630001 6
0 0 0 0
43.877998 -22.591 3.375 44
69.832001 -36.108002 -0.708 26
60.375999 -31.07 0.472 17
60.52 -31.014999 1.564 26
60.756001 -31.023001 2.664 12
0 0 0 0
44.091999 -22.386999 3.5179999 27
60.529999 -30.858 -0.42399999 49
69.648003 -35.341 0.76099998 25
71.699997 -36.230999 2.069 30
73.224998 -36.863998 3.4219999 32
0 0 0 0
44.327999 -22.190001 3.6589999 38
69.610001 -34.973999 -0.273 29
70.348999 -35.18 0.98000002 22
72.425003 -36.068001 2.302 29
0 0 0 0
0 0 0 0
44.584 -21.995001 3.8010001 22
70.061996 -34.68 -0.064000003 18
72.735001 -35.839001 1.223 16
73.421997 -36.027 2.54 8
133.866 -65.453003 7.0050001 29
44.773998 -21.826 3.1370001 5
44.866001 -21.812 3.941 4
70.573997 -34.418999 0.13600001 8
129.35699 -62.793999 2.539 21
0 0 0 0
134.067 -64.580002 7.3709998 22
45.042999 -21.631001 3.2720001 21
55.726002 -26.690001 5.0359998 19
92.580002 -44.464001 0.442 30
130.158 -62.220001 2.914 21
87.091003 -41.456001 3.48 20
0 0 0 0
45.284 -21.410999 3.404 30
55.998001 -26.408001 5.1960001 9
130.593 -61.738998 0.977 15
87.504997 -41.175999 2.188 9
56.709 -26.573999 2.4130001 36
57.019001 -26.621 3.4260001 17
45.553001 -21.198 3.5350001 43
58.123001 -26.978001 5.5310001 11
56.841999 -26.440001 0.57599998 36
56.973 -26.377001 1.571 32
87.168999 -40.194 3.9230001 12
89.035004 -40.903 5.5619998 19
45.814999 -20.978001 3.661 30
58.106998 -26.535 5.6609998 40
0 0 0 0
87.352997 -39.778999 2.6259999 34
57.456001 -26.055 2.7260001 18
88.106003 -39.801998 5.7080002 23
46.098 -20.757999 3.789 32
51.077999 -22.937 5.0900002 21
87.598999 -39.401001 1.331 6
88.648003 -39.692001 2.8759999 12
87.021004 -38.804001 4.3260002 25
58.117001 -25.819 3.8959999 8
46.345001 -20.52 3.9089999 18
51.276001 -22.641001 5.2150002 58
0 0 0 0
87.380997 -38.459 3.033 25
83.160004 -36.446999 4.3189998 41
46.584999 -20.341 3.223 5
46.623001 -20.291 4.0310001 14
51.888 -22.517 5.382 64
89.751999 -38.994999 1.774 16
82.565002 -35.705002 3.0469999 39
82.390999 -35.478001 4.454 40
46.848999 -20.1 3.336 17
46.965 -20.084 4.152 4
52.237 -22.275 5.5190001 43
0 0 0 0
82.494003 -35.044998 3.2190001 28
81.630997 -34.535999 4.5770001 38
47.153 -19.874001 3.45 39
52.608002 -22.097 4.7490001 25
52.435001 -21.961 5.6329999 66
90.209999 -37.808998 2.1659999 26
53.257999 -22.216 2.1830001 41
53.389999 -22.179001 3.095 7
47.431999 -19.629 3.5580001 52
53.106998 -21.903999 4.8899999 28
52.438 -21.568001 5.724 65
53.233002 -21.902 1.3839999 32
80.996002 -33.171001 3.474 18
81.027 -33.041 4.8470001 45
47.735001 -19.391001 3.665 44
53.054001 -21.476 4.974 48
52.153 -21.052999 5.777 60
53.131001 -21.452 1.479 22
53.169998 -21.365 2.375 3
80.939003 -32.383999 4.9809999 33
48.041 -19.149 3.767 38
54.092999 -21.488001 5.1570001 14
52.494999 -20.791 5.8959999 43
80.876999 -32.027 2.3989999 31
82.014999 -32.319 3.8039999 10
53.860001 -21.135 3.401 7
48.355999 -18.900999 3.8670001 34
54.316002 -21.157 5.2600002 33
0 0 0 0
82.189003 -31.914 2.572 5
51.182999 -19.778 2.4560001 9
51.214001 -19.704 3.3139999 71
59.952 -22.975 4.8839998 38
54.548 -20.829 5.3579998 24
54.189999 -20.629 6.2360001 39
84.192001 -32.034 2.7679999 10
82.041 -31.068001 4.059 26
82.264999 -31.016001 5.4400001 36
59.652 -22.400999 4.941 22
54.493 -20.391001 5.4260001 19
54.629002 -20.382 6.355 23
49.172001 -18.329 1.6900001 74
49.273998 -18.278 2.5090001 76
82.403 -30.434999 5.5619998 40
82.805 -30.461 6.9660001 30
54.471001 -19.966999 5.487 4
49.451 -18.07 5.809 66
49.497002 -18.066 1.7690001 67
49.507999 -17.981001 2.585 21
49.512001 -17.905001 3.402 42
49.660999 -17.886 4.2350001 48
49.673 -17.827999 5.0599999 6
0 0 0 0
49.695 -17.754999 1.84 73
49.873001 -17.728001 2.6630001 65
83.265999 -29.469 5.8150001 35
84.337997 -29.726 7.2820001 33
0 0 0 0
42.627998 -14.921 5.0939999 8
50.105999 -17.511 1.914 66
50.189999 -17.450001 2.7360001 70
85.209999 -29.490999 6.0419998 25
48.617001 -16.756001 4.2459998 2
42.775002 -14.687 4.441 28
42.431 -14.521 5.1079998 29
48.799 -16.673 1.916 16
57.460999 -19.531 3.1900001 29
48.541 -16.423 3.487 34
0 0 0 0
42.891998 -14.395 4.4889998 5
42.487999 -14.214 5.1459999 20
48.832001 -16.299 1.964 6
48.459999 -16.091999 2.7349999 33
57.185001 -18.903999 4.1560001 32
57.948002 -19.073999 5.1570001 47
48.869999 -16.024 5.1490002 7
42.688 -13.951 5.198 11
57.789001 -18.844 2.375 31
57.382 -18.618 3.2839999 38
48.206001 -15.567 3.54 17
47.178001 -15.167 4.23 4
49.609001 -15.888 5.256 34
46.98 -14.994 5.7470002 14
57.098999 -18.179001 2.388 49
56.790001 -17.986 3.289 45
57.585999 -18.153 4.2639999 38
57.521999 -18.056 5.191 44
47.07 -14.714 5.013 4
46.911999 -14.61 5.7600002 20
56.93 -17.686001 2.4170001 40
56.910999 -17.587 3.329 39
57.592999 -17.711 4.2950001 40
57.895 -17.726999 5.2519999 55
0 0 0 0
41.587002 -12.635 5.1220002 4
57.036999 -17.283001 2.454 47
57.125999 -17.216999 3.3699999 56
58.393002 -17.514999 4.3800001 45
0 0 0 0
0 0 0 0
41.353001 -12.248 5.1030002 12
58.424999 -17.252001 2.539 48
58.785 -17.264 3.49 48
54.445999 -15.912 4.1020002 7
0 0 0 0
41.696999 -12.079 4.4809999 32
41.814999 -12.065 5.1669998 34
58.021 -16.686001 2.54 47
53.897999 -15.415 3.2149999 31
0 0 0 0
0 0 0 0
43.328999 -12.218 4.6589999 4
41.955002 -11.784 5.1869998 42
44.353001 -12.414 1.951 13
44.198002 -12.304 2.6429999 44
43.967999 -12.176 3.3269999 4
0 0 0 0
0 0 0 0
43.345001 -11.848 5.3579998 17
44.945999 -12.242 1.983 52
44.951 -12.17 2.691 34
109.6 -29.516001 8.2939997 34
0 0 0 0
0 0 0 0
43.388 -11.529 5.3569999 3
53.095001 -14.053 2.3429999 59
54.676998 -14.387 3.27 44
45.219002 -11.834 3.4170001 7
45.529999 -11.858 4.1609998 4
45.556999 -11.81 4.8870001 3
45.509998 -11.748 5.6069999 8
52.706001 -13.552 2.3199999 57
53.841 -13.763 3.2130001 40
110.019 -27.968 8.2959995 33
0 0 0 0
45.328999 -11.408 4.849 6
45.299999 -11.351 5.566 44
52.467999 -13.09 2.299 55
51.154999 -12.689 3.04 15
57.722 -14.237 4.3340001 7
0 0 0 0
47.474998 -11.59 5.059 2
45.307999 -11.014 5.546 10
52.308998 -12.658 2.2750001 36
57.479 -13.824 3.3940001 51
57.368 -13.718 4.2839999 14
0 0 0 0
0 0 0 0
47.740002 -11.248 5.8189998 9
53.535 -12.556 2.3069999 34
57.660999 -13.438 3.3770001 79
74.515999 -17.264 5.5250001 48
79.739998 -18.372 7.1589999 5
47.819 -10.964 5.0430002 2
47.720001 -10.889 5.7849998 49
57.013 -12.944 2.4260001 68
57.395 -12.951 3.3299999 63
66.060997 -14.817 4.8590002 49
78.931 -17.608 7.0359998 15
78.944 -17.518999 8.2729998 6
0 0 0 0
57.532001 -12.641 2.4119999 52
57.115002 -12.466 3.2739999 92
57.171001 -12.404 4.1630001 6
67.027 -14.458 5.9229999 12
79.245003 -17.000999 8.2390003 12
0 0 0 0
57.459 -12.199 2.3640001 11
57.757999 -12.18 3.2650001 7
57.282001 -12.004 4.1230001 50
68.197998 -14.21 5.9660001 36
0 0 0 0
41.727001 -8.6029997 4.9520001 12
59.759998 -12.25 2.4089999 7
57.405998 -11.691 3.1949999 6
54.112999 -10.951 3.845 4
67.931999 -13.664 5.8779998 45
68.455002 -13.693 6.987 6
0 0 0 0
65.816002 -13.014 2.589 53
53.877998 -10.579 2.944 34
54.284 -10.591 3.8010001 17
67.275002 -13.043 5.7490001 42
41.757999 -8.0489998 4.2150002 1
0 0 0 0
52.119999 -9.9309998 1.9960001 9
52.120998 -9.8599997 2.7920001 60
41.449001 -7.79 2.8559999 34
66.666 -12.448 5.6199999 33
67.439003 -12.515 6.7270002 35
40.763 -7.5219998 4.698 43
52.798 -9.6809998 1.961 55
41.301998 -7.5149999 2.1619999 44
65.833 -11.895 4.454 61
40.785 -7.322 3.385 56
67.203003 -11.987 6.6149998 42
0 0 0 0
41.104 -7.2410002 1.473 39
40.978001 -7.164 2.092 45
65.831001 -11.428 4.3670001 50
66.384003 -11.441 5.4200001 50
67.336998 -11.532 6.5339999 25
0 0 0 0
52.645 -8.8970003 1.814 46
52.255001 -8.7650003 2.5940001 20
42.073002 -7.0040002 2.7290001 4
66.355003 -10.967 5.3189998 46
66.856003 -10.977 6.3860002 46
0 0 0 0
52.854 -8.5579996 1.743 33
52.474998 -8.4309998 2.526 59
52.305 -8.3380003 3.313 15
66.218002 -10.478 5.2049999 46
80.491997 -12.643 7.5570002 18
73.531998 -11.472 8.033 35
53.730999 -8.3210001 1.686 41
52.618999 -8.0799999 2.4460001 33
52.313 -7.9710002 3.2260001 50
52.195999 -7.8889999 4.0139999 50
73.170998 -10.978 6.7449999 11
42.605999 -6.3470001 4.5799999 2
53.667999 -7.9310002 1.591 30
54.359001 -7.9660001 2.4330001 42
52.887001 -7.6859999 3.168 16
52.323002 -7.5430002 3.9289999 7
52.000999 -7.441 4.6989999 6
73.172997 -10.393 7.7319999 34
91.924004 -12.952 2.562 14
54.268002 -7.5770001 2.3299999 67
68.098 -9.4250002 3.954 36
81.792999 -11.23 5.9899998 23
77.310997 -10.526 6.8369999 39
73.084999 -9.8739996 7.579 37
39.233002 -5.2550001 1.017 24
54.59 -7.244 2.237 14
68.566002 -9.0170002 3.845 15
0 0 0 0
77.363998 -9.9989996 6.6859999 29
72.462997 -9.2889996 7.3670001 31
38.976002 -4.9510002 0.93099999 37
0 0 0 0
0 0 0 0
0 0 0 0
74.431999 -9.1070004 6.2740002 16
72.351997 -8.7799997 7.1999998 30
38.757 -4.658 0.84399998 42
121.42 -14.444 4.4660001 15
124.814 -14.696 6.4660001 28
0 0 0 0
74.903999 -8.6560001 6.1469998 24
72.677002 -8.3219995 7.0679998 36
125.282 -14.206 2.447 33
96.463997 -10.822 3.3299999 57
75.093002 -8.3339996 3.7179999 31
123.049 -13.517 7.9489999 30
76.154999 -8.283 6.0710001 21
78.163002 -8.4200001 7.4169998 26
96.825996 -10.323 1.663 16
75.190002 -7.9260001 2.4159999 38
75.442001 -7.8649998 3.5569999 23
121.884 -12.577 7.5840001 20
0 0 0 0
78.001999 -7.8800001 7.211 31
97.313004 -9.7200003 1.431 9
83.43 -8.2340002 2.474 20
75.039001 -7.3200002 3.3499999 17
75.015999 -7.2319999 4.4749999 10
63.873001 -6.092 4.7750001 5
63.935001 -6.0320001 5.7470002 25
96.848 -9.0270004 1.174 7
83.538002 -7.6880002 2.2609999 7
83.375999 -7.579 3.506 41
64.084999 -5.7579999 3.658 7
74.887001 -6.6459999 5.401 9
77.492996 -6.7940001 6.7579999 27
0 0 0 0
95.653999 -8.1759996 2.3329999 42
82.348999 -6.9460001 3.2409999 37
83.126999 -6.921 4.5190001 32
75.609001 -6.2150002 5.2480001 10
64.815002 -5.2639999 5.4770002 16
64.511002 -5.165 0.43000001 86
64.481003 -5.0890002 1.392 73
64.455002 -5.0149999 2.355 32
64.334 -4.9359999 3.316 35
64.190002 -4.8600001 4.2740002 35
64.089996 -4.7870002 5.2329998 13
58.778999 -4.323 0.222 8
0 0 0 0
83.088997 -5.9260001 2.7950001 54
64.797997 -4.5549998 3.151 25
84.341003 -5.8400002 5.369 25
63.724998 -4.348 5.0149999 32
63.973999 -4.2969999 0.052999999 13
107.24 -7.085 1.687 11
82.970001 -5.3909998 2.5439999 14
83.901001 -5.3590002 3.8269999 17
65.142998 -4.0929999 3.9489999 8
76.126999 -4.7059999 5.7600002 10
61.349998 -3.7290001 -0.139 5
106.489 -6.355 1.344 21
117.898 -6.9089999 3.2490001 14
84.695999 -4.8779998 3.6029999 17
87.617996 -4.9559999 5.0409999 33
37.411999 -2.0769999 2.7130001 32
54.041 -2.9419999 -0.29499999 6
89.109001 -4.7579999 0.84100002 62
72.925003 -3.816 1.777 29
48.686001 -2.4990001 1.915 2
37.639999 -1.893 2.0450001 3
37.643002 -1.8559999 2.6099999 32
49.035 -2.3670001 -0.42699999 13
0 0 0 0
37.594002 -1.734 0.792 17
37.508999 -1.694 1.353 64
37.540001 -1.656 1.915 47
48.401001 -2.089 3.197 1
37.488998 -1.5779999 -0.454 98
37.500999 -1.539 0.104 106
37.549999 -1.502 0.66500002 66
37.668999 -1.4680001 1.23 20
37.437 -1.423 1.784 1
48.662998 -1.804 3.049 21
37.513 -1.353 -0.583 88
73.251999 -2.566 -0.046999998 11
73.346001 -2.494 1.046 4
49.426998 -1.632 1.4450001 17
48.881001 -1.5650001 2.161 42
48.596001 -1.508 2.8759999 59
42.360001 -1.27 -0.81199998 40
49.311001 -1.429 -0.20900001 80
49.370998 -1.381 0.52700001 15
114.7 -3.098 2.9430001 9
49.062 -1.276 1.993 38
48.810001 -1.222 2.714 58
41.042999 -0.986 -0.93699998 61
48.852001 -1.124 -0.38699999 19
0 0 0 0
0 0 0 0
111.266 -2.2290001 4.1079998 36
48.765999 -0.93099999 2.5320001 63
36.823002 -0.66600001 -0.98000002 4
44.279999 -0.75700003 -0.51800001 6
78.901001 -1.274 0.25600001 6
114.495 -1.7359999 2.085 23
117.188 -1.668 3.891 10
48.720001 -0.64600003 2.3469999 18
36.615002 -0.449 -1.1160001 20
42.897999 -0.48199999 -0.66799998 14
56.256001 -0.57800001 -0.035999998 4
0 0 0 0
109.658 -0.91799998 3.214 21
89.792999 -0.66900003 3.9790001 15
33.018002 -0.213 -1.138 1
0 0 0 0
39.761002 -0.17900001 -0.183 36
82.011002 -0.29100001 0.84899998 5
0 0 0 0
108.705 -0.178 4.382 41
31.476 -0.018999999 -1.216 4
39.757 0.011 -0.94099998 105
39.757999 0.048999999 -0.345 144
0 0 0 0
0 0 0 0
108.272 0.43200001 3.9289999 21
29.575001 0.146 -1.265 5
36.630001 0.21600001 -1.0190001 17
39.782001 0.273 -0.51099998 101
40.216 0.31200001 0.086000003 83
0 0 0 0
60.769001 0.58499998 1.952 12
27.549999 0.29100001 -1.298 6
0 0 0 0
39.804001 0.493 -0.68000001 56
40.584 0.542 -0.085000001 60
41.567001 0.59299999 0.53500003 9
60.636002 0.92199999 1.6900001 41
26.172001 0.42300001 -1.348 11
31.868999 0.542 -1.1619999 3
39.888 0.71499997 -0.85500002 46
40.952 0.76999998 -0.26199999 56
41.144001 0.81099999 0.35299999 60
60.437 1.245 1.428 6
24.739 0.53299999 -1.3839999 19
29.889999 0.66900003 -1.221 5
36.719002 0.85500002 -0.94800001 6
41.202999 0.99800003 -0.44600001 61
40.976002 1.029 0.171 59
61.578999 1.603 1.182 29
23.625999 0.63599998 -1.4299999 20
27.895 0.77499998 -1.268 6
36.456001 1.045 -1.108 20
41.550999 1.227 -0.63599998 40
40.966 1.245 -0.0089999996 55
41.446999 1.3 0.61000001 3
22.240999 0.71799999 -1.451 18
26.160999 0.866 -1.3099999 8
32.811001 1.113 -1.147 4
37.264999 1.2970001 -0.74199998 36
37.237999 1.329 -0.18000001 89
37.243 1.362 0.37900001 84
21.017 0.78799999 -1.47 16
24.771999 0.94999999 -1.359 19
30.256001 1.186 -1.2029999 4
36.848999 1.477 -0.90799999 7
42.48 1.738 -0.405 1
0 0 0 0
19.999001 0.85299999 -1.4960001 14
23.474001 1.021 -1.4 19
28.152 1.247 -1.252 6
0 0 0 0
42.095001 1.936 -0.60100001 60
46.634998 2.1860001 0.037 88
19.044001 0.91000003 -1.5190001 13
22.171 1.077 -1.432 18
26.351 1.301 -1.301 9
33.346001 1.674 -1.141 3
41.176998 2.1010001 -0.787 61
46.719002 2.4230001 -0.186 38
18.148001 0.958 -1.539 12
21.027 1.125 -1.462 16
24.892 1.352 -1.352 16
30.375999 1.674 -1.188 4
36.874001 2.0650001 -0.88599998 7
0 0 0 0
17.358999 1.002 -1.561 11
19.886999 1.163 -1.484 14
23.407 1.387 -1.39 19
28.135 1.689 -1.243 6
0 0 0 0
41.709999 2.572 -0.57700002 45
16.559 1.036 -1.576 10
18.867001 1.194 -1.505 13
22.198 1.423 -1.433 17
26.184999 1.699 -1.291 8
32.561001 2.1389999 -1.11 3
40.807999 2.7130001 -0.77100003 60
15.827 1.066 -1.59 9
17.98 1.224 -1.53 12
20.964001 1.443 -1.4630001 16
24.695999 1.719 -1.345 16
30.105 2.118 -1.1799999 4
36.987999 2.632 -0.88800001 10
15.15 1.092 -1.604 9
17.169001 1.25 -1.553 10
19.775 1.454 -1.484 14
23.157 1.72 -1.3839999 19
27.85 2.0899999 -1.239 6
0 0 0 0
14.548 1.1160001 -1.62 10
16.346001 1.265 -1.567 9
18.857 1.473 -1.517 13
21.969999 1.7309999 -1.429 17
25.889 2.0610001 -1.289 8
32.212002 2.5899999 -1.112 5
13.961 1.135 -1.633 11
15.62 1.28 -1.584 9
17.792999 1.47 -1.529 11
20.705999 1.725 -1.46 16
24.362 2.0480001 -1.344 12
29.459 2.4990001 -1.175 4
13.409 1.151 -1.6440001 10
14.949 1.2920001 -1.6 9
16.983 1.479 -1.554 10
19.534 1.715 -1.485 14
22.910999 2.0280001 -1.3890001 18
27.247999 2.4319999 -1.235 7
12.909 1.164 -1.6569999 12
14.303 1.3 -1.614 11
16.143 1.477 -1.569 9
18.485001 1.704 -1.51 12
21.605 2.007 -1.431 17
25.458 2.3829999 -1.295 9
12.397 1.1720001 -1.665 11
13.728 1.306 -1.627 11
15.403 1.475 -1.585 8
17.523001 1.6900001 -1.531 11
20.296 1.972 -1.46 15
23.766001 2.326 -1.3430001 16
11.965 1.183 -1.678 12
13.188 1.311 -1.641 12
14.734 1.474 -1.603 11
16.635 1.674 -1.55 10
19.257999 1.952 -1.4960001 13
22.386999 2.2850001 -1.393 18
11.523 1.187 -1.686 12
12.673 1.313 -1.653 11
14.101 1.469 -1.617 11
15.878 1.664 -1.572 9
18.033001 1.901 -1.505 12
21.084999 2.2379999 -1.433 16
11.123 1.192 -1.696 12
12.18 1.311 -1.6619999 13
13.527 1.464 -1.632 12
15.14 1.647 -1.5880001 8
17.215 1.8839999 -1.5369999 11
19.861 2.187 -1.464 14
10.751 1.1950001 -1.705 12
11.723 1.308 -1.671 13
12.979 1.456 -1.6440001 11
14.455 1.6289999 -1.603 10
16.347 1.853 -1.556 10
18.721001 2.1340001 -1.49 13
10.385 1.194 -1.712 12
11.302 1.3049999 -1.681 12
12.466 1.446 -1.654 11
13.87 1.6160001 -1.62 11
15.59 1.826 -1.576 9
17.719999 2.086 -1.5140001 11
10.041 1.193 -1.7180001 11
10.921 1.302 -1.691 12
11.992 1.436 -1.665 11
13.296 1.599 -1.6339999 11
14.856 1.796 -1.592 10
16.837 2.046 -1.54 10
9.7150002 1.191 -1.724 11
10.551 1.298 -1.701 12
11.545 1.425 -1.675 13
12.757 1.582 -1.647 11
14.172 1.766 -1.607 11
15.963 1.999 -1.558 9
9.3850002 1.1849999 -1.727 12
10.188 1.29 -1.7079999 12
11.125 1.414 -1.686 12
12.241 1.562 -1.658 11
13.593 1.742 -1.625 11
15.208 1.959 -1.5779999 9
9.0909996 1.181 -1.733 11
9.8380003 1.2819999 -1.714 11
10.738 1.403 -1.696 11
11.758 1.5420001 -1.668 12
13.008 1.7130001 -1.637 10
14.477 1.915 -1.5930001 11
8.7910004 1.173 -1.735 11
9.507 1.272 -1.72 11
10.373 1.392 -1.707 12
11.311 1.523 -1.678 11
12.474 1.6849999 -1.649 11
13.861 1.88 -1.612 11
8.5349998 1.168 -1.742 11
9.198 1.262 -1.725 11
10.005 1.376 -1.711 11
10.907 1.505 -1.688 12
11.969 1.6569999 -1.659 12
13.29 1.847 -1.63 11
8.2910004 1.1619999 -1.749 11
8.8959999 1.25 -1.728 12
9.6680002 1.362 -1.7180001 10
10.54 1.489 -1.701 11
11.509 1.631 -1.671 11
12.723 1.809 -1.642 11
8.04 1.154 -1.752 11
8.6309996 1.2410001 -1.735 11
9.3409996 1.346 -1.723 12
10.169 1.469 -1.7079999 11
11.079 1.605 -1.6799999 11
12.187 1.771 -1.652 10
7.8140001 1.146 -1.757 10
8.368 1.229 -1.7410001 11
9.0349998 1.33 -1.728 12
9.8000002 1.446 -1.712 11
10.698 1.5829999 -1.694 11
11.694 1.7359999 -1.6619999 12
7.5890002 1.137 -1.761 10
8.1230001 1.2180001 -1.7460001 10
8.7399998 1.313 -1.7309999 11
9.4720001 1.426 -1.719 11
10.316 1.557 -1.702 11
11.251 1.7029999 -1.6720001 11
7.402 1.131 -1.7690001 10
7.8940001 1.207 -1.752 10
8.4729996 1.298 -1.737 11
9.1610003 1.406 -1.724 11
9.9510002 1.531 -1.7079999 11
10.861 1.675 -1.687 11
7.1659999 1.1160001 -1.765 11
7.6820002 1.197 -1.7589999 11
8.2259998 1.283 -1.744 10
8.8520002 1.383 -1.727 12
9.6129999 1.506 -1.716 12
10.475 1.645 -1.698 11
6.9720001 1.105 -1.768 10
7.4650002 1.184 -1.763 10
7.9829998 1.268 -1.748 10
8.5780001 1.364 -1.733 11
9.2959995 1.4809999 -1.723 11
10.085 1.61 -1.702 11
6.7849998 1.094 -1.77 10
7.2340002 1.1670001 -1.761 11
7.757 1.253 -1.7539999 10
8.3199997 1.345 -1.739 11
8.967 1.452 -1.723 12
9.7349997 1.58 -1.709 12
6.612 1.084 -1.774 11
7.0380001 1.154 -1.7640001 11
7.5419998 1.237 -1.7589999 10
8.0749998 1.326 -1.745 10
8.6850004 1.428 -1.729 11
9.4160004 1.552 -1.7180001 12
6.4489999 1.073 -1.778 10
6.8400002 1.1390001 -1.765 11
7.349 1.224 -1.767 10
7.8460002 1.308 -1.751 10
8.4259996 1.406 -1.7359999 11
9.0930004 1.52 -1.721 12
6.2859998 1.062 -1.781 10
6.6599998 1.125 -1.767 11
7.1209998 1.2029999 -1.7640001 10
7.6290002 1.29 -1.757 10
8.1809998 1.385 -1.743 11
8.7980003 1.4910001 -1.726 12
6.131 1.05 -1.783 10
6.4980001 1.113 -1.772 11
6.9320002 1.187 -1.768 11
7.4120002 1.27 -1.76 9
7.9369998 1.3609999 -1.747 10
8.5190001 1.462 -1.7309999 11
5.9829998 1.038 -1.786 10
6.3260002 1.098 -1.773 10
6.7379999 1.169 -1.767 10
7.204 1.25 -1.762 11
7.7069998 1.3380001 -1.751 10
8.2639999 1.436 -1.7359999 10
5.8369999 1.026 -1.7869999 10
6.1739998 1.084 -1.777 10
6.5640001 1.152 -1.77 11
7.0019999 1.229 -1.7640001 10
7.5120001 1.3200001 -1.76 10
8.0389996 1.413 -1.745 10
5.6999998 1.0140001 -1.789 11
6.0219998 1.0700001 -1.779 10
6.4060001 1.138 -1.775 11
6.8179998 1.211 -1.767 10
7.3099999 1.299 -1.766 10
7.802 1.387 -1.749 10
5.566 1.001 -1.791 10
5.8850002 1.057 -1.783 10
6.2490001 1.122 -1.779 11
6.638 1.192 -1.77 11
7.0799999 1.271 -1.762 10
7.5560002 1.357 -1.748 11
5.4439998 0.99000001 -1.795 9
5.7600002 1.046 -1.79 10
6.0970001 1.1059999 -1.7819999 11
6.48 1.175 -1.776 10
6.888 1.249 -1.765 11
