# .PCD v0.7 - Point Cloud Data file format
VERSION 0.7
FIELDS x y z intensity
SIZE 4 4 4 4
TYPE F F F F
COUNT 1 1 1 1
WIDTH 1757
HEIGHT 1
VIEWPOINT 0 0 0 1 0 0 0
POINTS 1757
DATA ascii
3.171 -0.66000003 -1.857 7
0 0 0 0
0 0 0 0
0 0 0 0
1.581 -0.34200001 -1.016 2
3.0380001 -0.64999998 -1.859 7
3.1900001 -0.67400002 -1.859 7
0 0 0 0
0 0 0 0
0 0 0 0
1.789 -0.39300001 -1.1440001 2
3.056 -0.66299999 -1.86 7
3.21 -0.68800002 -1.86 7
0 0 0 0
0 0 0 0
0 0 0 0
0 0 0 0
3.0780001 -0.67699999 -1.863 7
3.2279999 -0.70200002 -1.859 7
0 0 0 0
0 0 0 0
0 0 0 0
2.95 -0.66600001 -1.865 6
3.0910001 -0.68900001 -1.859 7
3.253 -0.71700001 -1.862 7
0 0 0 0
0 0 0 0
1.483 -0.34400001 -0.97899997 6
2.973 -0.67900002 -1.867 6
3.1170001 -0.70300001 -1.862 7
3.2720001 -0.73000002 -1.86 7
0 0 0 0
0 0 0 0
1.5 -0.35100001 -0.98299998 4
2.99 -0.69099998 -1.865 7
3.1370001 -0.71600002 -1.8609999 7
3.293 -0.74400002 -1.859 7
0 0 0 0
0 0 0 0
1.527 -0.36199999 -0.99400002 2
3.0079999 -0.70300001 -1.862 7
3.1600001 -0.73000002 -1.8609999 8
3.3180001 -0.75800002 -1.859 7
0 0 0 0
0 0 0 0
1.557 -0.373 -1.006 2
3.0320001 -0.71600002 -1.863 7
3.1830001 -0.74299997 -1.86 8
3.346 -0.773 -1.86 7
0 0 0 0
0 0 0 0
0 0 0 0
3.0610001 -0.73000002 -1.8660001 7
3.2090001 -0.75700003 -1.86 8
3.3740001 -0.787 -1.86 7
0 0 0 0
0 0 0 0
2.934 -0.71600002 -1.8660001 8
3.0880001 -0.74400002 -1.867 7
3.237 -0.77100003 -1.8609999 8
3.4089999 -0.80400002 -1.863 8
0 0 0 0
0 0 0 0
2.9660001 -0.73000002 -1.87 6
3.1099999 -0.75599998 -1.864 7
3.2720001 -0.78600001 -1.864 8
3.4419999 -0.81900001 -1.864 8
0 0 0 0
0 0 0 0
2.99 -0.74199998 -1.868 7
3.142 -0.77100003 -1.8660001 7
3.302 -0.801 -1.864 8
3.4660001 -0.83200002 -1.859 8
0 0 0 0
1.526 -0.38699999 -0.99400002 3
3.017 -0.755 -1.868 7
3.1689999 -0.78299999 -1.864 7
3.329 -0.81400001 -1.8609999 8
3.4979999 -0.847 -1.858 8
0 0 0 0
1.643 -0.419 -1.0599999 3
3.046 -0.76700002 -1.867 7
3.2030001 -0.79799998 -1.8660001 7
3.3670001 -0.82999998 -1.864 8
3.5339999 -0.86199999 -1.858 7
0 0 0 0
0 0 0 0
3.0829999 -0.78200001 -1.8710001 7
3.2379999 -0.81199998 -1.867 7
3.411 -0.84600002 -1.868 8
3.5829999 -0.88099998 -1.864 7
0 0 0 0
2.957 -0.76499999 -1.87 7
3.1110001 -0.79400003 -1.869 7
3.27 -0.82499999 -1.8660001 7
3.4349999 -0.85799998 -1.862 8
3.612 -0.89399999 -1.859 8
0 0 0 0
2.9909999 -0.778 -1.8710001 7
3.1459999 -0.80800003 -1.87 7
3.3099999 -0.84100002 -1.869 8
3.474 -0.87300003 -1.862 8
3.658 -0.91100001 -1.8609999 8
1.515 -0.40099999 -0.98699999 2
3.023 -0.79000002 -1.8710001 7
3.1819999 -0.82200003 -1.87 7
3.3380001 -0.852 -1.864 8
3.5179999 -0.889 -1.864 8
3.698 -0.92699999 -1.86 9
1.673 -0.44499999 -1.0779999 9
3.053 -0.80199999 -1.868 7
3.217 -0.83499998 -1.869 7
3.3870001 -0.86900002 -1.868 8
3.556 -0.90399998 -1.862 8
3.73 -0.94 -1.854 8
1.483 -0.396 -0.94499999 0
3.0899999 -0.815 -1.869 7
3.2460001 -0.84600002 -1.864 8
3.425 -0.88300002 -1.867 8
3.605 -0.921 -1.865 8
3.779 -0.95700002 -1.854 8
2.9749999 -0.79799998 -1.873 6
3.128 -0.82800001 -1.87 7
3.2920001 -0.86199999 -1.868 8
3.464 -0.89700001 -1.865 9
3.6459999 -0.935 -1.862 8
3.832 -0.97500002 -1.8559999 8
3.006 -0.80900002 -1.87 7
3.1670001 -0.84100002 -1.87 8
3.3329999 -0.875 -1.868 8
3.5150001 -0.91399997 -1.869 9
3.6849999 -0.949 -1.859 8
3.8829999 -0.99199998 -1.857 9
3.046 -0.82200003 -1.8710001 7
3.2090001 -0.85500002 -1.8710001 8
3.382 -0.89099997 -1.8710001 8
3.5539999 -0.92699999 -1.8660001 9
3.7379999 -0.96600002 -1.8609999 8
3.9389999 -1.01 -1.858 8
3.0880001 -0.83499998 -1.873 7
3.2460001 -0.86699998 -1.868 9
3.425 -0.90499997 -1.8710001 9
3.598 -0.94099998 -1.864 8
3.786 -0.98199999 -1.859 8
3.9960001 -1.028 -1.859 10
3.1229999 -0.84600002 -1.869 7
3.2909999 -0.88099998 -1.869 8
3.471 -0.91900003 -1.87 9
3.6440001 -0.95599997 -1.862 9
3.839 -0.99800003 -1.858 9
4.059 -1.0470001 -1.8609999 10
3.161 -0.85799998 -1.867 7
3.336 -0.89499998 -1.869 8
3.5109999 -0.93199998 -1.8660001 9
3.691 -0.97000003 -1.859 8
3.8959999 -1.015 -1.86 9
4.1129999 -1.064 -1.858 9
3.2090001 -0.87199998 -1.869 7
3.3859999 -0.90899998 -1.8710001 9
3.5680001 -0.94800001 -1.869 8
3.7550001 -0.98900002 -1.864 9
3.9560001 -1.033 -1.8609999 9
4.1869998 -1.085 -1.863 9
3.26 -0.88599998 -1.872 8
3.4300001 -0.92199999 -1.869 9
3.6240001 -0.96399999 -1.872 9
3.8010001 -1.002 -1.86 9
4.0209999 -1.051 -1.863 9
4.2449999 -1.102 -1.86 9
3.302 -0.898 -1.87 7
3.483 -0.93699998 -1.87 9
3.6670001 -0.977 -1.8660001 8
3.858 -1.018 -1.86 9
4.079 -1.068 -1.8609999 10
4.309 -1.12 -1.858 10
3.3540001 -0.912 -1.872 8
3.53 -0.94999999 -1.868 9
3.7260001 -0.99299997 -1.868 9
3.918 -1.034 -1.86 8
4.152 -1.087 -1.864 10
4.3870001 -1.141 -1.8609999 10
3.4059999 -0.926 -1.872 8
3.5880001 -0.96499997 -1.87 9
3.7720001 -1.005 -1.862 9
3.99 -1.054 -1.864 10
4.2160001 -1.105 -1.863 9
4.4559999 -1.159 -1.859 10
3.457 -0.93900001 -1.872 8
3.6440001 -0.97899997 -1.87 10
3.8329999 -1.02 -1.863 9
4.0479999 -1.068 -1.8609999 10
4.283 -1.122 -1.862 11
4.5320001 -1.179 -1.859 10
3.5120001 -0.95300001 -1.872 8
3.6989999 -0.99299997 -1.869 9
3.892 -1.035 -1.8609999 9
4.1230001 -1.0880001 -1.865 10
4.355 -1.14 -1.8609999 11
4.6069999 -1.198 -1.858 9
3.5650001 -0.96499997 -1.8710001 9
3.756 -1.007 -1.867 9
3.9649999 -1.054 -1.8660001 9
4.1929998 -1.105 -1.865 10
4.4299998 -1.159 -1.8609999 10
4.6919999 -1.219 -1.859 11
3.6210001 -0.97899997 -1.87 8
3.8139999 -1.021 -1.8660001 9
4.0339999 -1.0700001 -1.8660001 10
4.256 -1.12 -1.8609999 11
4.506 -1.177 -1.859 10
4.7740002 -1.239 -1.857 10
3.6819999 -0.99299997 -1.8710001 8
3.8770001 -1.036 -1.865 9
4.1079998 -1.0880001 -1.869 10
4.3330002 -1.138 -1.862 11
4.5809999 -1.1950001 -1.857 10
4.8709998 -1.262 -1.859 11
3.7420001 -1.006 -1.87 8
3.938 -1.049 -1.862 9
4.1700001 -1.101 -1.864 10
4.414 -1.1569999 -1.863 10
4.6729999 -1.216 -1.86 11
4.9569998 -1.2819999 -1.857 11
3.799 -1.0190001 -1.867 8
4.0110002 -1.0650001 -1.864 10
4.2519999 -1.12 -1.868 11
4.4910002 -1.174 -1.862 10
4.7579999 -1.235 -1.858 11
5.0580001 -1.3049999 -1.858 10
3.865 -1.033 -1.867 8
4.085 -1.082 -1.8660001 10
4.3189998 -1.1339999 -1.864 11
4.566 -1.1900001 -1.858 10
4.8610001 -1.2589999 -1.862 11
5.1599998 -1.3279999 -1.858 11
3.9360001 -1.048 -1.868 8
4.1620002 -1.098 -1.867 10
4.408 -1.154 -1.867 11
4.6669998 -1.212 -1.863 10
4.9419999 -1.275 -1.857 11
5.2589998 -1.349 -1.8559999 10
4.0019999 -1.061 -1.8660001 9
4.2470002 -1.1160001 -1.8710001 11
4.4889998 -1.17 -1.8660001 11
4.7550001 -1.23 -1.862 10
5.0479999 -1.298 -1.859 11
5.368 -1.372 -1.855 11
4.079 -1.076 -1.867 10
4.3150001 -1.1289999 -1.8660001 11
4.5640001 -1.1849999 -1.8609999 10
4.8509998 -1.25 -1.862 10
5.1560001 -1.3200001 -1.86 11
5.4619999 -1.39 -1.847 11
4.1529999 -1.091 -1.867 9
4.3979998 -1.145 -1.8660001 11
4.6550002 -1.2029999 -1.8609999 10
4.9489999 -1.27 -1.862 11
5.2600002 -1.341 -1.858 11
5.5960002 -1.418 -1.851 11
4.2379999 -1.107 -1.869 9
4.4780002 -1.16 -1.863 10
4.75 -1.221 -1.862 10
5.0560002 -1.291 -1.863 10
5.375 -1.364 -1.858 10
5.7249999 -1.444 -1.853 11
4.3169999 -1.1210001 -1.868 10
4.5669999 -1.176 -1.863 11
4.8499999 -1.24 -1.863 10
5.1630001 -1.311 -1.863 10
5.4749999 -1.381 -1.852 11
5.8460002 -1.467 -1.849 11
4.4000001 -1.136 -1.867 10
4.6539998 -1.192 -1.8609999 10
4.9629998 -1.261 -1.867 11
5.256 -1.327 -1.857 10
5.6209998 -1.41 -1.86 11
5.9980001 -1.497 -1.854 11
4.4840002 -1.15 -1.8660001 10
4.756 -1.21 -1.864 11
5.0640001 -1.279 -1.8660001 11
5.3740001 -1.348 -1.857 12
5.7399998 -1.432 -1.8559999 11
6.1300001 -1.521 -1.85 11
4.5710001 -1.164 -1.864 9
4.8520002 -1.226 -1.863 11
5.1609998 -1.295 -1.8609999 10
5.493 -1.369 -1.8559999 11
5.8769999 -1.456 -1.857 11
6.2779999 -1.5470001 -1.849 10
4.6620002 -1.179 -1.862 10
4.9549999 -1.243 -1.862 11
5.276 -1.314 -1.862 11
5.625 -1.392 -1.858 11
6.0089998 -1.478 -1.854 11
6.428 -1.573 -1.846 10
4.7600002 -1.194 -1.863 10
5.0650001 -1.261 -1.863 11
5.381 -1.33 -1.857 11
5.7589998 -1.415 -1.86 11
6.1479998 -1.502 -1.852 11
6.5879998 -1.601 -1.845 11
4.8590002 -1.209 -1.862 10
5.1669998 -1.276 -1.86 11
5.5100002 -1.352 -1.859 11
5.8920002 -1.436 -1.858 10
6.3080001 -1.529 -1.854 11
6.7600002 -1.63 -1.844 11
4.9580002 -1.223 -1.86 10
5.277 -1.2920001 -1.858 11
5.6430001 -1.373 -1.86 11
6.0240002 -1.456 -1.854 11
6.46 -1.552 -1.85 11
6.9380002 -1.659 -1.8430001 10
5.0749998 -1.2410001 -1.862 10
5.4050002 -1.312 -1.86 10
5.7750001 -1.392 -1.86 10
6.1739998 -1.479 -1.854 10
6.6160002 -1.576 -1.847 10
7.1209998 -1.688 -1.84 11
5.1989999 -1.2589999 -1.8660001 10
5.5229998 -1.3279999 -1.858 11
5.915 -1.413 -1.859 11
6.3299999 -1.503 -1.854 11
6.7870002 -1.602 -1.845 11
7.323 -1.72 -1.84 11
5.3130002 -1.274 -1.864 11
5.652 -1.345 -1.857 11
6.0549998 -1.432 -1.857 11
6.4850001 -1.524 -1.851 11
6.9749999 -1.631 -1.845 11
7.5479999 -1.756 -1.8430001 10
5.4200001 -1.286 -1.859 9
5.7810001 -1.362 -1.855 12
6.1830001 -1.447 -1.85 11
6.6370001 -1.544 -1.846 11
7.1609998 -1.6569999 -1.844 11
7.7600002 -1.7869999 -1.84 11
5.5500002 -1.303 -1.8609999 10
5.9260001 -1.381 -1.8559999 11
6.3540001 -1.471 -1.854 11
6.8169999 -1.569 -1.847 10
7.3839998 -1.691 -1.848 10
7.9749999 -1.817 -1.836 11
5.6789999 -1.318 -1.859 10
6.0570002 -1.396 -1.851 11
6.493 -1.487 -1.847 11
7.0029998 -1.594 -1.846 12
7.5840001 -1.717 -1.844 10
8.2069998 -1.849 -1.831 11
5.8080001 -1.332 -1.857 10
6.211 -1.415 -1.852 11
6.6690001 -1.51 -1.848 11
7.1890001 -1.618 -1.844 11
7.7880001 -1.743 -1.839 10
8.4499998 -1.882 -1.8279999 11
5.9450002 -1.347 -1.8559999 10
6.3579998 -1.431 -1.849 11
6.8410001 -1.53 -1.846 11
7.3979998 -1.6440001 -1.844 10
8.007 -1.77 -1.835 11
8.7150002 -1.9170001 -1.825 11
6.105 -1.3660001 -1.858 11
6.5120001 -1.447 -1.845 11
7.033 -1.552 -1.846 11
7.599 -1.6670001 -1.84 10
8.25 -1.8 -1.832 11
8.9809999 -1.95 -1.818 11
6.2399998 -1.377 -1.852 10
6.678 -1.464 -1.8430001 12
7.2080002 -1.5700001 -1.84 12
7.8169999 -1.693 -1.8380001 11
8.4910002 -1.829 -1.8279999 11
9.2740002 -1.988 -1.8150001 11
6.3940001 -1.392 -1.851 11
6.8460002 -1.48 -1.839 11
7.421 -1.594 -1.842 11
8.0380001 -1.716 -1.834 11
8.7410002 -1.8559999 -1.822 11
9.5640001 -2.0220001 -1.808 11
6.559 -1.4069999 -1.85 11
7.0450001 -1.501 -1.841 11
7.632 -1.6160001 -1.84 10
8.2720003 -1.7410001 -1.83 11
9.0270004 -1.8890001 -1.8200001 11
9.8780003 -2.0569999 -1.801 11
6.7259998 -1.421 -1.847 11
7.263 -1.524 -1.846 10
7.8449998 -1.636 -1.836 10
8.5220003 -1.766 -1.826 11
9.3170004 -1.921 -1.8150001 11
10.224 -2.098 -1.796 11
6.8930001 -1.433 -1.8430001 11
7.447 -1.538 -1.84 10
8.0690002 -1.656 -1.832 11
8.7770004 -1.791 -1.821 11
9.6140003 -1.951 -1.809 11
10.583 -2.1370001 -1.789 11
7.0869999 -1.449 -1.8430001 10
7.6560001 -1.5549999 -1.837 10
8.2980003 -1.675 -1.827 10
9.0679998 -1.8200001 -1.8200001 12
9.9230003 -1.98 -1.801 11
10.972 -2.1789999 -1.783 11
7.3049998 -1.469 -1.848 10
7.8709998 -1.572 -1.834 11
8.5530005 -1.697 -1.825 12
9.3369999 -1.842 -1.812 11
10.261 -2.013 -1.795 12
11.386 -2.2219999 -1.777 11
7.4879999 -1.479 -1.842 10
8.0889997 -1.587 -1.83 11
8.8100004 -1.717 -1.821 11
9.6289997 -1.8660001 -1.804 11
10.617 -2.046 -1.788 11
11.815 -2.2650001 -1.7690001 11
7.691 -1.4910001 -1.839 10
8.3249998 -1.603 -1.826 11
9.0769997 -1.737 -1.8150001 11
9.9610004 -1.895 -1.801 11
10.994 -2.079 -1.78 11
12.292 -2.313 -1.762 12
7.9050002 -1.5039999 -1.835 11
8.5629997 -1.617 -1.821 11
9.3640003 -1.757 -1.811 11
10.283 -1.918 -1.793 12
11.411 -2.1170001 -1.775 11
12.787 -2.3599999 -1.753 12
8.1239996 -1.515 -1.831 10
8.8290005 -1.6339999 -1.818 12
9.665 -1.777 -1.806 12
10.646 -1.946 -1.788 13
11.836 -2.151 -1.767 11
13.311 -2.4070001 -1.742 11
8.3509998 -1.525 -1.826 11
9.0909996 -1.648 -1.813 12
9.9680004 -1.795 -1.798 11
11.021 -1.973 -1.781 11
12.302 -2.1889999 -1.76 12
13.853 -2.4530001 -1.728 11
8.6059999 -1.5369999 -1.824 11
9.3710003 -1.6619999 -1.807 12
10.297 -1.814 -1.7920001 12
11.424 -2 -1.774 12
12.796 -2.2279999 -1.752 11
14.485 -2.5079999 -1.719 12
8.8610001 -1.5470001 -1.8200001 12
9.6529999 -1.674 -1.8 11
10.64 -1.8329999 -1.784 12
11.854 -2.029 -1.768 12
13.306 -2.263 -1.74 11
15.163 -2.5650001 -1.7079999 11
9.125 -1.556 -1.816 11
9.9610004 -1.686 -1.794 12
11.009 -1.851 -1.777 12
12.294 -2.0539999 -1.758 12
13.847 -2.299 -1.728 11
15.925 -2.6289999 -1.699 11
9.3909998 -1.563 -1.809 12
10.28 -1.698 -1.7869999 12
11.418 -1.873 -1.773 12
12.773 -2.0810001 -1.75 12
14.446 -2.3399999 -1.717 12
16.725 -2.6930001 -1.687 10
9.6809998 -1.5700001 -1.803 12
10.625 -1.71 -1.7819999 12
11.827 -1.89 -1.765 12
13.253 -2.1040001 -1.7359999 11
15.126 -2.3859999 -1.7079999 11
17.646999 -2.766 -1.677 11
9.9700003 -1.573 -1.795 11
10.986 -1.721 -1.775 13
12.27 -1.908 -1.757 12
13.803 -2.132 -1.726 12
15.844 -2.431 -1.697 11
18.566 -2.832 -1.658 13
10.301 -1.58 -1.791 12
11.37 -1.7309999 -1.768 13
12.73 -1.923 -1.747 12
14.375 -2.1570001 -1.714 11
16.632 -2.4790001 -1.686 10
19.656 -2.911 -1.6440001 14
10.635 -1.584 -1.784 12
11.778 -1.74 -1.761 12
13.208 -1.936 -1.735 12
15.019 -2.1860001 -1.704 12
17.474001 -2.526 -1.6720001 11
20.802 -2.9890001 -1.624 16
10.989 -1.587 -1.778 11
12.209 -1.749 -1.7539999 12
13.733 -1.952 -1.725 12
15.759 -2.223 -1.699 11
18.379999 -2.5739999 -1.656 12
22.083 -3.072 -1.602 18
11.353 -1.587 -1.77 12
12.64 -1.752 -1.743 12
14.297 -1.966 -1.715 13
16.478001 -2.2490001 -1.684 10
19.382 -2.6259999 -1.6390001 14
23.429001 -3.1530001 -1.573 20
11.744 -1.587 -1.7640001 12
13.111 -1.757 -1.734 12
14.876 -1.976 -1.702 13
17.261999 -2.276 -1.67 11
20.464001 -2.678 -1.6210001 15
24.896 -3.234 -1.538 13
12.147 -1.5829999 -1.755 12
13.594 -1.757 -1.722 13
15.559 -1.994 -1.6950001 12
18.198 -2.312 -1.6619999 12
21.691999 -2.7349999 -1.602 17
26.492001 -3.3150001 -1.497 8
12.574 -1.5779999 -1.7460001 12
14.134 -1.758 -1.712 14
16.306999 -2.0109999 -1.687 10
19.049999 -2.3299999 -1.638 13
22.937 -2.7820001 -1.574 19
28.938 -3.484 -1.487 31
13.014 -1.5700001 -1.7359999 12
14.68 -1.7539999 -1.699 12
17.025 -2.016 -1.671 10
20.061001 -2.355 -1.62 15
24.347 -2.835 -1.546 15
0 0 0 0
13.489 -1.561 -1.727 12
15.307 -1.7539999 -1.6900001 12
17.863001 -2.027 -1.66 12
21.277 -2.392 -1.608 17
25.806 -2.8759999 -1.505 9
0 0 0 0
13.99 -1.5470001 -1.715 12
16.007999 -1.753 -1.683 11
18.728001 -2.03 -1.643 13
22.427 -2.4070001 -1.58 18
27.530001 -2.9289999 -1.4680001 7
35.361 -3.727 -1.28 8
14.52 -1.531 -1.704 12
16.708 -1.744 -1.67 10
19.656 -2.029 -1.625 14
23.629 -2.4159999 -1.5470001 17
29.933001 -3.0309999 -1.448 32
39.488998 -3.961 -1.238 56
15.119 -1.516 -1.697 12
17.445 -1.73 -1.656 11
20.724001 -2.0339999 -1.6109999 16
25.087 -2.4360001 -1.52 10
31.660999 -3.0439999 -1.38 12
0 0 0 0
15.711 -1.493 -1.684 10
18.256001 -1.715 -1.643 12
21.820999 -2.027 -1.59 17
26.577999 -2.4419999 -1.483 8
34.799 -3.1630001 -1.351 15
43.007 -3.868 -0.94300002 16
16.4 -1.472 -1.678 10
19.107 -1.694 -1.627 13
22.912001 -2.007 -1.559 19
28.115 -2.434 -1.437 6
36.938 -3.161 -1.263 6
47.306999 -4.0050001 -0.82200003 16
17.099001 -1.443 -1.6670001 10
19.973 -1.664 -1.6059999 15
24.079 -1.9809999 -1.527 18
30.879 -2.5090001 -1.436 14
39.159 -3.1429999 -1.1619999 55
50.391998 -3.9960001 -0.64899999 2
17.809999 -1.406 -1.652 12
20.976999 -1.6339999 -1.589 16
25.448999 -1.956 -1.498 11
0 0 0 0
41.627998 -3.1170001 -1.051 41
55.082001 -4.0710001 -0.46900001 7
18.566 -1.3660001 -1.638 13
22.056 -1.599 -1.572 18
26.865999 -1.919 -1.462 7
34.582001 -2.4360001 -1.302 14
42.888 -2.9779999 -0.89600003 14
61.563 -4.2119999 -0.25799999 28
19.361 -1.316 -1.62 14
23.011 -1.539 -1.5369999 19
28.57 -1.881 -1.428 6
38.125 -2.471 -1.268 53
46.241001 -2.9519999 -0.76700002 13
82.764 -5.2030001 0.0020000001 12
20.257999 -1.2640001 -1.605 15
24.131001 -1.48 -1.507 20
31.336 -1.888 -1.432 30
38.902 -2.3050001 -1.13 55
45.634998 -2.6570001 -0.56699997 2
88.653 -5.0749998 0.368 17
21.141001 -1.199 -1.584 17
25.42 -1.415 -1.48 13
32.160999 -1.756 -1.336 25
40.419998 -2.165 -1.007 35
57.497002 -3.0239999 -0.47999999 10
91.442001 -4.7150002 0.74900001 6
22.136 -1.128 -1.5650001 18
26.771999 -1.337 -1.447 8
34.372002 -1.681 -1.288 36
41.209999 -1.973 -0.861 11
77.075996 -3.612 -0.33700001 6
70.519997 -3.234 0.85399997 36
23.049999 -1.0420001 -1.535 19
28.216 -1.2460001 -1.411 6
34.719002 -1.497 -1.1619999 43
35.034 -1.476 -0.59500003 8
34.994999 -1.438 -0.017000001 93
35.004002 -1.405 0.55699998 78
23.971001 -0.94400001 -1.501 20
29.549999 -1.1339999 -1.362 5
34.821999 -1.299 -1.031 71
34.958 -1.268 -0.45899999 125
35.056 -1.2359999 0.115 53
70.664001 -2.4200001 1.392 17
25.205999 -0.84399998 -1.48 11
31.981001 -1.035 -1.35 13
35 -1.098 -0.90200001 75
44.451 -1.348 -0.41600001 3
88.761002 -2.6010001 0.62300003 10
46.823002 -1.326 1.0930001 33
26.521999 -0.73000002 -1.456 7
34.136002 -0.903 -1.313 23
40.855999 -1.038 -0.90200001 30
46.806999 -1.14 -0.26699999 97
0 0 0 0
46.881001 -1.0470001 1.262 12
27.895 -0.59899998 -1.428 6
34.375 -0.704 -1.198 41
41.896999 -0.81400001 -0.77600002 4
77.122002 -1.42 -0.17 6
0 0 0 0
108.299 -1.771 3.29 33
28.997999 -0.449 -1.382 5
35.025002 -0.505 -1.098 0
0 0 0 0
78.023003 -0.963 0.096000001 27
0 0 0 0
114.661 -1.177 3.8699999 22
30.386 -0.28299999 -1.342 3
38.612 -0.31900001 -1.077 56
46.632999 -0.336 -0.542 14
79.195 -0.49200001 0.36199999 6
0 0 0 0
87.150002 -0.35600001 3.2279999 5
32.224998 -0.098999999 -1.313 1
39.535999 -0.079999998 -0.97000003 57
0 0 0 0
85.982002 0.001 0.67500001 45
86.149002 0.090999998 2.0710001 71
86.227997 0.178 3.467 14
34.050999 0.105 -1.277 20
37.249001 0.154 -0.79400003 150
37.186001 0.193 -0.192 9
0 0 0 0
91.067001 0.66500002 2.4719999 11
85.919998 0.71799999 3.72 12
34.125 0.31999999 -1.1720001 12
37.221001 0.38800001 -0.67799997 127
0 0 0 0
0 0 0 0
89.795998 1.224 2.71 19
59.464001 0.87400001 2.753 18
34.400002 0.54400003 -1.075 2
37.248001 0.62599999 -0.565 109
38.701 0.69300002 0.035999998 54
89.593002 1.699 1.524 25
58.034 1.159 1.92 47
58.276001 1.226 2.8659999 37
37.264999 0.82800001 -1.054 44
37.431 0.87 -0.458 56
38.633999 0.93699998 0.146 53
89.814003 2.2739999 1.781 30
57.723999 1.52 2.0710001 56
58.205002 1.595 3.023 45
38.702999 1.1059999 -0.98699999 53
38.352001 1.137 -0.36300001 81
38.742001 1.189 0.25299999 47
57.629002 1.83 1.3 29
57.522999 1.888 2.22 55
58.212002 1.973 3.1800001 25
38.924 1.368 -0.88499999 53
38.376999 1.39 -0.25799999 81
38.847 1.446 0.35800001 17
55.272999 2.1159999 1.3940001 28
35.009998 1.378 1.443 40
34.716 1.402 1.9859999 109
34.765999 1.45 -0.699 29
34.707001 1.4809999 -0.145 109
34.693001 1.515 0.40700001 130
34.736 1.552 0.96200001 18
34.689999 1.5880001 1.515 28
34.348 1.609 2.049 15
0 0 0 0
53.794998 2.6459999 -0.093000002 2
44.008999 2.21 0.62300003 65
43.971001 2.253 1.323 4
58.214001 3.0480001 2.6819999 53
58.219002 3.112 3.612 20
39.624001 2.1730001 -0.60299999 4
44.104 2.4619999 0.027000001 108
44.557999 2.533 0.736 17
55.681999 3.2249999 1.806 5
58.352001 3.4400001 2.8210001 33
58.299 3.503 3.75 6
0 0 0 0
55.611 3.477 0.161 82
44.368 2.8199999 0.833 44
55.754002 3.6029999 1.932 2
107.507 7.0599999 5.4349999 15
107.677 7.1900001 7.1589999 29
43.505001 2.967 -0.46799999 49
44.259998 3.0650001 0.22400001 37
45.660999 3.2090001 0.954 15
0 0 0 0
107.529 7.7839999 5.6609998 15
107.178 7.8779998 7.348 32
44.237999 3.3180001 -0.384 60
45.474998 3.457 0.322 75
45.743 3.5220001 1.048 53
89.399002 6.9790001 3.464 16
106.868 8.4540005 5.836 25
0 0 0 0
44.101002 3.608 -0.296 2
45.868999 3.799 0.414 2
45.851002 3.842 1.138 49
89.622002 7.6059999 3.6429999 25
107.583 9.2419996 6.0780001 12
109.885 9.5629997 7.9530001 12
45.842999 4.0609999 -0.22400001 18
45.848 4.1069999 0.49700001 5
90.055 8.1599998 2.3970001 16
0 0 0 0
0 0 0 0
0 0 0 0
43.446999 4.1479998 -0.13699999 7
46.006001 4.4359999 0.57700002 27
88.893997 8.658 2.516 18
88.818001 8.7440004 3.9170001 10
0 0 0 0
0 0 0 0
51.674 5.2870002 -0.079999998 9
0 0 0 0
89.422997 9.3240004 2.6719999 17
0 0 0 0
0 0 0 0
70.197998 7.5469999 5.4260001 13
44.377998 4.848 -0.0020000001 51
44.362 4.8889999 0.69400001 60
90.433998 10.059 2.8369999 32
0 0 0 0
70.591003 8.0030003 4.4419999 30
71.925003 8.2360001 5.665 41
47.280998 5.5 0.064999998 3
44.449001 5.2140002 0.75800002 28
89.847 10.63 2.944 8
71.485001 8.5319996 3.4679999 30
71.779999 8.6459999 4.6149998 12
0 0 0 0
0 0 0 0
44.537998 5.5419998 0.81699997 50
44.515999 5.5809999 1.515 28
70.148003 8.8690004 3.4920001 41
69.894997 8.9099998 4.5819998 16
69.596001 8.9510002 5.6620002 6
44.639999 5.823 0.171 58
44.648998 5.8670001 0.87 32
44.616001 5.9070001 1.569 15
70.155998 9.3590002 3.5710001 17
69.735001 9.3789997 4.6490002 38
68.842003 9.3400002 5.6799998 28
69.875 9.6120005 0.34299999 34
44.727001 6.1950002 0.91900003 57
44.695 6.2350001 1.619 29
70.237 9.868 3.6489999 32
70.153 9.9329996 4.75 20
69.940002 9.9820004 5.8410001 33
69.509003 10.056 0.40599999 38
44.806999 6.5240002 0.96200001 45
70.403999 10.32 2.6159999 49
71.066002 10.494 3.7590001 15
69.440002 10.326 4.7670002 32
71.982002 10.783 6.079 16
70.083 10.642 0.46900001 33
44.898998 6.8590002 1.002 2
85.030998 13.073 3.2309999 5
70.157997 10.855 3.7679999 14
69.237 10.788 4.809 9
69.390999 10.892 5.9159999 21
35.365002 5.625 0.26300001 63
35.313999 5.6490002 0.81400001 51
35.321999 5.684 1.368 34
35.331001 5.7199998 1.923 37
35.256001 5.7459998 2.474 29
35.151001 5.77 3.0220001 36
35.401001 5.8850002 0.28400001 6
42.300999 7.0700002 1.001 2
35.306 5.9330001 1.388 9
69.764 11.799 3.839 25
82.526001 14.043 5.8410001 14
80.071999 13.72 6.934 14
41.424 7.1890001 0.354 5
40.68 7.0939999 0.98299998 15
93.613998 16.415001 3.7290001 29
81.509003 14.375 4.527 31
69.625999 12.351 4.9640002 35
69.545998 12.417 6.0560002 13
41.153 7.441 0.36700001 17
40.777 7.4099998 1.002 38
41.140999 7.513 1.655 3
61.125999 11.224 3.4200001 38
82.163002 15.176 5.8909998 29
79.074997 14.696 6.9180002 17
40.948002 7.7030001 0.377 18
40.595001 7.6719999 1.008 48
41.040001 7.7940001 1.6619999 5
60.301998 11.51 3.3900001 30
82.371002 15.814 5.9299998 15
68.393997 13.209 6.0050001 8
40.562 7.9289999 0.38100001 42
40.513 7.9530001 1.013 60
40.34 7.9569998 1.641 11
60.021 11.895 3.3859999 33
83.513 16.639999 6.027 7
55.865002 11.195 4.914 26
40.629002 8.243 0.384 32
40.293999 8.2089996 1.011 59
40.615002 8.3109999 1.655 9
40.099998 8.2449999 2.2639999 1
56.036999 11.578 4.0479999 2
57.417999 11.929 5.0560002 4
41.612 8.7519999 0.391 7
40.210999 8.4910002 1.007 58
40.516998 8.5889997 1.65 16
59.831001 12.742 3.3770001 36
55.830002 11.949 4.0320001 3
56.757 12.209 4.9970002 10
40.831001 8.8889999 0.37599999 1
40.426998 8.8310003 1.005 39
39.823002 8.7329998 1.615 3
55.808998 12.295 3.141 29
79.347 17.566 5.7210002 4
79.392998 17.663 6.9819999 18
39.951 8.9940004 0.35699999 1
40.097 9.059 0.986 59
40.436001 9.1700001 1.6289999 4
83.283997 18.966999 4.6680002 5
81.448997 18.634001 5.8509998 15
55.384998 12.73 4.8559999 27
40.312 9.3780003 0.345 5
40.056 9.3470001 0.97100002 60
39.521 9.2559996 1.5779999 3
55.519001 13.055 3.092 37
90.115997 21.284 6.4429998 28
94.528 22.431999 8.257 31
44.193001 10.614 0.35600001 11
40.117001 9.665 0.95200002 58
40.275002 9.7360001 1.589 10
90.679001 22.000999 5.0089998 24
55.924999 13.626 3.973 19
93.235001 22.815001 8.1040001 35
0 0 0 0
40.313999 10.012 0.93199998 37
40.043999 9.9770002 1.556 6
93.549004 23.393 5.1149998 19
90.725998 22.774 6.3979998 6
56.164001 14.163 4.8509998 5
44.097 11.25 0.296 22
40.706001 10.413 0.912 1
89.628998 22.997 3.4230001 5
88.571999 22.805 4.7820001 40
90.100998 23.284 6.2930002 20
90.136002 23.392 7.7270002 35
42.846001 11.249 0.252 52
65.596001 17.267 1.4170001 7
91.919998 24.263 3.437 22
88.907997 23.547001 4.73 42
88.973 23.655001 6.1469998 26
90.223999 24.086 7.6690001 39
42.698002 11.534 0.20999999 64
67.389999 18.249001 1.393 47
67.088997 18.215 2.447 9
89.336998 24.332001 4.6739998 11
88.523003 24.195999 6.0359998 33
90.302002 24.784 7.598 26
42.523998 11.808 0.16500001 45
65.435997 18.208 1.2869999 9
65.399002 18.246 2.3210001 16
89.906998 25.16 4.6149998 43
89.917999 25.249001 6.0450001 25
93.665001 26.400999 7.79 33
42.139 12.018 0.114 68
67.042999 19.164 1.242 21
77.544998 22.218 2.6619999 12
89.231003 25.639 4.4840002 35
92.925003 26.788 6.1490002 35
93.815002 27.143 7.7049999 19
41.691002 12.205 0.059999999 58
91.393997 26.809 1.5779999 26
77.060997 22.658001 2.552 40
76.986 22.701 3.776 40
90.022003 26.628 5.8499999 6
91.160004 27.059999 7.3800001 39
41.339001 12.419 0.001 49
67.560997 20.334 1.073 6
48.666 14.677 1.5470001 1
76.456001 23.118999 3.6470001 41
77.417 23.475 4.9299998 11
35.987 10.949 2.8670001 13
41.375 12.74 -0.059 52
44.041 13.585 0.63599998 3
48.424999 14.966 1.471 53
76.331001 23.649 3.536 37
36.165001 11.237 2.253 27
35.98 11.214 2.819 28
41.222 13.005 -0.124 56
43.495998 13.744 0.56 9
36.165001 11.451 1.043 24
36.123001 11.464 1.618 33
36.500999 11.614 2.22 26
36.638 11.694 2.8169999 22
35.995998 11.631 -0.17 86
35.994999 11.647 0.40200001 81
36.084999 11.695 0.98000002 33
66.943001 21.740999 2.892 5
66.877998 21.777 3.961 7
90.580002 29.584 6.8210001 26
41.131001 13.598 -0.26899999 48
42.328999 14.012 0.398 31
47.558998 15.768 1.21 15
66.668999 22.152 2.767 6
76.421997 25.455999 4.3990002 31
89.310997 29.83 6.5809999 37
41.015999 13.871 -0.34599999 61
42.244999 14.303 0.31900001 32
47.182999 15.997 1.114 15
47.285999 16.063999 1.875 1
76.260002 25.968 4.2519999 36
89.040001 30.399 6.4029999 41
0 0 0 0
41.945999 14.519 0.234 38
88.096001 30.531 1.909 29
76.127998 26.431 2.875 27
75.705002 26.343 4.0799999 37
89.013 31.051001 6.237 35
39.310001 13.889 -0.495 31
42.299999 14.958 0.147 21
87.445 30.958 1.714 34
46.967999 16.656 1.678 11
74.263 26.391001 3.8529999 8
87.535004 31.186001 5.9640002 30
38.992001 14.071 -0.57700002 43
44.896 16.214001 0.057999998 8
66.293999 23.969999 1.156 2
46.730999 16.92 1.571 53
73.350998 26.608 3.6559999 30
87.740997 31.909 5.7940001 34
37.331001 13.752 -0.63999999 4
43.960999 16.207001 -0.041999999 23
51.632 19.055 0.78500003 10
47.029999 17.382 1.477 36
73.328003 27.150999 3.4920001 31
0 0 0 0
35.588001 13.381 -0.69700003 7
42.824001 16.110001 -0.146 23
0 0 0 0
61.537998 23.201 1.791 27
72.917 27.539 3.3080001 34
88.043999 33.325001 5.428 11
35.536999 13.632 -0.787 14
41.833 16.052 -0.24699999 31
50 19.201 0.51599997 39
60.585999 23.292 1.614 4
73.418999 28.267 3.155 13
87.152 33.624001 5.1669998 25
33.835999 13.234 -0.838 6
41.078999 16.068001 -0.347 26
49.485001 19.368999 0.38699999 42
60.68 23.773001 1.467 16
60.763 23.841999 2.4619999 7
85.635002 33.671001 4.868 37
33.873001 13.501 -0.93300003 7
39.763 15.85 -0.44499999 32
0 0 0 0
50.550999 20.18 1.09 10
60.688999 24.261 2.303 12
85.313004 34.162998 4.638 22
31.745001 12.891 -0.96399999 6
39.188 15.911 -0.546 31
0 0 0 0
50.568001 20.554001 0.95499998 22
73.942001 30.093 2.6110001 34
58.525002 23.858999 3.0280001 3
30.233999 12.503 -1.006 4
35.866001 14.828 -0.602 5
43.682999 18.065001 -0.015 15
50.814999 21.025999 0.81900001 3
59.091 24.479 1.925 3
57.358002 23.797001 2.8150001 9
28.795 12.121 -1.046 4
35.749001 15.042 -0.70700002 13
42.737 17.983 -0.139 19
50.761002 21.372 0.671 4
73.072998 30.795 2.175 26
56.658001 23.915001 2.6229999 19
27.863001 11.934 -1.098 6
34.054001 14.58 -0.778 8
0 0 0 0
49.708 21.292 0.50800002 8
85.288002 36.563 2.2869999 20
56.183998 24.118999 2.4360001 4
15.463 6.737 -0.66000003 0
33.761002 14.703 -0.87900001 9
39.721001 17.295 -0.373 32
47.870998 20.851 0.34400001 8
63.441002 27.655001 1.5089999 3
56.428001 24.629 2.2780001 10
12.099 5.3610001 -0.55599999 51
11.881 5.2600002 -0.34799999 27
11.969 5.2989998 -0.15099999 53
11.951 5.2919998 0.048 62
11.449 5.073 0.236 7
55.540001 24.636 2.0739999 8
11.502 5.1810002 -0.56800002 0
11.539 5.1929998 -0.377 0
11.597 5.2179999 -0.184 150
13.308 5.9879999 0.0099999998 65
13.442 6.052 0.235 3
63.287998 28.523001 2.1630001 13
10.726 4.9099998 -0.56699997 11
0 0 0 0
10.722 4.901 -0.207 3
10.686 4.8839998 -0.027000001 15
10.752 4.9169998 0.152 10
57.331001 26.242001 1.773 50
10.239 4.7620001 -0.57800001 17
10.236 4.7550001 -0.40599999 9
10.252 4.7589998 -0.233 19
10.25 4.757 -0.061000001 1
10.186 4.7290001 0.109 2
84.027 39.050999 2.319 8
13.536 6.3920002 -0.81400001 47
11.621 5.4809999 -0.50199997 71
10.168 4.7930002 -0.26800001 16
14.173 6.678 -0.134 26
36.651001 17.273001 0.27000001 39
36.567001 17.243999 0.884 18
0 0 0 0
10.702 5.1240001 -0.50300002 10
30.327 14.507 -0.90899998 3
14.038 6.7119999 -0.183 6
15.83 7.5689998 0.061000001 0
15.796 7.5570002 0.32699999 8
9.3389997 4.5440001 -0.63300002 6
9.3459997 4.54 -0.47400001 6
9.3439999 4.5349998 -0.315 6
9.3219995 4.5209999 -0.155 6
9.2989998 4.5089998 0.0020000001 2
9.3529997 4.539 0.16 8
9.0410004 4.4619999 -0.648 6
9.04 4.4549999 -0.493 5
9.0450001 4.4520001 -0.33899999 6
9.0290003 4.441 -0.184 6
9.099 4.4749999 -0.030999999 14
9.1569996 4.5040002 0.123 0
8.7530003 4.381 -0.66299999 7
8.757 4.3759999 -0.51200002 6
8.7589998 4.3709998 -0.36199999 6
8.75 4.3629999 -0.211 5
8.7220001 4.3470001 -0.061999999 7
8.7019997 4.3390002 0.085000001 14
8.7060003 4.4190001 -0.69499999 10
8.6009998 4.3569999 -0.53799999 25
8.7939997 4.448 -0.39899999 22
8.6960001 4.3940001 -0.244 29
8.7159996 4.4029999 -0.094999999 4
44.306999 22.385 0.26899999 19
0 0 0 0
12.643 6.4899998 -0.84200001 40
9.2469997 4.7399998 -0.456 38
8.6750002 4.441 -0.278 24
16.638 8.5129995 -0.248 28
16.895 8.6440001 0.037999999 20
10.194 5.3119998 -0.89899999 38
12.422 6.4590001 -0.88 51
9.2639999 4.8099999 -0.495 5
8.6960001 4.5089998 -0.31299999 0
16.606001 8.6049995 -0.31299999 21
17.004 8.8100004 -0.028000001 21
10.265 5.4190001 -0.94999999 39
9.2180004 4.855 -0.69099998 0
8.6619997 4.553 -0.49900001 1
16.162001 8.4840002 -0.64899999 47
16.622 8.7189999 -0.38 14
17.122999 8.9790001 -0.094999999 17
10.217 5.461 -0.99000001 36
9.2469997 4.9299998 -0.73299998 47
8.6409998 4.598 -0.53299999 25
15.37 8.1669998 -0.68099999 45
16.263 8.6330004 -0.43799999 10
17.032 9.0369997 -0.163 4
0 0 0 0
9.2080002 4.9689999 -0.76999998 31
7.9060001 4.257 -0.52200001 21
7.881 4.237 -0.382 1
16.663 8.9499998 -0.51800001 150
16.660999 8.9440002 -0.228 54
7.8369999 4.2909999 -0.82999998 13
7.809 4.2639999 -0.68800002 10
7.7909999 4.244 -0.54799998 20
7.8070002 4.2459998 -0.412 16
7.7800002 4.2259998 -0.27399999 18
7.7729998 4.2189999 -0.138 17
9.3109999 5.1570001 -1.028 37
7.6160002 4.2069998 -0.70499998 19
7.6350002 4.2069998 -0.56999999 19
7.6459999 4.2049999 -0.43599999 19
7.6859999 4.2210002 -0.30399999 32
7.6810002 4.2150002 -0.169 32
9.1429996 5.1220002 -1.052 43
7.506 4.1919999 -0.72899997 19
7.5240002 4.191 -0.59600002 28
7.5380001 4.191 -0.463 19
7.6900001 4.2690001 -0.33700001 16
17.26 9.5740004 -0.45500001 39
9.1689997 5.1939998 -1.098 35
7.8610001 4.4390001 -0.80000001 52
12.162 6.848 -1.0190001 33
7.4590001 4.1919999 -0.49200001 1
7.5760002 4.25 -0.366 17
7.4260001 4.1620002 -0.228 17
8.474 4.8520002 -1.0549999 32
0 0 0 0
7.388 4.204 -0.653 0
7.349 4.1719999 -0.51800001 17
7.3600001 4.171 -0.38800001 15
7.3299999 4.1490002 -0.257 18
7.7360001 4.4759998 -1 13
0 0 0 0
7.277 4.1820002 -0.676 1
7.2389998 4.151 -0.54299998 29
7.2259998 4.1350002 -0.41299999 13
7.237 4.1360002 -0.285 17
7.2220001 4.2199998 -0.96799999 10
7.178 4.1789999 -0.83099997 11
7.1129999 4.1279998 -0.69400001 20
7.1259999 4.125 -0.56699997 20
7.1339998 4.1209998 -0.44 19
7.1290002 4.112 -0.31299999 18
7.388 4.3600001 -1.027 42
7.0310001 4.1329999 -0.847 1
7.0370002 4.1230001 -0.72000003 42
7.1170001 4.158 -0.59899998 48
7.0760002 4.125 -0.46799999 37
7.0799999 4.1209998 -0.34200001 34
7.0560002 4.2030001 -1.015 50
7.5739999 4.493 -0.949 0
10.484 6.1989999 -1.122 33
7.7690001 4.5809999 -0.69 18
12.692 7.4660001 -0.898 35
14.521 8.5270004 -0.76800001 24
6.842 4.1139998 -1.018 28
7.6420002 4.5749998 -0.995 42
10.454 6.2360001 -1.169 33
7.7690001 4.6199999 -0.727 11
12.164 7.2160001 -0.917 36
13.779 8.1590004 -0.792 33
6.6810002 4.052 -1.028 29
7.3979998 4.4679999 -0.99900001 44
10.141 6.1009998 -1.182 49
7.7649999 4.6570001 -0.76300001 2
11.579 6.9260001 -0.92699999 44
13.419 8.0109997 -0.83399999 39
6.506 3.98 -1.033 29
7.3210001 4.4590001 -1.025 40
10.126 6.1430001 -1.23 40
7.7649999 4.6950002 -0.80000001 0
11.513 6.9419999 -0.97600001 45
13.262 7.9790001 -0.884 39
6.3470001 3.915 -1.04 29
6.9679999 4.2779999 -1.01 42
8.9130001 5.4499998 -1.126 38
10.341 6.3010001 -1.1160001 37
11.479 6.9749999 -1.028 36
12.35 7.487 -0.88200003 31
6.118 3.8039999 -1.034 28
7.006 4.335 -1.051 43
7.691 4.7389998 -1.01 23
10.184 6.2519999 -1.148 30
10.854 6.6440001 -1.023 32
7.1370001 4.3579998 -0.54299998 0
5.9879999 3.7509999 -1.0420001 25
6.6389999 4.138 -1.029 40
7.5640001 4.6950002 -1.03 43
10.007 6.1869998 -1.176 31
10.494 6.4679999 -1.039 31
7.1290002 4.3829999 -0.57599998 0
6.0190001 3.799 -1.0779999 24
6.5100002 4.0869999 -1.0420001 38
7.4159999 4.6350002 -1.046 42
8.4589996 5.2659998 -1.035 16
10.384 6.4429998 -1.0779999 42
7.1129999 4.402 -0.60799998 1
5.9159999 3.76 -1.09 24
6.2870002 3.974 -1.038 44
7.2350001 4.552 -1.056 40
0 0 0 0
9.9870005 6.2360001 -1.084 35
7.105 4.4239998 -0.63999999 3
5.836 3.733 -1.105 24
6.2979999 4.006 -1.071 39
6.9720001 4.414 -1.052 53
7.5619998 4.7670002 -0.99900001 45
9.8839998 6.2090001 -1.12 35
7.1069999 4.4510002 -0.67400002 3
5.8070002 3.7379999 -1.1289999 26
6.1890001 3.961 -1.0829999 39
6.677 4.2519999 -1.04 45
7.461 4.7309999 -1.021 41
9.8900003 6.2470002 -1.168 42
7.1139998 4.4790001 -0.708 3
5.789 3.7490001 -1.156 27
5.9759998 3.8469999 -1.076 33
6.4920001 4.1570001 -1.044 39
7.2600002 4.6290002 -1.029 42
9.9969997 6.348 -1.228 32
7.105 4.4970002 -0.741 3
5.8390002 3.802 -1.1950001 25
5.8730001 3.8010001 -1.086 28
6.3850002 4.1110001 -1.057 37
7.0580001 4.5229998 -1.034 42
7.4619999 4.7620001 -0.95200002 13
7.1139998 4.5240002 -0.77499998 1
5.8319998 3.8180001 -1.223 24
5.8039999 3.776 -1.103 31
6.1599998 3.9849999 -1.05 37
6.7709999 4.3600001 -1.025 33
7.3850002 4.7350001 -0.97799999 38
7.086 4.527 -0.80500001 0
5.8369999 3.8399999 -1.2539999 23
5.7859998 3.7820001 -1.128 32
6.053 3.934 -1.061 36
6.552 4.237 -1.022 33
7.2950001 4.697 -1 35
7.0869999 4.546 -0.838 0
5.7930002 3.8280001 -1.273 26
5.8169999 3.819 -1.163 31
6.0029998 3.918 -1.082 34
6.4569998 4.1919999 -1.039 35
7.2449999 4.6830001 -1.027 34
0 0 0 0
5.8080001 3.8540001 -1.3049999 24
5.8200002 3.8369999 -1.192 32
5.8779998 3.852 -1.0880001 33
6.283 4.0949998 -1.041 34
7.0999999 4.6059999 -1.04 44
0 0 0 0
5.835 3.8870001 -1.341 25
5.8099999 3.8440001 -1.2180001 35
5.783 3.803 -1.098 33
6.151 4.0219998 -1.048 34
6.777 4.4099998 -1.025 41
0 0 0 0
5.8200002 3.8900001 -1.3660001 27
5.8179998 3.862 -1.248 34
5.789 3.819 -1.127 33
6.0349998 3.9579999 -1.057 32
6.6269999 4.3260002 -1.0319999 37
7.25 4.7119999 -0.991 37
5.8049998 3.8929999 -1.39 28
5.8200002 3.875 -1.276 33
5.8239999 3.852 -1.161 31
5.9520001 3.914 -1.069 30
6.427 4.2049999 -1.031 32
7.1750002 4.6739998 -1.0140001 32
5.842 3.928 -1.428 25
5.8270001 3.8889999 -1.3049999 32
5.895 3.9089999 -1.202 37
5.8520002 3.8570001 -1.079 26
6.3309999 4.151 -1.044 33
7.1230001 4.6490002 -1.039 32
5.8800001 3.9630001 -1.465 24
5.8400002 3.9070001 -1.336 32
5.9850001 3.977 -1.248 88
5.7919998 3.825 -1.094 31
6.2059999 4.0770001 -1.051 35
6.9549999 4.5469999 -1.045 35
5.8870001 3.9760001 -1.494 26
5.8210001 3.902 -1.358 32
6.0479999 4.0250001 -1.289 32
5.79 3.8299999 -1.119 31
6.052 3.9809999 -1.052 32
6.6719999 4.368 -1.0319999 42
5.8969998 3.9890001 -1.525 27
5.8039999 3.8959999 -1.381 32
5.8909998 3.9260001 -1.2819999 35
5.802 3.842 -1.148 28
5.9920001 3.9460001 -1.068 30
6.434 4.2160001 -1.023 35
5.9380002 4.0219998 -1.562 24
5.829 3.9170001 -1.413 30
5.8119998 3.8770001 -1.291 32
5.8670001 3.8889999 -1.186 32
5.8889999 3.8800001 -1.075 27
6.349 4.1620002 -1.0369999 30
5.9429998 4.0289998 -1.591 25
5.8720002 3.9489999 -1.45 28
5.8210001 3.8859999 -1.318 32
5.8660002 3.8889999 -1.211 36
5.7919998 3.8180001 -1.0829999 28
6.2540002 4.0999999 -1.048 31
5.915 4.0120001 -1.609 26
5.9060001 3.9719999 -1.484 29
5.829 3.891 -1.345 32
5.8140001 3.855 -1.225 34
5.7750001 3.806 -1.103 30
6.0869999 3.99 -1.045 29
5.8829999 3.9909999 -1.626 20
5.9229999 3.984 -1.513 34
5.8130002 3.8800001 -1.3660001 35
5.7810001 3.832 -1.242 33
5.7859998 3.812 -1.1289999 32
6.0229998 3.9460001 -1.059 28
5.8080001 3.938 -1.63 7
5.9250002 3.983 -1.539 27
5.8150001 3.8789999 -1.391 29
5.777 3.8269999 -1.265 32
5.803 3.819 -1.156 29
5.9959998 3.924 -1.0779999 26
5.756 3.901 -1.6390001 7
5.941 3.9909999 -1.567 30
5.8670001 3.9100001 -1.427 32
5.8140001 3.8469999 -1.2970001 30
5.8109999 3.8199999 -1.181 27
5.9029999 3.858 -1.085 26
5.7490001 3.892 -1.661 7
5.914 3.9679999 -1.584 28
5.882 3.915 -1.454 33
5.8299999 3.852 -1.323 28
5.802 3.8080001 -1.202 30
5.8109999 3.7909999 -1.09 25
5.7449999 3.8829999 -1.682 5
5.8909998 3.9460001 -1.601 32
5.9109998 3.927 -1.484 29
5.8559999 3.8610001 -1.351 30
5.8049998 3.803 -1.225 30
5.776 3.76 -1.1059999 27
5.744 3.875 -1.704 7
5.8790002 3.9300001 -1.62 24
5.9920001 3.973 -1.527 29
5.8390002 3.842 -1.37 26
5.7909999 3.7839999 -1.243 29
5.79 3.7609999 -1.13 30
5.7449999 3.8670001 -1.726 7
5.8340001 3.891 -1.6289999 10
5.9130001 3.9100001 -1.529 25
5.8429999 3.8340001 -1.392 29
5.8660002 3.822 -1.281 33
5.7909999 3.7509999 -1.151 31
5.7329998 3.849 -1.744 8
5.7690001 3.8369999 -1.632 7
5.9590001 3.9289999 -1.562 26
5.8969998 3.858 -1.426 28
5.8200002 3.7809999 -1.291 31
5.9000001 3.809 -1.194 27
5.6820002 3.803 -1.748 9
5.75 3.812 -1.647 7
5.9419999 3.905 -1.5779999 24
5.9419999 3.875 -1.457 30
5.8000002 3.7550001 -1.307 33
6.052 3.8929999 -1.245 29
5.6149998 3.7449999 -1.747 9
5.7420001 3.793 -1.664 7
5.941 3.8900001 -1.598 24
5.9559999 3.869 -1.4809999 31
5.8000002 3.74 -1.326 28
5.9489999 3.8110001 -1.244 27
5.5630002 3.6960001 -1.749 10
5.7350001 3.7739999 -1.681 7
5.9200001 3.8610001 -1.612 21
6.0219998 3.8959999 -1.517 27
5.8179998 3.7349999 -1.349 27
5.9770002 3.812 -1.2690001 27
5.5180001 3.6500001 -1.753 10
5.744 3.763 -1.702 8
5.908 3.835 -1.628 21
6.0300002 3.8829999 -1.538 29
5.8410001 3.733 -1.373 29
5.835 3.704 -1.257 26
5.467 3.5999999 -1.753 10
5.7490001 3.7490001 -1.721 8
5.8629999 3.7880001 -1.633 11
6.052 3.878 -1.562 29
5.8109999 3.6949999 -1.3839999 28
5.8379998 3.6860001 -1.276 28
5.4200001 3.5510001 -1.7539999 10
5.7480001 3.7279999 -1.738 8
5.8049998 3.7309999 -1.6339999 7
6.0380001 3.848 -1.576 26
5.9060001 3.7349999 -1.424 29
5.8509998 3.674 -1.296 28
5.3850002 3.51 -1.758 9
5.697 3.675 -1.739 9
5.7610002 3.6819999 -1.638 7
6.0250001 3.8180001 -1.59 26
5.9899998 3.767 -1.461 28
5.8080001 3.6259999 -1.303 29
5.3460002 3.4630001 -1.76 9
5.671 3.6370001 -1.7460001 9
5.7639999 3.6619999 -1.654 8
6.0089998 3.7850001 -1.602 26
6.0640001 3.789 -1.495 10
5.7940001 3.595 -1.3150001 25
5.3070002 3.4159999 -1.761 10
5.638 3.5929999 -1.751 9
5.7379999 3.622 -1.6619999 7
5.9660001 3.733 -1.6059999 13
5.9310002 3.6819999 -1.478 4
5.8920002 3.631 -1.353 21
5.2789998 3.3759999 -1.765 14
5.598 3.543 -1.752 9
5.7379999 3.5969999 -1.676 8
5.928 3.684 -1.6109999 6
5.9310002 3.6570001 -1.493 4
5.9349999 3.632 -1.378 5
5.2519999 3.336 -1.768 14
5.5510001 3.4890001 -1.75 8
5.7309999 3.5669999 -1.687 7
5.9530001 3.6730001 -1.631 9
5.9299998 3.6289999 -1.507 5
5.9380002 3.6070001 -1.393 5
5.2179999 3.29 -1.768 14
5.5339999 3.4519999 -1.757 8
5.7080002 3.527 -1.694 18
5.9050002 3.615 -1.631 11
5.9559999 3.6170001 -1.527 5
5.9650002 3.595 -1.413 4
5.1960001 3.25 -1.771 13
5.5110002 3.411 -1.761 9
5.7010002 3.494 -1.704 21
5.8979998 3.582 -1.642 10
5.9759998 3.5999999 -1.545 4
6.1880002 3.7 -1.48 10
5.1560001 3.1989999 -1.768 13
5.4689999 3.358 -1.7589999 11
5.6989999 3.464 -1.714 20
5.8779998 3.5409999 -1.648 14
6.125 3.6589999 -1.596 27
6.204 3.677 -1.4960001 27
5.1350002 3.1589999 -1.77 15
5.4530001 3.319 -1.763 16
5.6929998 3.431 -1.723 17
5.8049998 3.4660001 -1.6390001 6
6.1339998 3.632 -1.61 26
6.3109999 3.7079999 -1.534 25
5.0970001 3.108 -1.765 14
5.4330001 3.277 -1.766 16
5.6869998 3.3959999 -1.7309999 22
5.7729998 3.4159999 -1.64 6
6.1259999 3.5940001 -1.62 27
6.3429999 3.6919999 -1.554 30
5.0780001 3.0669999 -1.766 12
5.4070001 3.2309999 -1.766 16
5.7350001 3.3929999 -1.755 6
5.7930002 3.3959999 -1.656 7
6.131 3.563 -1.631 25
6.2750001 3.618 -1.548 27
5.0539999 3.023 -1.765 11
5.381 3.1849999 -1.766 15
5.7350001 3.3599999 -1.7640001 11
5.8470001 3.3940001 -1.6799999 5
6.1110001 3.516 -1.635 16
6.2020001 3.5409999 -1.539 29
5.026 2.977 -1.762 11
5.3639998 3.1429999 -1.767 16
5.7270002 3.322 -1.7690001 13
5.9359999 3.4100001 -1.714 8
6.0949998 3.471 -1.64 8
6.2579999 3.536 -1.563 24
5.0170002 2.941 -1.765 10
5.348 3.0999999 -1.768 14
5.7020001 3.2720001 -1.768 13
5.9920001 3.4059999 -1.738 6
6.0879998 3.431 -1.646 8
6.3569999 3.553 -1.596 22
5.0079999 2.904 -1.767 11
5.3140001 3.0469999 -1.763 12
5.677 3.223 -1.767 14
6.053 3.4030001 -1.763 8
6.1269999 3.415 -1.664 8
6.2420001 3.451 -1.575 23
4.9949999 2.8640001 -1.767 11
5.2940001 3.0020001 -1.762 12
5.6620002 3.178 -1.768 14
6.0250001 3.3499999 -1.761 13
6.2049999 3.4200001 -1.692 6
6.2709999 3.428 -1.59 16
4.9829998 2.825 -1.766 11
5.2839999 2.9619999 -1.763 11
5.652 3.1359999 -1.77 14
6.0209999 3.309 -1.765 13
6.29 3.4260001 -1.722 7
6.3709998 3.441 -1.622 11
4.9829998 2.7909999 -1.7690001 10
5.27 2.9189999 -1.762 10
5.6370001 3.0899999 -1.7690001 12
6.0170002 3.267 -1.7690001 13
6.3709998 3.428 -1.749 5
6.4629998 3.4489999 -1.651 9
4.9759998 2.753 -1.77 11
5.2659998 2.881 -1.7640001 11
5.6110001 3.0380001 -1.765 12
6.0079999 3.2219999 -1.77 13
6.375 3.388 -1.755 10
6.5279999 3.441 -1.673 9
4.9720001 2.717 -1.771 11
5.2589998 2.8410001 -1.7640001 11
5.5939999 2.9909999 -1.763 11
5.993 3.1730001 -1.77 12
6.4029999 3.3599999 -1.767 8
6.6259999 3.448 -1.7029999 7
4.974 2.6819999 -1.772 10
5.2600002 2.8050001 -1.766 11
5.592 2.951 -1.7640001 11
5.993 3.132 -1.773 12
6.4400001 3.335 -1.78 7
6.7340002 3.4579999 -1.734 6
4.967 2.6429999 -1.771 10
5.2540002 2.7650001 -1.765 11
5.5819998 2.9070001 -1.763 11
5.9759998 3.082 -1.77 11
6.4629998 3.302 -1.79 7
6.8070002 3.448 -1.757 9
4.98 2.6140001 -1.776 10
5.2589998 2.73 -1.767 11
5.5799999 2.8659999 -1.763 11
5.9640002 3.033 -1.767 11
6.4120002 3.2320001 -1.777 2
6.809 3.402 -1.7589999 11
4.9759998 2.576 -1.774 10
5.2610002 2.6930001 -1.768 11
5.5879998 2.8310001 -1.766 11
5.9569998 2.9879999 -1.766 11
6.5549998 3.257 -1.818 7
6.8070002 3.3540001 -1.761 7
4.9829998 2.543 -1.776 10
5.2649999 2.6559999 -1.768 10
5.5869999 2.789 -1.765 11
5.9569998 2.9449999 -1.766 11
6.4720001 3.1700001 -1.796 5
6.848 3.325 -1.772 9
4.993 2.51 -1.778 9
5.2800002 2.625 -1.773 11
5.5960002 2.753 -1.767 11
5.9640002 2.905 -1.768 10
6.4499998 3.112 -1.789 9
6.823 3.263 -1.765 8
5.006 2.48 -1.78 10
5.2820001 2.5869999 -1.771 11
5.6020002 2.714 -1.768 10
5.961 2.8599999 -1.766 10
6.3839998 3.0339999 -1.77 7
6.8270001 3.2160001 -1.766 8
5.0110002 2.444 -1.779 10
5.3060002 2.559 -1.777 12
5.6149998 2.6789999 -1.77 10
5.9699998 2.8199999 -1.766 11
6.375 2.983 -1.765 11
6.9489999 3.224 -1.796 10
5.0279999 2.414 -1.7819999 10
5.309 2.5209999 -1.775 12
5.631 2.645 -1.772 10
5.9749999 2.7780001 -1.765 11
6.3730001 2.9360001 -1.763 11
6.8590002 3.132 -1.771 9
5.0370002 2.3800001 -1.7819999 10
5.323 2.487 -1.776 11
5.6469998 2.6099999 -1.774 11
5.9920001 2.7420001 -1.767 11
6.395 2.8989999 -1.766 11
6.9169998 3.1070001 -1.783 9
5.053 2.349 -1.783 10
5.3330002 2.451 -1.775 11
5.6620002 2.575 -1.774 11
6.0019999 2.7019999 -1.766 11
6.408 2.8570001 -1.766 12
6.869 3.0350001 -1.767 11
5.0710001 2.3180001 -1.784 10
5.3569999 2.421 -1.778 12
5.6820002 2.54 -1.776 13
6.02 2.664 -1.767 11
6.4159999 2.812 -1.7640001 12
6.8670001 2.983 -1.762 12
5.0830002 2.283 -1.783 11
5.3800001 2.3900001 -1.78 10
5.6960001 2.503 -1.775 10
6.0430002 2.628 -1.768 11
6.4439998 2.776 -1.766 12
6.8769999 2.9360001 -1.7589999 12
5.099 2.2509999 -1.783 10
5.4000001 2.3570001 -1.781 11
5.724 2.471 -1.778 12
6.0650001 2.5910001 -1.7690001 12
6.4640002 2.7360001 -1.766 13
6.8959999 2.892 -1.7589999 13
5.1170001 2.2190001 -1.7819999 11
5.4169998 2.322 -1.781 10
5.7360001 2.4319999 -1.775 13
6.098 2.559 -1.772 14
6.4819999 2.694 -1.7640001 13
6.9239998 2.852 -1.7589999 13
5.1420002 2.1889999 -1.784 10
5.4450002 2.2920001 -1.7819999 12
5.77 2.402 -1.778 12
6.125 2.5239999 -1.773 13
6.5149999 2.6589999 -1.766 13
6.9569998 2.812 -1.76 12
5.171 2.161 -1.786 10
5.4720001 2.2609999 -1.784 11
5.7919998 2.3670001 -1.777 12
6.1490002 2.4860001 -1.772 13
6.5409999 2.619 -1.765 13
6.9949999 2.7750001 -1.762 13
5.1859999 2.1259999 -1.783 11
5.4879999 2.224 -1.78 11
5.8080001 2.3280001 -1.774 12
6.1719999 2.4489999 -1.77 14
6.5770001 2.5829999 -1.766 13
7.0310001 2.7360001 -1.762 12
5.2189999 2.099 -1.785 11
5.5170002 2.1930001 -1.781 11
5.8499999 2.3 -1.778 12
6.2129998 2.4170001 -1.773 14
6.6079998 2.546 -1.765 13
7.0609999 2.6949999 -1.76 12
5.25 2.0699999 -1.7869999 11
5.546 2.161 -1.781 10
5.8779998 2.266 -1.776 13
6.25 2.3840001 -1.773 12
6.6550002 2.513 -1.768 13
7.099 2.6559999 -1.7589999 13
5.2789998 2.04 -1.7869999 10
5.592 2.1359999 -1.786 11
5.9190001 2.2360001 -1.778 13
6.2919998 2.352 -1.775 12
6.7030001 2.48 -1.77 13
7.1589999 2.6240001 -1.763 12
5.3179998 2.013 -1.789 10
5.6170001 2.102 -1.783 10
5.9580002 2.204 -1.78 13
6.3299999 2.3169999 -1.774 12
6.7410002 2.4430001 -1.768 13
7.2049999 2.5869999 -1.762 12
5.349 1.983 -1.788 10
5.6570001 2.073 -1.784 11
5.9910002 2.1700001 -1.778 14
6.3709998 2.283 -1.774 12
6.7839999 2.4070001 -1.767 13
7.243 2.546 -1.7589999 12
5.3940001 1.957 -1.7920001 10
5.7059999 2.046 -1.788 12
6.0450001 2.1429999 -1.781 12
6.4310002 2.256 -1.778 14
6.8439999 2.3770001 -1.77 13
7.302 2.5120001 -1.76 12
5.427 1.927 -1.79 11
5.7340002 2.0120001 -1.784 12
6.0809999 2.1099999 -1.779 14
6.48 2.224 -1.778 13
6.9099998 2.348 -1.773 13
7.3860002 2.4849999 -1.766 13
5.474 1.901 -1.793 10
5.7810001 1.984 -1.785 11
6.1399999 2.0829999 -1.783 12
6.5190001 2.188 -1.775 13
6.9619999 2.313 -1.772 13
7.4369998 2.447 -1.763 12
5.5170002 1.873 -1.794 10
5.8299999 1.956 -1.7869999 12
6.1789999 2.05 -1.78 14
6.586 2.161 -1.778 13
7.0219998 2.28 -1.772 14
7.4990001 2.4119999 -1.762 12
5.5580001 1.844 -1.793 9
5.8759999 1.927 -1.786 11
6.2449999 2.0239999 -1.784 14
6.6360002 2.128 -1.776 13
7.0910001 2.25 -1.773 13
7.5689998 2.3789999 -1.761 13
5.6110001 1.819 -1.795 10
5.9310002 1.9 -1.788 11
6.3000002 1.995 -1.784 13
6.7010002 2.099 -1.777 13
7.165 2.221 -1.775 12
7.658 2.3510001 -1.7640001 12
5.6550002 1.791 -1.794 10
5.9759998 1.87 -1.786 11
6.3600001 1.967 -1.785 13
6.7550001 2.066 -1.775 13
7.237 2.1900001 -1.774 13
7.7270002 2.3150001 -1.761 12
5.7030001 1.763 -1.793 11
6.0279999 1.841 -1.785 11
6.415 1.936 -1.783 13
6.8390002 2.0420001 -1.779 13
7.2969999 2.155 -1.771 12
7.8369999 2.2920001 -1.767 11
5.7480001 1.733 -1.791 11
6.0799999 1.811 -1.783 11
6.4819999 1.909 -1.784 12
6.9099998 2.0120001 -1.779 13
7.3790002 2.1259999 -1.771 12
7.915 2.257 -1.7640001 11
5.8060002 1.707 -1.7920001 12
6.1459999 1.786 -1.785 12
6.546 1.88 -1.783 13
6.9990001 1.987 -1.783 13
7.4780002 2.0999999 -1.775 13
8.0030003 2.2249999 -1.763 11
5.8649998 1.681 -1.7920001 11
6.2160001 1.76 -1.786 12
6.6139998 1.851 -1.7819999 12
7.0710001 1.956 -1.781 14
7.5549998 2.0680001 -1.772 12
8.1009998 2.1949999 -1.762 11
5.9219999 1.654 -1.791 12
6.2779999 1.732 -1.785 12
6.6929998 1.825 -1.784 13
7.1589999 1.929 -1.7819999 13
7.6469998 2.039 -1.772 13
8.2060003 2.165 -1.761 12
5.9910002 1.6289999 -1.793 11
6.3520002 1.706 -1.786 11
6.7849998 1.8 -1.7869999 13
7.2280002 1.896 -1.777 13
7.7519999 2.0120001 -1.773 12
8.3170004 2.135 -1.761 12
6.0469999 1.601 -1.79 12
6.4250002 1.6799999 -1.786 12
6.8579998 1.771 -1.785 12
7.3340001 1.872 -1.78 12
7.8649998 1.9859999 -1.774 11
8.4200001 2.1029999 -1.757 12
6.1199999 1.575 -1.791 11
6.5029998 1.653 -1.786 12
6.947 1.745 -1.785 13
7.4260001 1.8430001 -1.779 12
7.9530001 1.952 -1.7690001 11
8.54 2.0739999 -1.755 12
6.197 1.551 -1.7920001 11
6.585 1.627 -1.786 12
7.046 1.72 -1.7869999 12
7.539 1.819 -1.781 10
8.0830002 1.929 -1.772 12
8.6619997 2.0439999 -1.753 12
6.276 1.526 -1.793 11
6.6729999 1.602 -1.7869999 11
7.1370001 1.693 -1.786 12
7.6420002 1.791 -1.78 12
