# .PCD v0.7 - Point Cloud Data file format
VERSION 0.7
FIELDS x y z intensity
SIZE 4 4 4 4
TYPE F F F F
COUNT 1 1 1 1
WIDTH 1997
HEIGHT 1
VIEWPOINT 0 0 0 1 0 0 0
POINTS 1997
DATA ascii
45.208 -1.543 1.337 48
44.789001 -1.472 2.0179999 67
38.228001 -1.228 -1.2690001 54
45.259998 -1.395 -0.80400002 72
45.377998 -1.342 -0.105 30
0 0 0 0
45.299999 -1.229 1.294 42
44.784 -1.163 1.972 67
37.752998 -0.94800001 -1.294 53
44.971001 -1.075 -0.847 19
77.032997 -1.751 -0.26199999 7
0 0 0 0
106.899 -2.1730001 2.9360001 15
44.757 -0.85699999 1.92 64
37.333 -0.67900002 -1.323 52
44.889999 -0.764 -0.89899999 35
75.314003 -1.192 -0.34599999 5
110.468 -1.617 1.194 21
0 0 0 0
44.830002 -0.551 1.868 11
36.966 -0.417 -1.358 54
0 0 0 0
74.468002 -0.66299999 -0.44100001 16
0 0 0 0
105.603 -0.699 2.6300001 46
85.039001 -0.465 3.428 19
35.766998 -0.156 -1.365 150
35.771999 -0.116 -0.81300002 150
73.982002 -0.155 -0.54299998 7
0 0 0 0
104.889 0.015 2.461 45
105.251 0.13500001 4.0910001 47
32.939999 0.082000002 -1.307 2
35.775002 0.12800001 -0.86900002 150
35.780998 0.169 -0.31799999 22
0 0 0 0
88.5 0.61400002 1.939 16
83.954002 0.67699999 3.132 25
32.742001 0.30500001 -1.353 8
35.792999 0.373 -0.92799997 97
36.451 0.42199999 -0.38499999 51
40.112999 0.50700003 0.19400001 8
56.678001 0.77899998 1.146 37
57.227001 0.85000002 2.0380001 34
32.702 0.528 -1.409 15
35.814999 0.61799997 -0.99199998 39
36.422001 0.667 -0.44800001 55
37.542999 0.73000002 0.114 8
56.563999 1.159 1.043 40
56.393002 1.217 1.908 48
32.624001 0.75 -1.4680001 19
37.412998 0.89999998 -1.107 50
36.91 0.92500001 -0.52399999 72
37.352001 0.97600001 0.044 40
56.240002 1.528 0.93199998 25
56.082001 1.584 1.7920001 49
0 0 0 0
37.380001 1.151 -1.181 50
36.931999 1.174 -0.59799999 80
37.264999 1.224 -0.029999999 48
53.823002 1.824 0.78399998 10
56.224998 1.9630001 1.684 42
30.927 1.127 -1.518 9
33.349998 1.249 -1.124 30
33.301998 1.283 -0.61000001 65
33.250999 1.3150001 -0.097000003 125
33.263 1.348 0.414 85
56.167 2.336 1.563 38
0 0 0 0
33.355999 1.473 -1.198 4
40.471001 1.829 -0.83099997 4
73.603996 3.4000001 -0.37799999 7
42.571999 2.01 0.435 63
57.625 2.777 1.477 33
28.497999 1.4220001 -1.53 5
33.001999 1.678 -1.263 3
38.064999 1.971 -0.86900002 6
42.660999 2.2509999 -0.31799999 100
43.959 2.3610001 0.34900001 44
42.643002 2.3329999 0.99400002 16
27.132999 1.533 -1.523 5
32.812 1.885 -1.336 17
38.622002 2.256 -0.977 53
50.868 3.0209999 -0.50300002 5
42.759998 2.579 0.235 83
42.754002 2.6210001 0.89200002 88
26.301001 1.6619999 -1.544 5
32.758999 2.098 -1.4170001 27
37.846001 2.4560001 -1.053 51
44.186001 2.9089999 -0.54799998 16
42.831001 2.8610001 0.127 90
44.230999 2.9990001 0.81099999 3
25.280001 1.763 -1.552 7
0 0 0 0
37.609001 2.687 -1.146 53
42.812 3.0969999 -0.64499998 58
44.095001 3.2309999 0.015 69
44.327999 3.29 0.69700003 35
24.378 1.858 -1.5650001 9
30.785999 2.3729999 -1.5 11
36.841 2.8710001 -1.225 51
0 0 0 0
42.992001 3.428 -0.103 5
44.416 3.5829999 0.57700002 23
23.483999 1.944 -1.576 12
28.643 2.395 -1.479 5
34.140999 2.881 -1.234 6
0 0 0 0
72.573997 6.2550001 -0.382 5
44.494999 3.875 0.44999999 22
22.631001 2.0209999 -1.5880001 18
27.294001 2.4579999 -1.4910001 5
33.304001 3.0250001 -1.303 13
38.678001 3.5450001 -0.91500002 55
42.077999 3.891 -0.345 3
44.569 4.1609998 0.32100001 26
21.888 2.0940001 -1.604 17
26.066 2.5139999 -1.505 5
32.93 3.201 -1.391 21
37.694 3.6949999 -1.008 51
49.485001 4.8920002 -0.55800003 15
73.550003 7.3319998 0.30700001 4
21.099001 2.154 -1.615 16
24.952 2.5650001 -1.522 7
0 0 0 0
37.068001 3.8659999 -1.109 52
39.646999 4.1669998 -0.57200003 4
42.914001 4.5450001 0.044 88
20.381001 2.2090001 -1.628 15
23.955999 2.6129999 -1.54 11
30.796 3.381 -1.5 10
34.422001 3.8050001 -1.142 1
40.243999 4.48 -0.71100003 46
45.779999 5.1339998 -0.101 2
19.562 2.2449999 -1.631 14
22.979 2.652 -1.557 16
28.264999 3.2809999 -1.474 5
33.867001 3.9560001 -1.24 6
0 0 0 0
55.125999 6.526 -0.30700001 3
18.937 2.293 -1.647 13
22.077 2.687 -1.575 17
26.593 3.253 -1.4809999 5
33.126999 4.0749998 -1.329 20
37.583 4.6490002 -0.92199999 42
43.168999 5.3740001 -0.389 36
18.33 2.3329999 -1.6619999 12
21.181 2.7090001 -1.5880001 16
25.295 3.2509999 -1.5 6
0 0 0 0
37.255001 4.8369999 -1.0470001 53
38.909 5.0809999 -0.48899999 2
17.732 2.3670001 -1.675 11
20.341 2.7260001 -1.601 15
24.153999 3.2509999 -1.523 12
31.160999 4.2140002 -1.477 11
36.674 4.9860001 -1.166 49
38.837002 5.3070002 -0.63 12
17.112 2.3900001 -1.684 11
19.533001 2.7379999 -1.614 14
23.181999 3.2620001 -1.55 13
28.261999 3.993 -1.447 5
33.951 4.8189998 -1.2079999 3
37.664001 5.375 -0.75300002 26
16.541 2.4119999 -1.6950001 10
18.830999 2.7539999 -1.631 13
22.042 3.2349999 -1.562 16
26.643999 3.9260001 -1.469 5
33.32 4.9310002 -1.3150001 35
37.939999 5.6389999 -0.90399998 53
15.951 2.4219999 -1.7 9
18.184 2.7690001 -1.65 12
21.066999 3.22 -1.579 16
24.98 3.8299999 -1.477 5
0 0 0 0
34.033001 5.2610002 -0.94599998 35
15.394 2.431 -1.706 10
17.504 2.7709999 -1.6619999 11
20.225 3.211 -1.599 15
23.882 3.802 -1.51 10
29.403 4.698 -1.397 4
33.790001 5.4180002 -1.075 56
14.856 2.4349999 -1.711 10
16.892 2.7739999 -1.676 10
19.409 3.1949999 -1.617 14
22.782 3.7609999 -1.5369999 14
27.768999 4.599 -1.4349999 4
33.480999 5.5640001 -1.2029999 36
14.356 2.437 -1.7180001 10
16.264999 2.767 -1.6849999 10
18.642 3.177 -1.6339999 13
21.695 3.707 -1.557 16
26.218 4.494 -1.467 4
33.233002 5.7150002 -1.336 25
13.874 2.437 -1.723 11
15.642 2.7520001 -1.691 9
17.916 3.158 -1.65 12
20.694 3.6559999 -1.577 16
24.474001 4.335 -1.476 6
31.441 5.5869999 -1.4 16
13.432 2.4389999 -1.732 10
15.062 2.7379999 -1.698 10
17.222 3.135 -1.665 11
19.761999 3.605 -1.595 14
23.365999 4.2719998 -1.5140001 12
28.521999 5.2280002 -1.395 4
12.988 2.4330001 -1.737 10
14.524 2.723 -1.706 10
16.549999 3.108 -1.677 10
18.961 3.5669999 -1.618 13
22.117001 4.1690001 -1.534 16
26.757999 5.0560002 -1.431 4
12.552 2.424 -1.739 10
13.994 2.704 -1.712 11
15.904 3.076 -1.687 9
18.18 3.5209999 -1.636 12
21.107 4.0949998 -1.561 16
24.987 4.8600001 -1.451 4
12.169 2.4189999 -1.747 10
13.523 2.6889999 -1.72 10
15.278 3.0409999 -1.6950001 8
17.410999 3.4690001 -1.65 11
20.145 4.02 -1.586 15
23.746 4.7480001 -1.49 8
11.784 2.4089999 -1.752 11
13.06 2.6700001 -1.726 10
14.698 3.007 -1.7029999 8
16.726 3.425 -1.6670001 10
19.212 3.9389999 -1.605 14
22.476 4.6160002 -1.517 11
11.417 2.3970001 -1.756 10
12.609 2.648 -1.7309999 11
14.134 2.9690001 -1.709 9
16.083 3.381 -1.683 10
18.351999 3.862 -1.624 12
21.341999 4.4990001 -1.545 16
11.076 2.3870001 -1.762 9
12.197 2.628 -1.738 11
13.625 2.9360001 -1.717 10
15.402 3.3210001 -1.6900001 9
17.584 3.7939999 -1.6440001 11
20.336 4.3930001 -1.572 15
10.734 2.372 -1.765 12
11.795 2.605 -1.744 10
13.14 2.901 -1.725 10
14.786 3.267 -1.698 8
16.847 3.724 -1.66 10
19.344999 4.2810001 -1.594 13
10.416 2.359 -1.771 11
11.404 2.5799999 -1.748 10
12.668 2.8659999 -1.7309999 10
14.185 3.2090001 -1.704 9
16.129 3.651 -1.674 10
18.434999 4.1760001 -1.614 12
10.108 2.3429999 -1.775 11
11.041 2.5569999 -1.753 10
12.226 2.8299999 -1.737 11
13.66 3.161 -1.714 10
15.461 3.5799999 -1.687 9
17.601 4.079 -1.6339999 11
9.8190002 2.329 -1.78 12
10.7 2.5350001 -1.7589999 12
11.804 2.7950001 -1.743 9
13.14 3.109 -1.721 10
14.808 3.5039999 -1.6950001 8
16.841999 3.987 -1.652 10
9.552 2.3150001 -1.7869999 11
10.386 2.5139999 -1.766 12
11.415 2.7609999 -1.748 10
12.665 3.062 -1.728 10
14.213 3.4349999 -1.704 9
16.117001 3.8959999 -1.6670001 10
9.3039999 2.303 -1.795 11
10.086 2.493 -1.773 12
11.036 2.7249999 -1.753 11
12.208 3.0120001 -1.734 10
13.643 3.365 -1.71 10
15.422 3.8039999 -1.679 9
9.0459995 2.286 -1.799 10
9.7749996 2.4660001 -1.776 11
10.685 2.6919999 -1.7589999 12
11.766 2.961 -1.738 9
13.126 3.302 -1.719 9
14.789 3.72 -1.692 8
8.7910004 2.267 -1.802 11
9.4980001 2.444 -1.783 12
10.356 2.661 -1.766 12
11.361 2.9159999 -1.744 10
12.607 3.233 -1.724 9
14.141 3.625 -1.698 10
8.5469999 2.2460001 -1.804 10
9.2419996 2.424 -1.79 12
10.029 2.6259999 -1.7690001 11
10.998 2.8759999 -1.753 11
12.157 3.1760001 -1.7309999 9
13.593 3.549 -1.709 9
8.3100004 2.2249999 -1.806 11
8.9770002 2.398 -1.793 11
9.7290001 2.5940001 -1.775 11
10.636 2.8310001 -1.757 13
11.733 3.1199999 -1.739 11
13.055 3.4690001 -1.716 9
8.0959997 2.207 -1.8099999 10
8.7229996 2.372 -1.796 10
9.4610004 2.5669999 -1.783 11
10.319 2.796 -1.767 12
11.333 3.0669999 -1.747 10
12.54 3.3900001 -1.721 9
7.8779998 2.1860001 -1.812 10
8.4689999 2.3440001 -1.798 10
9.1850004 2.536 -1.789 10
9.974 2.7490001 -1.7690001 11
10.939 3.01 -1.752 11
12.09 3.323 -1.7309999 10
7.6620002 2.1630001 -1.812 10
8.2440004 2.3199999 -1.803 10
8.9239998 2.5050001 -1.793 11
9.6730003 2.71 -1.775 11
10.571 2.9560001 -1.757 11
11.659 3.256 -1.739 10
7.4780002 2.1459999 -1.818 10
8.0340004 2.299 -1.809 11
8.6669998 2.473 -1.7970001 10
9.3929996 2.6730001 -1.7819999 11
10.234 2.9070001 -1.7640001 12
11.25 3.191 -1.7460001 10
7.2839999 2.1240001 -1.8200001 10
7.8150001 2.2709999 -1.8099999 11
8.4200001 2.4400001 -1.8 11
9.1169996 2.635 -1.7869999 10
9.9040003 2.8570001 -1.768 12
10.869 3.1300001 -1.753 10
7.1279998 2.1110001 -1.829 10
7.6149998 2.247 -1.814 11
8.1890001 2.4089999 -1.803 10
8.8590002 2.599 -1.7920001 11
9.6110001 2.813 -1.776 12
10.512 3.0710001 -1.76 11
6.9549999 2.0910001 -1.832 9
7.4260001 2.224 -1.819 11
7.973 2.3800001 -1.808 11
8.599 2.559 -1.795 11
9.3219995 2.7679999 -1.781 11
10.184 3.0179999 -1.768 12
6.7540002 2.0610001 -1.825 10
7.2449999 2.201 -1.823 11
7.757 2.348 -1.8099999 11
8.3570004 2.5220001 -1.799 10
9.0579996 2.727 -1.788 11
9.8389997 2.9560001 -1.77 11
6.5900002 2.039 -1.827 9
7.0650001 2.177 -1.826 10
7.5630002 2.3210001 -1.814 11
8.1219997 2.4849999 -1.801 11
8.7840004 2.6800001 -1.791 11
9.533 2.901 -1.775 12
6.441 2.0209999 -1.831 10
6.8990002 2.155 -1.831 10
7.3720002 2.2939999 -1.819 11
7.9050002 2.451 -1.806 11
8.5340004 2.638 -1.796 11
9.2419996 2.849 -1.78 10
6.2909999 2 -1.8329999 10
6.7280002 2.1289999 -1.832 9
7.1890001 2.2650001 -1.822 10
7.6950002 2.4159999 -1.809 11
8.283 2.592 -1.796 10
8.9689999 2.799 -1.785 10
6.1469998 1.98 -1.835 10
6.5370002 2.095 -1.826 10
6.9980001 2.233 -1.822 11
7.4970002 2.3829999 -1.813 11
8.0620003 2.5539999 -1.802 10
8.7040005 2.7490001 -1.789 10
5.993 1.954 -1.832 10
6.3829999 2.0710001 -1.8279999 10
6.8169999 2.2019999 -1.822 11
7.3189998 2.3540001 -1.819 11
7.8499999 2.516 -1.807 10
8.4580002 2.7019999 -1.793 10
5.882 1.942 -1.842 10
6.2340002 2.0469999 -1.83 10
6.645 2.171 -1.822 10
7.1360002 2.322 -1.822 10
7.6469998 2.4790001 -1.811 11
8.2139997 2.6530001 -1.795 10
5.7319999 1.915 -1.837 11
6.0819998 2.02 -1.8279999 11
6.4949999 2.1470001 -1.827 10
6.9429998 2.2839999 -1.821 11
7.454 2.4430001 -1.816 11
7.9920001 2.6099999 -1.8 10
5.6149998 1.897 -1.841 11
5.948 1.998 -1.831 10
6.3499999 2.122 -1.831 10
6.7789998 2.2550001 -1.825 10
7.2360001 2.3970001 -1.812 11
7.7810001 2.5680001 -1.804 10
5.4679999 1.868 -1.834 11
5.8150001 1.975 -1.8329999 11
6.1999998 2.0940001 -1.832 10
6.6090002 2.221 -1.826 11
7.0609999 2.3629999 -1.816 11
7.5609999 2.52 -1.8049999 12
5.3520002 1.848 -1.836 11
5.6750002 1.948 -1.831 10
6.0469999 2.063 -1.831 11
6.4460001 2.188 -1.826 9
6.895 2.3299999 -1.821 11
7.382 2.484 -1.812 10
5.237 1.8279999 -1.837 11
5.5539999 1.925 -1.8329999 11
5.908 2.036 -1.832 11
6.302 2.1600001 -1.83 10
6.7150002 2.29 -1.8200001 10
7.1690001 2.4349999 -1.808 11
5.1300001 1.808 -1.8380001 11
5.434 1.902 -1.834 12
5.7820001 2.0109999 -1.834 10
6.1560001 2.1300001 -1.831 10
6.5650001 2.26 -1.825 11
6.9970002 2.398 -1.812 11
5.0250001 1.788 -1.839 11
5.322 1.881 -1.836 12
5.6589999 1.987 -1.836 10
6.013 2.099 -1.831 10
6.414 2.227 -1.8279999 10
6.8369999 2.3629999 -1.817 10
4.9190001 1.767 -1.839 10
5.1950002 1.853 -1.832 12
5.527 1.9579999 -1.834 12
5.8769999 2.069 -1.832 10
6.257 2.191 -1.827 10
6.6739998 2.326 -1.8200001 11
4.8239999 1.749 -1.84 11
5.0929999 1.832 -1.834 11
5.408 1.932 -1.835 12
5.7540002 2.043 -1.835 10
6.1139998 2.158 -1.8279999 10
6.5029998 2.2839999 -1.818 11
4.7140002 1.724 -1.835 10
4.994 1.812 -1.836 11
5.2810001 1.902 -1.83 11
5.6220002 2.0120001 -1.8329999 10
5.9829998 2.128 -1.83 10
6.3709998 2.2539999 -1.824 10
4.6199999 1.7029999 -1.834 10
4.8889999 1.788 -1.834 11
5.1799998 1.881 -1.834 12
5.5029998 1.984 -1.8329999 11
5.8509998 2.0969999 -1.831 10
6.2210002 2.217 -1.824 10
4.5370002 1.686 -1.837 10
4.7950001 1.767 -1.836 12
5.0819998 1.859 -1.836 12
5.3899999 1.957 -1.834 11
5.7199998 2.0639999 -1.83 10
6.0869999 2.184 -1.826 10
4.448 1.666 -1.836 10
4.6999998 1.745 -1.835 12
4.987 1.837 -1.839 12
5.2690001 1.927 -1.831 12
5.6020002 2.0350001 -1.832 11
5.9439998 2.1470001 -1.825 10
4.3709998 1.649 -1.839 10
4.6090002 1.723 -1.835 11
4.8839998 1.812 -1.8380001 12
5.1539998 1.897 -1.829 11
5.4569998 1.995 -1.824 12
5.816 2.1129999 -1.826 11
4.296 1.633 -1.841 10
4.5219998 1.702 -1.835 10
4.7909999 1.789 -1.8380001 11
5.0609999 1.875 -1.8329999 11
5.3639998 1.973 -1.83 12
5.6989999 2.0829999 -1.8279999 11
4.2249999 1.617 -1.845 10
4.4419999 1.684 -1.837 11
4.6900001 1.762 -1.835 11
4.9679999 1.852 -1.836 11
5.2160001 1.9299999 -1.817 11
5.5749998 2.049 -1.827 11
4.152 1.599 -1.846 9
4.362 1.663 -1.8380001 11
4.5929999 1.7359999 -1.831 11
4.868 1.825 -1.834 11
5.1469998 1.915 -1.829 11
5.4569998 2.016 -1.826 11
4.0819998 1.582 -1.847 9
4.2880001 1.645 -1.839 11
4.52 1.7180001 -1.836 12
4.7750001 1.799 -1.834 11
5.0479999 1.887 -1.83 12
5.3299999 1.979 -1.8200001 11
4.007 1.562 -1.845 10
4.2189999 1.627 -1.842 11
4.4380002 1.696 -1.835 11
4.6799998 1.772 -1.831 12
4.9590001 1.863 -1.832 12
5.2410002 1.954 -1.826 12
3.9389999 1.544 -1.845 9
4.1490002 1.609 -1.844 10
4.3639998 1.675 -1.837 11
4.6020002 1.751 -1.8329999 11
4.8660002 1.836 -1.832 12
5.145 1.927 -1.8279999 12
3.868 1.524 -1.8430001 9
4.0770001 1.589 -1.842 10
4.296 1.6569999 -1.84 11
4.5159998 1.726 -1.831 11
4.7750001 1.809 -1.831 12
5.0479999 1.898 -1.827 11
3.8039999 1.506 -1.842 8
4.0100002 1.5700001 -1.8430001 10
4.2199998 1.635 -1.839 11
4.4429998 1.705 -1.8329999 11
4.6960001 1.786 -1.8329999 12
4.9619999 1.872 -1.83 11
3.7479999 1.4910001 -1.844 9
3.947 1.551 -1.844 10
4.1620002 1.619 -1.844 10
4.3699999 1.683 -1.834 10
4.6110001 1.7589999 -1.832 12
4.8779998 1.846 -1.831 11
3.6849999 1.471 -1.842 8
3.8889999 1.535 -1.846 10
4.092 1.597 -1.842 10
4.2989998 1.661 -1.834 11
4.5310001 1.734 -1.83 11
4.79 1.818 -1.83 11
3.6429999 1.461 -1.85 9
3.819 1.512 -1.841 9
4.0289998 1.5779999 -1.8430001 10
4.2389998 1.643 -1.839 10
4.454 1.71 -1.829 11
4.71 1.7920001 -1.83 11
3.5880001 1.444 -1.849 9
3.7620001 1.495 -1.841 9
3.9630001 1.557 -1.841 10
4.1830001 1.625 -1.8430001 10
4.3889999 1.689 -1.8329999 10
4.6279998 1.765 -1.829 11
3.5350001 1.427 -1.849 8
3.7049999 1.477 -1.841 9
3.9059999 1.538 -1.842 10
4.1100001 1.601 -1.839 9
4.323 1.6670001 -1.834 11
4.559 1.742 -1.83 11
3.4860001 1.411 -1.849 8
3.6559999 1.461 -1.8430001 9
3.8499999 1.52 -1.8430001 10
4.0549998 1.5829999 -1.842 10
4.2579999 1.645 -1.834 10
4.4850001 1.716 -1.83 11
3.4430001 1.398 -1.852 8
3.612 1.447 -1.847 9
3.7939999 1.501 -1.8430001 10
4 1.564 -1.844 10
4.2020001 1.625 -1.837 10
4.421 1.693 -1.831 10
3.3989999 1.383 -1.854 8
3.5639999 1.4299999 -1.848 9
3.737 1.4809999 -1.841 9
3.944 1.544 -1.844 10
4.1430001 1.604 -1.8380001 10
4.355 1.669 -1.831 10
3.352 1.3660001 -1.853 8
3.5150001 1.413 -1.847 9
3.687 1.4630001 -1.841 9
3.881 1.521 -1.84 9
4.0840001 1.582 -1.837 10
4.302 1.649 -1.835 10
3.3050001 1.349 -1.851 8
3.4779999 1.399 -1.852 9
3.6429999 1.446 -1.8430001 9
3.829 1.502 -1.84 9
4.0320001 1.563 -1.839 10
4.243 1.627 -1.836 10
3.266 1.335 -1.853 8
3.4289999 1.381 -1.849 10
3.6040001 1.432 -1.847 9
3.7820001 1.483 -1.842 9
3.9860001 1.545 -1.8430001 10
4.1939998 1.608 -1.84 10
3.2279999 1.321 -1.854 8
3.3889999 1.3660001 -1.85 9
3.5569999 1.414 -1.847 9
3.734 1.464 -1.842 9
3.9260001 1.521 -1.839 9
4.1329999 1.584 -1.837 9
3.1919999 1.307 -1.855 8
3.355 1.353 -1.854 9
3.516 1.397 -1.847 10
3.6860001 1.4450001 -1.841 9
3.881 1.503 -1.841 10
4.0770001 1.561 -1.836 9
3.158 1.293 -1.857 7
3.313 1.335 -1.853 9
3.4790001 1.382 -1.85 9
3.648 1.429 -1.844 9
3.8280001 1.4809999 -1.8380001 10
4.0409999 1.545 -1.842 9
3.1129999 1.274 -1.851 7
3.277 1.3200001 -1.853 8
3.434 1.362 -1.847 9
3.608 1.4119999 -1.845 9
3.7880001 1.4630001 -1.841 9
3.99 1.523 -1.841 9
3.085 1.262 -1.855 7
3.2409999 1.304 -1.854 9
3.4059999 1.35 -1.852 9
3.5669999 1.393 -1.844 8
3.74 1.442 -1.8380001 9
3.9449999 1.502 -1.841 9
3.0550001 1.249 -1.857 7
3.2060001 1.288 -1.853 9
3.3640001 1.331 -1.849 9
3.5350001 1.378 -1.848 8
3.7030001 1.424 -1.84 10
3.8970001 1.4809999 -1.84 9
3.0220001 1.233 -1.855 7
3.1760001 1.274 -1.855 8
3.3369999 1.318 -1.854 9
3.494 1.359 -1.846 9
3.6619999 1.405 -1.839 9
3.8540001 1.46 -1.839 9
2.9890001 1.2180001 -1.853 7
3.1459999 1.26 -1.855 8
3.3050001 1.302 -1.854 9
3.4630001 1.344 -1.847 9
3.6359999 1.391 -1.845 9
3.819 1.442 -1.842 9
2.97 1.2079999 -1.859 7
3.112 1.243 -1.853 8
3.2709999 1.285 -1.853 9
3.438 1.33 -1.852 8
3.5910001 1.369 -1.84 9
3.7739999 1.42 -1.8380001 9
2.931 1.189 -1.851 7
3.0840001 1.228 -1.853 8
3.2449999 1.27 -1.854 8
3.404 1.312 -1.851 8
3.573 1.357 -1.848 9
3.7379999 1.401 -1.8380001 9
2.9119999 1.178 -1.855 7
3.059 1.214 -1.854 8
3.214 1.2539999 -1.853 8
3.3699999 1.294 -1.849 8
3.5380001 1.3380001 -1.846 9
3.7060001 1.383 -1.839 9
2.8829999 1.1619999 -1.852 6
3.0339999 1.2 -1.854 8
3.1849999 1.238 -1.852 8
3.3429999 1.278 -1.85 9
3.506 1.3200001 -1.845 9
3.677 1.365 -1.841 8
0 0 0 0
3.003 1.183 -1.85 7
3.1600001 1.222 -1.852 8
3.3210001 1.2640001 -1.852 9
3.4779999 1.303 -1.846 8
3.648 1.347 -1.842 9
0 0 0 0
2.987 1.171 -1.854 7
3.1389999 1.209 -1.854 8
3.296 1.248 -1.853 8
3.457 1.288 -1.849 9
3.6210001 1.33 -1.8430001 9
0 0 0 0
2.967 1.158 -1.855 7
3.1140001 1.192 -1.852 8
3.277 1.234 -1.855 8
3.434 1.272 -1.85 9
3.602 1.3150001 -1.847 9
0 0 0 0
2.951 1.145 -1.857 7
3.096 1.179 -1.855 7
3.2509999 1.217 -1.854 8
3.4059999 1.2539999 -1.848 9
3.5780001 1.2970001 -1.847 9
0 0 0 0
2.9330001 1.131 -1.858 8
3.0769999 1.165 -1.855 7
3.2290001 1.201 -1.853 8
3.3859999 1.239 -1.85 8
3.5539999 1.28 -1.848 9
0 0 0 0
2.9159999 1.118 -1.858 7
3.056 1.149 -1.854 7
3.2060001 1.184 -1.851 8
3.365 1.222 -1.849 8
3.5339999 1.263 -1.848 8
0 0 0 0
2.8900001 1.101 -1.852 14
3.0409999 1.136 -1.855 7
3.1889999 1.169 -1.852 7
3.342 1.204 -1.848 8
3.506 1.244 -1.845 8
0 0 0 0
0 0 0 0
3.027 1.122 -1.8559999 7
3.175 1.155 -1.853 7
3.3280001 1.1900001 -1.85 8
3.4949999 1.23 -1.849 8
0 0 0 0
1.5829999 0.59399998 -1.025 9
3.0090001 1.1059999 -1.854 7
3.1600001 1.14 -1.854 8
3.3169999 1.176 -1.853 8
3.4749999 1.212 -1.848 8
0 0 0 0
1.501 0.55800003 -0.97600001 5
3 1.094 -1.857 7
3.145 1.125 -1.853 7
3.3080001 1.1619999 -1.8559999 8
3.464 1.197 -1.85 8
0 0 0 0
0 0 0 0
2.983 1.0779999 -1.853 7
3.1370001 1.112 -1.8559999 7
3.2909999 1.146 -1.854 8
3.451 1.181 -1.851 8
0 0 0 0
0 0 0 0
2.9760001 1.0650001 -1.8559999 7
3.1210001 1.096 -1.854 7
3.2720001 1.128 -1.85 8
3.431 1.163 -1.848 8
0 0 0 0
0 0 0 0
2.9679999 1.052 -1.857 6
3.112 1.082 -1.854 7
3.2639999 1.114 -1.852 8
3.4230001 1.148 -1.85 8
0 0 0 0
0 0 0 0
2.9549999 1.0369999 -1.854 7
3.105 1.068 -1.855 7
3.2550001 1.099 -1.853 9
3.4059999 1.13 -1.847 8
0 0 0 0
0 0 0 0
2.9489999 1.024 -1.855 6
3.0969999 1.054 -1.855 7
3.2490001 1.085 -1.854 8
3.4030001 1.1160001 -1.85 8
0 0 0 0
0 0 0 0
2.947 1.012 -1.857 6
3.0929999 1.04 -1.857 7
3.237 1.068 -1.851 8
3.398 1.101 -1.851 8
0 0 0 0
0 0 0 0
2.9430001 0.99900001 -1.858 7
3.0799999 1.023 -1.852 7
3.2320001 1.053 -1.852 8
3.395 1.086 -1.853 8
0 0 0 0
0 0 0 0
1.4859999 0.498 -0.93900001 0
3.0880001 1.013 -1.86 7
3.2290001 1.039 -1.853 8
3.388 1.0700001 -1.852 8
0 0 0 0
0 0 0 0
2.9119999 0.963 -1.8430001 9
3.079 0.99699998 -1.8559999 7
3.2260001 1.024 -1.853 8
3.3840001 1.0549999 -1.852 8
0 0 0 0
0 0 0 0
0 0 0 0
3.0769999 0.98299998 -1.8559999 7
3.2219999 1.0089999 -1.852 8
3.3870001 1.041 -1.855 8
0 0 0 0
0 0 0 0
0 0 0 0
3.0799999 0.97100002 -1.858 7
3.224 0.99599999 -1.854 8
3.3900001 1.027 -1.857 8
0 0 0 0
0 0 0 0
0 0 0 0
3.082 0.95700002 -1.859 7
3.2260001 0.98199999 -1.854 8
3.385 1.01 -1.855 8
0 0 0 0
1.447 0.463 -0.96100003 7
0 0 0 0
3.079 0.94199997 -1.857 7
3.224 0.96600002 -1.853 8
3.388 0.99599999 -1.855 8
0 0 0 0
0 0 0 0
0 0 0 0
3.089 0.93000001 -1.8609999 7
3.234 0.954 -1.857 7
3.3970001 0.98199999 -1.859 8
0 0 0 0
1.455 0.45100001 -0.96399999 6
0 0 0 0
3.0929999 0.917 -1.8609999 7
3.2379999 0.94 -1.857 7
3.3900001 0.96399999 -1.852 8
0 0 0 0
1.461 0.44600001 -0.96600002 5
2.9070001 0.866 -1.832 5
3.098 0.903 -1.8609999 7
3.2409999 0.92400002 -1.8559999 8
3.404 0.95200002 -1.858 8
0 0 0 0
1.474 0.442 -0.97299999 5
2.9430001 0.86199999 -1.851 8
3.0999999 0.88800001 -1.858 7
3.25 0.91100001 -1.857 8
3.4059999 0.93599999 -1.855 8
0 0 0 0
1.474 0.435 -0.97000003 3
1.534 0.442 -0.963 0
3.1140001 0.87599999 -1.862 6
3.257 0.89700001 -1.857 7
3.4189999 0.92299998 -1.858 8
0 0 0 0
1.483 0.43000001 -0.97399998 3
2.973 0.84100002 -1.86 6
3.1140001 0.86000001 -1.857 7
3.2639999 0.88300002 -1.8559999 8
3.4230001 0.90600002 -1.855 8
0 0 0 0
1.494 0.42500001 -0.97799999 2
2.987 0.829 -1.863 7
3.128 0.84799999 -1.86 6
3.276 0.86900002 -1.857 8
3.434 0.89200002 -1.8559999 8
0 0 0 0
1.506 0.41999999 -0.98199999 2
2.9949999 0.815 -1.862 7
3.1359999 0.83399999 -1.858 8
3.286 0.85399997 -1.8559999 8
3.447 0.87800002 -1.857 8
0 0 0 0
1.52 0.41600001 -0.98699999 2
3.0079999 0.80299997 -1.863 7
3.1470001 0.81999999 -1.858 8
3.3039999 0.84200001 -1.859 8
3.457 0.86199999 -1.855 8
0 0 0 0
1.527 0.40900001 -0.98799998 2
3.0190001 0.78899997 -1.862 7
3.161 0.80699998 -1.859 8
3.312 0.82700002 -1.857 8
3.47 0.847 -1.854 8
0 0 0 0
1.54 0.40400001 -0.99199998 2
3.03 0.77600002 -1.86 7
3.177 0.79400003 -1.86 8
3.329 0.81300002 -1.858 8
3.487 0.833 -1.8559999 8
0 0 0 0
1.5599999 0.40099999 -1 2
3.0480001 0.764 -1.862 6
3.1949999 0.78100002 -1.8609999 7
3.345 0.79900002 -1.858 8
3.5020001 0.81900001 -1.854 8
0 0 0 0
1.585 0.398 -1.01 2
3.0599999 0.75 -1.86 7
3.2079999 0.76700002 -1.859 7
3.365 0.78600001 -1.86 8
3.5209999 0.80400002 -1.855 8
1.424 0.359 -0.94700003 4
1.6619999 0.40799999 -1.053 2
3.0840001 0.73799998 -1.864 7
3.224 0.75300002 -1.859 8
3.3829999 0.77200001 -1.859 8
3.539 0.79000002 -1.855 8
1.441 0.35499999 -0.95300001 4
0 0 0 0
3.0999999 0.72500002 -1.864 7
3.247 0.741 -1.8609999 7
3.4000001 0.75700003 -1.858 8
3.563 0.77600002 -1.8559999 9
1.455 0.34999999 -0.95599997 4
2.964 0.69499999 -1.857 9
3.119 0.71200001 -1.863 7
3.266 0.727 -1.8609999 7
3.4230001 0.74400002 -1.86 8
3.5880001 0.76200002 -1.858 8
1.473 0.34599999 -0.96200001 3
2.9990001 0.685 -1.867 6
3.1389999 0.699 -1.863 7
3.289 0.71399999 -1.862 7
3.447 0.73000002 -1.86 8
3.6070001 0.74699998 -1.8559999 9
1.497 0.34299999 -0.97100002 3
3.0079999 0.67000002 -1.86 7
3.161 0.68599999 -1.864 7
3.3099999 0.69999999 -1.8609999 8
3.464 0.71499997 -1.857 8
3.6359999 0.73299998 -1.858 8
1.526 0.34099999 -0.98199999 2
3.0369999 0.65899998 -1.865 7
3.187 0.67400002 -1.8660001 7
3.3299999 0.68599999 -1.859 8
3.494 0.70200002 -1.86 7
3.6630001 0.71899998 -1.859 8
1.554 0.338 -0.99299997 2
3.062 0.648 -1.8660001 7
3.2030001 0.65899998 -1.862 8
3.359 0.67299998 -1.862 8
3.517 0.68800002 -1.858 8
3.688 0.704 -1.857 8
1.604 0.33899999 -1.017 2
3.085 0.63499999 -1.8660001 7
3.2279999 0.64600003 -1.862 8
3.3859999 0.66000003 -1.862 8
3.543 0.67299998 -1.857 8
3.723 0.69099998 -1.86 8
0 0 0 0
3.109 0.62199998 -1.865 7
3.256 0.63300002 -1.863 8
3.4189999 0.648 -1.865 8
3.5780001 0.66100001 -1.8609999 8
3.747 0.67500001 -1.857 8
2.994 0.59899998 -1.868 9
3.135 0.60900003 -1.865 7
3.286 0.62099999 -1.865 8
3.454 0.63599998 -1.869 8
3.605 0.64600003 -1.859 8
3.7720001 0.65899998 -1.854 8
3.023 0.588 -1.87 6
3.1589999 0.59600002 -1.864 7
3.312 0.60699999 -1.863 7
3.473 0.62 -1.863 8
3.6400001 0.63300002 -1.8609999 8
3.8069999 0.64600003 -1.854 8
3.046 0.57499999 -1.868 7
3.1949999 0.58499998 -1.868 8
3.345 0.59500003 -1.8660001 8
3.5050001 0.60699999 -1.864 8
3.6689999 0.61799997 -1.859 8
3.845 0.63200003 -1.8559999 9
3.0739999 0.56199998 -1.868 7
3.227 0.57300001 -1.87 8
3.375 0.58200002 -1.865 8
3.5320001 0.59200001 -1.8609999 8
3.701 0.60399997 -1.858 9
3.8859999 0.61799997 -1.858 8
3.102 0.55000001 -1.867 7
3.2520001 0.55900002 -1.867 8
3.4089999 0.56900001 -1.8660001 8
3.5699999 0.57999998 -1.863 9
3.7420001 0.59100002 -1.86 9
3.9200001 0.60299999 -1.8559999 9
3.1329999 0.53799999 -1.868 6
3.289 0.54699999 -1.87 8
3.444 0.55599999 -1.867 8
3.609 0.56699997 -1.865 9
3.7709999 0.57599998 -1.8559999 8
3.96 0.58899999 -1.8559999 9
3.1689999 0.52600002 -1.8710001 7
3.3169999 0.53399998 -1.868 9
3.4809999 0.54400003 -1.868 8
3.6370001 0.55199999 -1.86 9
3.8110001 0.56199998 -1.857 9
4.0040002 0.574 -1.858 9
3.1919999 0.51200002 -1.865 7
3.3540001 0.52100003 -1.869 8
3.5190001 0.53100002 -1.869 9
3.6800001 0.53899997 -1.863 8
3.8499999 0.54799998 -1.8559999 9
4.0469999 0.56 -1.857 9
3.2279999 0.5 -1.8660001 7
3.3859999 0.50800002 -1.867 8
3.5510001 0.51599997 -1.8660001 9
3.717 0.52499998 -1.8609999 8
3.8889999 0.53299999 -1.855 9
4.0970001 0.546 -1.859 9
3.2639999 0.48800001 -1.867 7
3.424 0.495 -1.867 8
3.5840001 0.50199997 -1.863 9
3.7650001 0.51200002 -1.864 9
3.938 0.51999998 -1.857 10
4.1440001 0.53200001 -1.859 10
3.2980001 0.47499999 -1.865 7
3.467 0.48300001 -1.869 9
3.6259999 0.48899999 -1.864 9
3.803 0.49700001 -1.862 10
3.9890001 0.50700003 -1.859 10
4.197 0.51700002 -1.8609999 10
3.3440001 0.463 -1.87 7
3.5020001 0.46900001 -1.867 9
3.677 0.477 -1.868 9
3.848 0.484 -1.862 9
4.0450001 0.493 -1.863 9
4.2519999 0.50300002 -1.862 9
3.388 0.45100001 -1.873 8
3.552 0.458 -1.872 9
3.7179999 0.46399999 -1.867 9
3.8970001 0.47099999 -1.863 9
4.0910001 0.479 -1.8609999 10
4.3000002 0.48800001 -1.859 9
3.4200001 0.43799999 -1.868 8
3.5910001 0.44400001 -1.869 9
3.7579999 0.44999999 -1.864 9
3.9449999 0.45699999 -1.863 9
4.1500001 0.465 -1.864 10
4.3520002 0.47299999 -1.858 10
3.464 0.42500001 -1.869 8
3.628 0.43000001 -1.8660001 10
3.8150001 0.43700001 -1.869 8
3.9909999 0.442 -1.86 9
4.1999998 0.45100001 -1.862 11
4.4109998 0.458 -1.858 10
3.507 0.41299999 -1.869 8
3.6849999 0.419 -1.872 9
3.8529999 0.42300001 -1.864 8
4.0510001 0.42899999 -1.864 10
4.257 0.43599999 -1.863 10
4.4790001 0.44400001 -1.8609999 10
3.5539999 0.40000001 -1.87 8
3.727 0.405 -1.869 9
3.9070001 0.41 -1.865 9
4.1100001 0.41600001 -1.8660001 10
4.316 0.42199999 -1.863 11
4.5380001 0.42899999 -1.86 10
3.6059999 0.38800001 -1.873 9
3.7720001 0.391 -1.867 9
3.9549999 0.396 -1.863 9
4.1680002 0.403 -1.867 10
4.381 0.40900001 -1.864 11
4.6100001 0.41499999 -1.862 11
3.654 0.375 -1.873 9
3.829 0.37900001 -1.869 10
4.0159998 0.38299999 -1.8660001 10
4.2249999 0.38800001 -1.8660001 10
4.447 0.39399999 -1.8660001 10
4.6729999 0.40000001 -1.86 10
3.6930001 0.36199999 -1.868 8
3.8789999 0.366 -1.868 9
4.0679998 0.36899999 -1.863 11
4.283 0.37400001 -1.865 11
4.4970002 0.37900001 -1.859 10
4.7319999 0.384 -1.855 11
3.7520001 0.34999999 -1.8710001 9
3.9300001 0.352 -1.8660001 10
4.1360002 0.35699999 -1.868 10
4.3499999 0.361 -1.8660001 11
4.572 0.36500001 -1.862 11
4.809 0.37 -1.8559999 11
3.806 0.33700001 -1.8710001 9
3.9920001 0.33899999 -1.868 10
4.2010002 0.34299999 -1.869 11
4.421 0.347 -1.868 10
4.6420002 0.34999999 -1.8609999 10
4.8889999 0.35499999 -1.857 11
3.8640001 0.32499999 -1.873 9
4.0489998 0.32600001 -1.867 10
4.2620001 0.33000001 -1.868 11
4.4840002 0.333 -1.8660001 10
4.7129998 0.336 -1.86 11
4.974 0.34 -1.859 12
3.9200001 0.31200001 -1.872 9
4.1170001 0.31400001 -1.8710001 10
4.335 0.317 -1.8710001 10
4.559 0.31900001 -1.868 10
4.7839999 0.32100001 -1.858 11
5.0630002 0.32600001 -1.8609999 11
3.9760001 0.29899999 -1.8710001 9
4.1810002 0.301 -1.8710001 11
4.401 0.303 -1.87 10
4.619 0.30399999 -1.862 10
4.8670001 0.30700001 -1.859 12
5.1490002 0.31099999 -1.86 11
4.033 0.28600001 -1.869 9
4.2420001 0.287 -1.869 11
4.4759998 0.28999999 -1.872 11
4.6950002 0.28999999 -1.862 11
4.9569998 0.29300001 -1.8609999 12
5.243 0.296 -1.8609999 12
4.0929999 0.273 -1.867 10
4.3140001 0.27399999 -1.87 10
4.5440001 0.27500001 -1.869 12
4.77 0.27599999 -1.86 11
5.053 0.278 -1.864 12
5.3400002 0.28099999 -1.8609999 12
4.1659999 0.25999999 -1.8710001 9
4.3990002 0.26199999 -1.876 11
4.619 0.26100001 -1.868 11
4.8569999 0.26199999 -1.86 12
5.1459999 0.264 -1.864 12
5.434 0.26499999 -1.859 11
4.243 0.248 -1.874 10
4.461 0.248 -1.8710001 12
4.691 0.24699999 -1.865 11
4.9549999 0.248 -1.865 11
5.2360001 0.249 -1.863 11
5.54 0.25 -1.859 12
4.3140001 0.235 -1.874 10
4.5339999 0.234 -1.869 11
4.777 0.234 -1.8660001 11
5.0489998 0.234 -1.8660001 12
5.3340001 0.234 -1.862 11
5.6459999 0.234 -1.858 11
4.3839998 0.222 -1.872 10
4.6160002 0.221 -1.87 12
4.8629999 0.22 -1.8660001 12
5.1490002 0.22 -1.868 12
5.4419999 0.219 -1.863 12
5.7389998 0.21799999 -1.851 12
4.4660001 0.20900001 -1.875 11
4.6890001 0.207 -1.8660001 12
4.947 0.206 -1.863 12
5.244 0.205 -1.8660001 12
5.5339999 0.204 -1.858 11
5.875 0.20299999 -1.855 12
4.5430002 0.19599999 -1.873 10
4.7740002 0.19400001 -1.865 11
5.0580001 0.193 -1.869 12
5.3439999 0.191 -1.865 12
5.6630001 0.189 -1.862 12
6 0.18700001 -1.855 12
4.6259999 0.183 -1.873 11
4.8600001 0.18099999 -1.864 12
5.151 0.17900001 -1.867 12
5.448 0.176 -1.863 12
5.783 0.17399999 -1.862 13
6.1290002 0.171 -1.854 12
4.7030001 0.17 -1.87 10
4.9629998 0.167 -1.867 12
5.2550001 0.16500001 -1.868 11
5.5580001 0.162 -1.863 11
5.8889999 0.15899999 -1.857 12
6.2800002 0.156 -1.858 12
4.7919998 0.15700001 -1.87 11
5.0619998 0.154 -1.868 12
5.3639998 0.15099999 -1.869 11
5.6810002 0.148 -1.864 12
6.0349998 0.14399999 -1.8609999 12
6.434 0.141 -1.86 12
4.8779998 0.14399999 -1.867 11
5.164 0.141 -1.868 12
5.4759998 0.13699999 -1.868 13
5.8130002 0.134 -1.867 12
6.1799998 0.12899999 -1.863 11
6.585 0.124 -1.858 13
4.9699998 0.131 -1.865 12
5.2750001 0.12800001 -1.869 13
5.5819998 0.123 -1.865 13
5.9450002 0.119 -1.867 13
6.3260002 0.114 -1.863 12
6.7480001 0.108 -1.858 11
5.0799999 0.119 -1.868 11
5.3769999 0.114 -1.8660001 11
5.7010002 0.109 -1.863 12
6.072 0.104 -1.864 11
6.4899998 0.098999999 -1.8660001 12
6.9219999 0.092 -1.858 12
5.198 0.106 -1.872 11
5.493 0.101 -1.8660001 12
5.855 0.096000001 -1.8710001 11
6.224 0.089000002 -1.867 12
6.6290002 0.082999997 -1.86 12
7.1030002 0.075999998 -1.859 12
5.3060002 0.093000002 -1.872 10
5.6059999 0.086999997 -1.864 12
5.9850001 0.081 -1.87 13
6.3769999 0.075000003 -1.867 12
6.803 0.067000002 -1.8609999 12
7.296 0.059 -1.859 12
5.4089999 0.079999998 -1.867 11
5.7449999 0.074000001 -1.867 12
6.1279998 0.067000002 -1.87 12
6.5359998 0.059999999 -1.867 12
6.9780002 0.052000001 -1.86 12
7.4970002 0.043000001 -1.858 12
5.533 0.067000002 -1.868 11
5.8829999 0.061000001 -1.869 11
6.2709999 0.052999999 -1.868 12
6.698 0.045000002 -1.8660001 12
7.1739998 0.035999998 -1.863 12
7.7049999 0.026000001 -1.8559999 13
5.645 0.055 -1.864 11
6.0209999 0.046999998 -1.868 12
6.4260001 0.039000001 -1.868 12
6.8699999 0.029999999 -1.864 11
7.3779998 0.02 -1.863 12
7.9320002 0.0089999996 -1.8559999 12
5.7940001 0.041999999 -1.87 11
6.1659999 0.034000002 -1.867 12
6.5910001 0.025 -1.867 12
7.0479999 0.015 -1.862 12
7.5760002 0.0040000002 -1.859 13
8.158 -0.0070000002 -1.851 12
5.9310002 0.028999999 -1.869 12
6.3150001 0.02 -1.8660001 11
6.756 0.011 -1.8660001 11
7.2509999 0 -1.864 12
7.7930002 -0.011 -1.858 12
8.4130001 -0.025 -1.851 12
6.0780001 0.016000001 -1.87 11
6.4770002 0.0070000002 -1.8660001 12
6.941 -0.0020000001 -1.8660001 12
7.4530001 -0.014 -1.863 12
8.0419998 -0.027000001 -1.86 11
8.6590004 -0.041999999 -1.844 12
6.2309999 0.0040000002 -1.87 11
6.6370001 -0.0049999999 -1.863 12
7.1220002 -0.016000001 -1.863 12
7.6570001 -0.028999999 -1.859 11
8.2670002 -0.043000001 -1.854 11
8.9399996 -0.059 -1.841 12
6.3920002 -0.0080000004 -1.87 12
6.8179998 -0.017999999 -1.864 11
7.3280001 -0.030999999 -1.864 13
7.901 -0.044 -1.8609999 11
8.5279999 -0.059999999 -1.852 13
9.2139997 -0.077 -1.834 13
6.5560002 -0.02 -1.87 12
7 -0.032000002 -1.862 11
7.54 -0.045000002 -1.863 13
8.1260004 -0.059 -1.857 11
8.7729998 -0.075000003 -1.8430001 12
9.5419998 -0.094999999 -1.832 12
6.7309999 -0.033 -1.869 12
7.198 -0.045000002 -1.8609999 11
7.7670002 -0.059 -1.863 12
8.3769999 -0.074000001 -1.854 12
9.0670004 -0.092 -1.841 12
9.875 -0.113 -1.827 13
6.9109998 -0.045000002 -1.868 12
7.414 -0.057999998 -1.863 12
7.9949999 -0.072999999 -1.859 11
8.6379995 -0.089000002 -1.85 13
9.3660002 -0.108 -1.836 12
10.229 -0.131 -1.821 13
7.099 -0.057 -1.8660001 12
7.6539998 -0.071000002 -1.867 11
8.2390003 -0.086999997 -1.8559999 12
8.9110003 -0.105 -1.844 12
9.7110004 -0.125 -1.8329999 12
10.64 -0.15000001 -1.819 12
7.3070002 -0.068999998 -1.865 11
7.8740001 -0.083999999 -1.862 11
8.4899998 -0.101 -1.851 12
9.1940002 -0.119 -1.836 12
10.06 -0.142 -1.8279999 13
11.063 -0.169 -1.813 13
7.5289998 -0.081 -1.8660001 12
8.1140003 -0.097000003 -1.859 11
8.7460003 -0.114 -1.8430001 12
9.5279999 -0.13500001 -1.835 12
10.442 -0.15899999 -1.823 11
11.523 -0.18799999 -1.807 12
7.7579999 -0.093000002 -1.864 11
8.3649998 -0.11 -1.855 12
9.0480003 -0.12800001 -1.841 12
9.882 -0.15000001 -1.831 13
10.856 -0.176 -1.817 13
12.036 -0.207 -1.802 12
7.9990001 -0.105 -1.863 11
8.618 -0.122 -1.848 13
9.3529997 -0.142 -1.835 12
10.237 -0.16500001 -1.824 12
11.284 -0.193 -1.809 13
12.553 -0.227 -1.791 14
8.25 -0.116 -1.86 12
8.8970003 -0.134 -1.842 12
9.71 -0.156 -1.834 12
10.646 -0.18099999 -1.8200001 12
11.775 -0.211 -1.804 12
13.153 -0.24699999 -1.783 11
8.507 -0.127 -1.854 13
9.198 -0.146 -1.837 12
10.062 -0.169 -1.827 14
11.083 -0.19599999 -1.814 13
12.307 -0.228 -1.7970001 12
13.833 -0.26800001 -1.778 12
8.7559996 -0.138 -1.844 12
9.5229998 -0.15800001 -1.832 12
10.464 -0.183 -1.825 12
11.536 -0.211 -1.806 14
12.86 -0.24600001 -1.7869999 13
14.555 -0.28999999 -1.767 12
9.073 -0.148 -1.8430001 12
9.8800001 -0.17 -1.829 12
10.871 -0.19599999 -1.817 13
12.052 -0.226 -1.801 13
13.512 -0.264 -1.781 12
15.377 -0.31200001 -1.76 12
9.3809996 -0.15899999 -1.837 12
10.243 -0.18099999 -1.822 12
11.327 -0.20900001 -1.812 13
12.604 -0.241 -1.794 13
14.211 -0.28299999 -1.773 12
16.277 -0.33500001 -1.748 13
9.7399998 -0.169 -1.836 12
10.671 -0.193 -1.8200001 12
11.821 -0.222 -1.806 13
13.205 -0.257 -1.785 12
15.003 -0.30199999 -1.766 11
17.353001 -0.36000001 -1.742 11
10.09 -0.178 -1.827 13
11.103 -0.20299999 -1.813 13
12.365 -0.234 -1.8 13
13.88 -0.27200001 -1.777 11
15.887 -0.32100001 -1.757 12
18.542999 -0.38600001 -1.7309999 12
10.501 -0.18700001 -1.826 12
11.568 -0.213 -1.806 14
12.907 -0.24600001 -1.7869999 12
14.647 -0.28799999 -1.771 12
16.862 -0.34 -1.7460001 10
19.878 -0.412 -1.716 14
10.921 -0.19599999 -1.819 13
12.088 -0.22400001 -1.799 13
13.585 -0.259 -1.783 12
15.474 -0.303 -1.761 10
18.017 -0.36199999 -1.739 12
21.261 -0.43799999 -1.687 16
11.387 -0.204 -1.813 13
12.654 -0.233 -1.7920001 13
14.313 -0.271 -1.776 12
16.413 -0.31799999 -1.751 10
19.284 -0.38299999 -1.724 13
22.906 -0.465 -1.654 18
11.896 -0.211 -1.807 12
13.262 -0.242 -1.781 12
15.112 -0.28200001 -1.766 12
17.518999 -0.33399999 -1.744 11
20.635 -0.40200001 -1.699 15
25.021 -0.498 -1.632 9
12.441 -0.21799999 -1.8 12
13.962 -0.25 -1.776 12
16.000999 -0.29300001 -1.756 12
18.723 -0.34999999 -1.732 13
22.141001 -0.42199999 -1.6670001 18
27.427999 -0.53200001 -1.595 6
13.022 -0.223 -1.789 12
14.742 -0.25799999 -1.768 12
17.023001 -0.303 -1.7460001 10
20.072001 -0.36399999 -1.7130001 15
24.223 -0.447 -1.653 17
30.459999 -0.57200003 -1.559 4
13.689 -0.228 -1.783 11
15.562 -0.264 -1.757 12
18.202 -0.31400001 -1.74 12
21.503 -0.377 -1.686 17
26.462999 -0.47099999 -1.624 6
32.669998 -0.58999997 -1.448 17
14.409 -0.23199999 -1.775 12
16.500999 -0.26899999 -1.745 11
19.49 -0.32300001 -1.725 14
23.219999 -0.38999999 -1.658 19
28.796 -0.49000001 -1.5650001 3
36.984001 -0.63700002 -1.383 53
15.231 -0.234 -1.767 11
17.586 -0.27399999 -1.737 11
20.775 -0.32699999 -1.694 16
25.158001 -0.40000001 -1.62 11
32.582001 -0.52399999 -1.543 25
0 0 0 0
16.145 -0.235 -1.758 11
18.875 -0.27700001 -1.73 13
22.413 -0.33199999 -1.67 18
27.747 -0.41499999 -1.5930001 6
33.425999 -0.50300002 -1.35 0
0 0 0 0
17.179001 -0.234 -1.748 11
20.146 -0.27599999 -1.704 15
24.502001 -0.338 -1.654 21
30.433001 -0.42199999 -1.5369999 3
38.021 -0.52999997 -1.275 52
49.602001 -0.69499999 -0.82700002 13
18.354 -0.23 -1.74 12
21.579 -0.27200001 -1.675 17
26.646999 -0.33700001 -1.614 7
32.667999 -0.414 -1.424 12
39.706001 -0.50400001 -1.058 3
64.940002 -0.82599998 -0.63700002 4
19.656 -0.22400001 -1.725 14
23.349001 -0.266 -1.651 19
29.148001 -0.33199999 -1.563 4
37.150002 -0.42199999 -1.362 53
45.286999 -0.51300001 -0.89499998 16
77.632004 -0.87699997 -0.227 4
20.983999 -0.212 -1.6950001 16
25.233999 -0.25400001 -1.609 12
32.594002 -0.32699999 -1.525 27
39.150002 -0.38999999 -1.169 13
53.618 -0.52999997 -0.69499999 3
0 0 0 0
22.598 -0.197 -1.6670001 18
27.864 -0.241 -1.584 6
33.541 -0.28600001 -1.3380001 0
0 0 0 0
74.473999 -0.61799997 -0.45899999 7
0 0 0 0
24.591999 -0.178 -1.647 11
32.283001 -0.23 -1.615 14
38.242001 -0.26499999 -1.2640001 54
49.249001 -0.33399999 -0.79699999 7
84.306999 -0.55699998 0.050000001 7
105.669 -0.67799997 1.841 30
26.951 -0.152 -1.618 6
32.646 -0.178 -1.408 11
35.723 -0.18700001 -0.94 19
74.130997 -0.373 -0.70200002 12
84.758003 -0.40799999 0.61900002 11
84.737999 -0.38800001 2.0439999 30
30.431 -0.119 -1.619 10
35.744999 -0.131 -1.299 150
35.751999 -0.122 -0.69700003 102
77.57 -0.24600001 -0.212 13
84.690002 -0.245 1.192 89
84.732002 -0.221 2.612 37
32.591999 -0.068999998 -1.5140001 22
35.743999 -0.064999998 -1.059 150
35.748001 -0.054000001 -0.458 11
84.704002 -0.1 0.34 76
104.897 -0.090999998 2.178 51
105.312 -0.055 3.9549999 37
35.736 -0.0060000001 -1.4170001 141
35.749001 0.0060000001 -0.81699997 150
77.037003 0.041000001 -0.465 16
0 0 0 0
104.723 0.133 2.8759999 50
0 0 0 0
35.737 0.067000002 -1.177 150
35.737 0.081 -0.57800001 7
84.176003 0.22400001 0.048 7
89.596001 0.27500001 1.549 10
105.254 0.368 3.5840001 23
83.162003 0.32699999 4.223 16
35.742001 0.14399999 -0.93699998 150
35.776001 0.15899999 -0.34200001 6
0 0 0 0
90.625999 0.48800001 2.1689999 6
83.339996 0.48800001 3.3870001 21
83.041 0.52700001 4.7680001 20
35.779999 0.22499999 -0.70300001 150
40.169998 0.27200001 -0.119 10
88.306 0.64200002 1.2130001 21
83.971001 0.653 2.5550001 13
83.333 0.69 3.927 34
82.676003 0.73299998 5.289 16
35.844002 0.31 -0.47 150
0 0 0 0
88.176003 0.85900003 1.789 21
57.946999 0.597 2.1440001 6
83.197998 0.90499997 4.467 37
82.694 0.949 5.8260002 44
37.394001 0.417 -0.243 45
88.021004 1.031 0.88700002 15
57.797001 0.71200001 1.546 25
57.964001 0.75 2.5209999 19
82.822998 1.124 4.9879999 21
82.816002 1.178 6.3759999 29
37.478001 0.51499999 0 3
56.675999 0.81300002 0.93900001 26
57.376999 0.861 1.906 44
57.785999 0.90399998 2.882 8
82.914001 1.354 5.5219998 21
82.589996 1.405 6.881 48
88.345001 1.452 0.56599998 21
56.575001 0.96899998 1.304 50
56.584999 1.007 2.244 49
83.720001 1.55 4.7160001 26
82.539001 1.5880001 6.0300002 37
82.559998 1.651 7.415 13
56.707001 1.092 0.72899997 20
56.258999 1.123 1.654 74
56.976002 1.1799999 2.625 50
83.922997 1.803 5.2659998 33
83.119003 1.851 6.6059999 40
0 0 0 0
56.372002 1.25 1.084 40
56.500999 1.298 2.0280001 64
56.951 1.352 2.9879999 3
83.510002 2.0510001 5.7729998 36
83.170998 2.1129999 7.1399999 9
0 0 0 0
56.014999 1.414 1.436 52
56.705002 1.476 2.3900001 67
84.232002 2.2639999 4.9499998 42
83.348 2.3099999 6.283 39
0 0 0 0
0 0 0 0
56.081001 1.587 1.783 75
57.207001 1.67 2.7679999 18
84.040001 2.5280001 5.461 43
84.25 2.609 6.875 41
0 0 0 0
33.568001 1.102 3.8629999 26
56.676998 1.7869999 2.155 59
84.803001 2.7520001 4.6259999 28
34.154999 1.1390001 2.428 6
33.549999 1.151 2.944 97
33.273998 1.175 3.4779999 122
33.287998 1.21 4.039 103
34.081001 1.189 1.508 10
33.469002 1.2 2.033 118
33.261002 1.224 2.5710001 133
33.269001 1.258 3.1259999 96
0 0 0 0
0 0 0 0
33.25 1.274 1.673 130
33.268002 1.309 2.2249999 108
33.255001 1.3430001 2.7750001 34
0 0 0 0
0 0 0 0
0 0 0 0
33.228001 1.392 1.875 32
32.965 1.416 2.404 18
32.664001 1.437 2.9230001 53
0 0 0 0
0 0 0 0
0 0 0 0
32.66 1.487 2.04 57
106.741 4.9759998 8.4250002 11
0 0 0 0
0 0 0 0
0 0 0 0
0 0 0 0
105.662 5.211 7.2360001 23
107.063 5.4000001 9.0930004 33
0 0 0 0
0 0 0 0
0 0 0 0
0 0 0 0
107.217 5.6999998 7.9770002 30
107.286 5.8330002 9.75 23
69.415001 3.859 7.46 3
0 0 0 0
0 0 0 0
0 0 0 0
106.462 6.0830002 8.5480003 31
107.917 6.3010001 10.444 36
68.679001 4.0960002 7.7839999 42
0 0 0 0
0 0 0 0
0 0 0 0
68.885002 4.2140002 5.928 4
68.671997 4.2880001 7.039 60
69.033997 4.4029999 8.2220001 41
68.728996 4.4780002 9.3339996 18
0 0 0 0
0 0 0 0
68.879997 4.4980001 6.3210001 11
68.333 4.5539999 7.3969998 56
68.411003 4.6539998 8.5419998 48
69.031998 4.7950001 9.7740002 27
0 0 0 0
0 0 0 0
68.761002 4.7810001 6.698 29
67.139 4.7620001 7.6469998 67
67.988998 4.9200001 8.8739996 56
68.561996 5.0599999 10.094 57
0 0 0 0
0 0 0 0
67.167999 4.9619999 6.921 30
67.292 5.0679998 8.0439997 60
67.907997 5.2129998 9.2449999 55
68.653999 5.3759999 10.497 9
0 0 0 0
0 0 0 0
67.388 5.2789998 7.3189998 32
67.376999 5.3759999 8.427 45
67.781998 5.513 9.6059999 52
0 0 0 0
0 0 0 0
0 0 0 0
67.166 5.566 7.665 36
67.411003 5.6900001 8.8059998 53
69.222 5.9530001 10.196 45
0 0 0 0
0 0 0 0
0 0 0 0
67.223999 5.8870001 8.0419998 39
67.802002 6.0430002 9.2299995 53
69.420998 6.302 10.608 11
0 0 0 0
0 0 0 0
0 0 0 0
67.901001 6.2680001 8.4899998 38
67.862999 6.3730001 9.6049995 53
0 0 0 0
0 0 0 0
0 0 0 0
35.436001 3.5780001 7.414 29
68.013 6.605 8.8629999 57
67.739998 6.6939998 9.9519997 8
0 0 0 0
0 0 0 0
0 0 0 0
35.110001 3.7260001 7.539 47
67.962997 6.9369998 9.2159996 40
70.661003 7.335 10.753 64
0 0 0 0
0 0 0 0
35.477001 3.8800001 7.198 30
34.949001 3.891 7.6939998 46
69.132004 7.402 9.7340002 59
0 0 0 0
0 0 0 0
0 0 0 0
35.122002 4.0250001 7.3140001 44
35.160999 4.1009998 7.9289999 46
69.422997 7.7930002 10.135 50
0 0 0 0
0 0 0 0
35.716 4.21 7.0100002 11
35.051998 4.2030001 7.4809999 47
35.284 4.3039999 8.1420002 18
70.116997 8.2340002 10.592 17
0 0 0 0
0 0 0 0
35.34 4.3559999 7.1199999 48
30.601 3.836 6.691 1
35.683998 4.5500002 8.4219999 9
70.038002 8.5939999 10.927 5
0 0 0 0
0 0 0 0
30.836 3.9679999 6.369 3
32.050999 4.1929998 7.171 1
31.681999 4.2160001 7.6409998 48
68.602997 8.7849998 11.042 10
0 0 0 0
34.599998 4.5689998 6.7280002 46
30.707001 4.1209998 6.4949999 8
31.83 4.3429999 7.283 16
31.813999 4.4120002 7.8340001 39
0 0 0 0
33.395 4.526 6.0949998 1
34.431 4.7399998 6.8660002 44
31.888 4.4580002 6.9029999 54
31.441 4.4689999 7.3520002 24
31.688 4.5780001 7.9640002 38
0 0 0 0
34.123001 4.8150001 6.3909998 44
32.207001 4.6149998 6.5770001 39
31.672001 4.6079998 7.0100002 53
31.327999 4.632 7.4790001 37
32.396 4.868 8.3030005 42
33.948002 4.9099998 5.9510002 27
33.728001 4.9510002 6.4770002 47
31.378 4.6760001 6.5580001 57
31.681 4.7930002 7.165 39
0 0 0 0
32.526001 5.0809999 8.4960003 41
33.914001 5.098 6.1009998 43
33.237 5.0700002 6.539 45
31.900999 4.9369998 6.8179998 53
32.137001 5.0500002 7.4219999 41
31.363001 5.006 7.79 41
31.415001 5.0949998 8.3590002 41
33.452 5.224 6.1719999 44
30.903999 4.895 6.223 65
32.134998 5.1659999 7.0190001 56
31.604 5.1560001 7.448 38
31.308001 5.1869998 7.9260001 38
31.721001 5.3390002 8.5939999 41
30.929001 5.0120001 5.8470001 11
30.851 5.0710001 6.3520002 56
32.331001 5.3899999 7.2080002 42
31.492001 5.329 7.566 38
31.129 5.348 8.0270004 39
31.902 5.5679998 8.7950001 41
30.913 5.1929998 5.9809999 17
31.002001 5.2810001 6.5219998 38
32.676998 5.645 7.4330001 43
31.535999 5.527 7.7199998 40
32.172001 5.7259998 8.4429998 26
31.641001 5.7189999 8.8690004 41
31.23 5.4359999 6.1799998 32
31.263 5.5149999 6.7150002 50
32.640999 5.8400002 7.5710001 43
31.566 5.7290001 7.8699999 40
0 0 0 0
31.771 5.9419999 9.0509996 44
31.351999 5.6459999 6.336 51
31.393999 5.7309999 6.8769999 40
32.200001 5.9590001 7.6069999 42
31.604 5.934 8.0179996 41
31.547001 6.0110002 8.5620003 40
32.557999 6.2979999 9.4219999 24
31.487 5.8639998 6.4949999 40
30.868999 5.8270001 6.8930001 36
31.790001 6.085 7.6479998 50
31.712999 6.1550002 8.184 27
31.48 6.1999998 8.6829996 39
31.812 6.3610001 9.349 6
31.073 5.9809999 6.5380001 45
30.764999 6.0009999 6.9970002 26
31.763 6.2810001 7.7740002 40
31.32 6.2810001 8.217 40
31.698 6.4489999 8.8809996 41
31.705999 6.5479999 9.4580002 1
31.295 6.2210002 6.7119999 40
32.213001 6.4879999 7.4590001 9
31.462999 6.4239998 7.8309999 40
31.177 6.4549999 8.309 39
31.802999 6.6799998 9.0469999 58
31.681999 6.7540002 9.5889997 3
31.447001 6.4530001 6.8699999 42
32.033001 6.6599998 7.5469999 40
31.589001 6.6539998 7.9910002 39
31.277 6.6789999 8.4650002 40
31.827 6.8920002 9.1850004 37
0 0 0 0
31.818001 6.7329998 7.073 52
31.386999 6.7259998 7.5159998 6
31.160999 6.7659998 8.0059996 2
32.772999 7.2150002 9.0010004 0
31.907 7.125 9.3400002 26
0 0 0 0
30.947001 6.75 6.9980001 39
31.296 6.9130001 7.6160002 17
0 0 0 0
0 0 0 0
0 0 0 0
0 0 0 0
31.143999 6.9990001 7.1599998 58
30.652 6.9759998 7.5760002 6
0 0 0 0
0 0 0 0
0 0 0 0
0 0 0 0
31.052 7.184 7.2509999 16
30.945 7.2490001 7.7620001 9
0 0 0 0
0 0 0 0
0 0 0 0
0 0 0 0
30.982 7.3769999 7.3460002 4
0 0 0 0
0 0 0 0
0 0 0 0
0 0 0 0
0 0 0 0
36.808998 9.0150003 8.8570004 42
34.377998 8.5240002 8.8710003 48
0 0 0 0
0 0 0 0
0 0 0 0
0 0 0 0
34.865002 8.7740002 8.5059996 52
34.048 8.6719999 8.9020004 47
0 0 0 0
0 0 0 0
0 0 0 0
0 0 0 0
34.076 8.8070002 8.427 49
33.910999 8.8690004 8.9799995 47
0 0 0 0
0 0 0 0
0 0 0 0
0 0 0 0
33.436001 8.8730001 8.375 46
33.937 9.1149998 9.1000004 49
0 0 0 0
0 0 0 0
0 0 0 0
0 0 0 0
33.314999 9.0749998 8.4510002 45
33.560001 9.2489996 9.1049995 46
0 0 0 0
0 0 0 0
0 0 0 0
0 0 0 0
33.370998 9.3219995 8.5649996 45
0 0 0 0
33.860001 9.6870003 9.901 40
0 0 0 0
0 0 0 0
0 0 0 0
32.651001 9.349 8.4779997 48
34.424999 9.9729996 9.5500002 50
33.826 9.9200001 9.9960003 9
0 0 0 0
0 0 0 0
0 0 0 0
32.153 9.4359999 8.4420004 44
34.006001 10.095 9.5340004 48
33.858002 10.174 10.108 23
0 0 0 0
0 0 0 0
0 0 0 0
31.466 9.4589996 8.3479996 52
33.779999 10.272 9.566 55
0 0 0 0
0 0 0 0
0 0 0 0
0 0 0 0
31.326 9.6409998 8.3959999 47
33.848999 10.536 9.6800003 48
0 0 0 0
0 0 0 0
0 0 0 0
0 0 0 0
31.121 9.8039999 8.4230003 49
33.714001 10.743 9.7320004 46
0 0 0 0
0 0 0 0
0 0 0 0
0 0 0 0
31.693001 10.215 8.658 44
33.647999 10.967 9.8000002 48
0 0 0 0
0 0 0 0
0 0 0 0
0 0 0 0
0 0 0 0
33.318001 11.103 9.7860003 48
0 0 0 0
0 0 0 0
0 0 0 0
0 0 0 0
31.413 10.579 8.7290001 2
33.360001 11.361 9.8780003 50
0 0 0 0
0 0 0 0
0 0 0 0
0 0 0 0
33.521999 11.534 9.3889999 50
33.229 11.561 9.9160004 48
0 0 0 0
0 0 0 0
0 0 0 0
0 0 0 0
33.068001 11.621 9.3330002 50
0 0 0 0
0 0 0 0
0 0 0 0
0 0 0 0
0 0 0 0
33.057999 11.86 9.3970003 38
0 0 0 0
0 0 0 0
0 0 0 0
0 0 0 0
0 0 0 0
33.125 12.126 9.4790001 9
0 0 0 0
0 0 0 0
0 0 0 0
0 0 0 0
0 0 0 0
0 0 0 0
0 0 0 0
0 0 0 0
0 0 0 0
0 0 0 0
0 0 0 0
0 0 0 0
0 0 0 0
0 0 0 0
0 0 0 0
0 0 0 0
0 0 0 0
0 0 0 0
0 0 0 0
0 0 0 0
0 0 0 0
0 0 0 0
0 0 0 0
0 0 0 0
0 0 0 0
0 0 0 0
0 0 0 0
0 0 0 0
0 0 0 0
0 0 0 0
0 0 0 0
0 0 0 0
0 0 0 0
0 0 0 0
0 0 0 0
0 0 0 0
0 0 0 0
0 0 0 0
0 0 0 0
0 0 0 0
0 0 0 0
0 0 0 0
0 0 0 0
0 0 0 0
0 0 0 0
0 0 0 0
0 0 0 0
0 0 0 0
0 0 0 0
0 0 0 0
0 0 0 0
0 0 0 0
0 0 0 0
0 0 0 0
0 0 0 0
0 0 0 0
0 0 0 0
0 0 0 0
0 0 0 0
0 0 0 0
0 0 0 0
0 0 0 0
0 0 0 0
0 0 0 0
0 0 0 0
0 0 0 0
0 0 0 0
0 0 0 0
0 0 0 0
0 0 0 0
0 0 0 0
0 0 0 0
0 0 0 0
0 0 0 0
0 0 0 0
0 0 0 0
0 0 0 0
0 0 0 0
0 0 0 0
0 0 0 0
0 0 0 0
0 0 0 0
0 0 0 0
0 0 0 0
0 0 0 0
0 0 0 0
0 0 0 0
0 0 0 0
0 0 0 0
0 0 0 0
0 0 0 0
0 0 0 0
0 0 0 0
0 0 0 0
0 0 0 0
0 0 0 0
0 0 0 0
0 0 0 0
0 0 0 0
0 0 0 0
0 0 0 0
0 0 0 0
0 0 0 0
0 0 0 0
0 0 0 0
0 0 0 0
0 0 0 0
0 0 0 0
0 0 0 0
0 0 0 0
0 0 0 0
0 0 0 0
0 0 0 0
0 0 0 0
0 0 0 0
0 0 0 0
0 0 0 0
0 0 0 0
0 0 0 0
0 0 0 0
0 0 0 0
0 0 0 0
0 0 0 0
0 0 0 0
0 0 0 0
0 0 0 0
0 0 0 0
0 0 0 0
0 0 0 0
0 0 0 0
0 0 0 0
0 0 0 0
0 0 0 0
0 0 0 0
0 0 0 0
0 0 0 0
0 0 0 0
0 0 0 0
0 0 0 0
0 0 0 0
0 0 0 0
0 0 0 0
0 0 0 0
0 0 0 0
0 0 0 0
0 0 0 0
0 0 0 0
0 0 0 0
0 0 0 0
0 0 0 0
0 0 0 0
0 0 0 0
