# .PCD v0.7 - Point Cloud Data file format
VERSION 0.7
FIELDS x y z intensity
SIZE 4 4 4 4
TYPE F F F F
COUNT 1 1 1 1
WIDTH 1893
HEIGHT 1
VIEWPOINT 0 0 0 1 0 0 0
POINTS 1893
DATA ascii
0 0 0 0
0 0 0 0
0 0 0 0
0 0 0 0
0 0 0 0
0 0 0 0
0 0 0 0
0 0 0 0
0 0 0 0
0 0 0 0
0 0 0 0
0 0 0 0
0 0 0 0
0 0 0 0
0 0 0 0
0 0 0 0
0 0 0 0
0 0 0 0
0 0 0 0
0 0 0 0
0 0 0 0
0 0 0 0
0 0 0 0
0 0 0 0
0 0 0 0
0 0 0 0
0 0 0 0
0 0 0 0
0 0 0 0
0 0 0 0
0 0 0 0
0 0 0 0
0 0 0 0
0 0 0 0
0 0 0 0
0 0 0 0
0 0 0 0
0 0 0 0
0 0 0 0
0 0 0 0
0 0 0 0
0 0 0 0
0 0 0 0
0 0 0 0
0 0 0 0
0 0 0 0
0 0 0 0
0 0 0 0
0 0 0 0
0 0 0 0
0 0 0 0
0 0 0 0
0 0 0 0
0 0 0 0
0 0 0 0
0 0 0 0
0 0 0 0
0 0 0 0
0 0 0 0
0 0 0 0
0 0 0 0
0 0 0 0
0 0 0 0
0 0 0 0
0 0 0 0
0 0 0 0
0 0 0 0
0 0 0 0
0 0 0 0
0 0 0 0
0 0 0 0
0 0 0 0
0 0 0 0
0 0 0 0
0 0 0 0
0 0 0 0
0 0 0 0
0 0 0 0
0 0 0 0
0 0 0 0
0 0 0 0
0 0 0 0
0 0 0 0
0 0 0 0
0 0 0 0
0 0 0 0
0 0 0 0
0 0 0 0
0 0 0 0
0 0 0 0
0 0 0 0
0 0 0 0
0 0 0 0
31.108 1.437 6.5970001 24
0 0 0 0
0 0 0 0
0 0 0 0
0 0 0 0
0 0 0 0
31.583 1.48 6.4749999 33
0 0 0 0
0 0 0 0
0 0 0 0
0 0 0 0
0 0 0 0
31.851 1.511 6.2969999 5
31.059 1.45 6.6389999 27
0 0 0 0
0 0 0 0
0 0 0 0
0 0 0 0
0 0 0 0
31.493 1.484 6.5009999 35
0 0 0 0
0 0 0 0
0 0 0 0
0 0 0 0
0 0 0 0
31.784 1.5089999 6.3299999 9
31.041 1.451 6.6810002 18
0 0 0 0
0 0 0 0
0 0 0 0
0 0 0 0
0 0 0 0
31.302 1.471 6.507 27
0 0 0 0
0 0 0 0
0 0 0 0
0 0 0 0
0 0 0 0
31.774 1.498 6.3740001 23
31.052 1.442 6.7290001 6
0 0 0 0
0 0 0 0
0 0 0 0
0 0 0 0
0 0 0 0
31.209 1.45 6.5310001 32
0 0 0 0
0 0 0 0
0 0 0 0
0 0 0 0
0 0 0 0
31.73 1.472 6.4060001 29
31.156 1.424 6.7909999 1
0 0 0 0
0 0 0 0
0 0 0 0
0 0 0 0
0 0 0 0
31.149 1.418 6.5599999 29
0 0 0 0
0 0 0 0
0 0 0 0
0 0 0 0
0 0 0 0
31.681 1.434 6.4369998 31
0 0 0 0
0 0 0 0
0 0 0 0
0 0 0 0
0 0 0 0
31.790001 1.427 6.2259998 0
31.171 1.3789999 6.6030002 19
0 0 0 0
0 0 0 0
0 0 0 0
0 0 0 0
0 0 0 0
31.629999 1.3839999 6.4660001 33
0 0 0 0
0 0 0 0
0 0 0 0
0 0 0 0
0 0 0 0
31.931999 1.378 6.2909999 14
0 0 0 0
0 0 0 0
0 0 0 0
0 0 0 0
0 0 0 0
0 0 0 0
0 0 0 0
0 0 0 0
0 0 0 0
0 0 0 0
0 0 0 0
0 0 0 0
0 0 0 0
0 0 0 0
0 0 0 0
0 0 0 0
0 0 0 0
0 0 0 0
33.022999 1.416 3.0120001 18
0 0 0 0
0 0 0 0
0 0 0 0
0 0 0 0
0 0 0 0
33.173 1.385 2.799 25
0 0 0 0
0 0 0 0
0 0 0 0
0 0 0 0
0 0 0 0
33.228001 1.344 2.5739999 31
33.224998 1.322 3.072 36
33.235001 1.301 3.5739999 38
33.243 1.281 4.079 31
0 0 0 0
0 0 0 0
33.183998 1.296 2.3410001 118
33.198002 1.275 2.8380001 123
33.203999 1.2539999 3.3399999 123
33.202 1.234 3.8429999 114
33.221001 1.214 4.3509998 111
33.242001 1.1950001 4.8629999 112
33.200001 1.248 2.118 95
33.209999 1.227 2.6140001 103
33.216 1.206 3.1140001 89
33.221001 1.186 3.615 99
33.227001 1.166 4.1209998 91
33.255001 1.148 4.632 13
33.679001 1.2130001 1.9220001 33
33.644001 1.1900001 2.4219999 33
33.652 1.17 2.9260001 34
33.497002 1.1440001 3.4170001 21
33.495998 1.124 3.925 18
33.583 1.107 4.4439998 36
56.633999 1.943 2.8499999 23
84.460999 2.845 5.506 33
84.322998 2.789 6.7579999 41
0 0 0 0
0 0 0 0
0 0 0 0
56.694 1.844 2.473 49
84.431 2.6930001 4.9349999 41
84.151001 2.6300001 6.1669998 37
84.177002 2.5810001 7.4310002 35
0 0 0 0
0 0 0 0
56.325001 1.723 2.079 59
57.144001 1.7130001 2.954 5
83.889 2.464 5.5830002 42
83.382004 2.4000001 6.796 40
0 0 0 0
0 0 0 0
55.993999 1.599 1.6900001 43
56.661999 1.5829999 2.5469999 56
84.170998 2.302 5.0349998 35
83.258003 2.2279999 6.2179999 39
84.649002 2.217 7.5890002 30
0 0 0 0
56.173 1.485 1.325 37
56.485001 1.459 2.165 58
56.894001 1.4349999 3.0220001 6
83.696999 2.062 5.6880002 33
82.988998 1.998 6.8779998 43
0 0 0 0
56.285 1.362 0.95599997 17
56.229 1.326 1.783 56
56.59 1.302 2.632 27
83.82 1.881 5.1399999 24
82.577003 1.806 6.289 35
82.944 1.7690001 7.5539999 21
88.358002 1.9299999 0.921 15
56.356998 1.197 1.416 40
56.547001 1.169 2.256 59
84.083 1.691 4.5970001 14
82.856003 1.619 5.757 25
82.75 1.573 6.98 31
37.492001 0.727 0.147 3
56.59 1.066 1.056 47
56.789001 1.035 1.893 49
57.59 1.017 2.7690001 21
82.806999 1.418 5.2080002 36
82.644997 1.37 6.421 32
37.223999 0.62699997 -0.093000002 45
87.956001 1.432 1.0700001 28
56.709 0.89099997 1.523 23
0 0 0 0
83.463997 1.2180001 4.6999998 22
82.452003 1.16 5.8639998 40
36.563999 0.51800001 -0.32800001 49
40.088001 0.54500002 0.227 5
56.633999 0.73900002 1.152 19
57.919998 0.72399998 2.0320001 2
83.291 0.99599999 4.1469998 36
82.852997 0.94599998 5.3449998 16
35.73 0.40799999 -0.54799998 150
37.500999 0.40700001 -0.026000001 8
88.306 0.912 1.2359999 29
0 0 0 0
83.164001 0.76999998 3.609 29
82.992996 0.72399998 4.8210001 33
35.696999 0.30500001 -0.77399999 150
37.465 0.29899999 -0.264 32
0 0 0 0
88.540001 0.61299998 1.972 8
84.209 0.53799999 3.1099999 16
83.193001 0.48800001 4.2919998 18
35.675999 0.199 -0.99800003 126
35.705002 0.17900001 -0.47799999 150
0 0 0 0
0 0 0 0
104.577 0.35800001 3.1919999 47
0 0 0 0
35.674 0.089000002 -1.223 150
35.691002 0.068999998 -0.70300001 136
74.075996 0.103 -0.375 5
0 0 0 0
104.833 0.041000001 2.5409999 47
105.348 -0.013 4.0929999 28
32.687 -0.022 -1.324 4
35.692001 -0.043000001 -0.92299998 150
35.672001 -0.061000001 -0.40000001 15
84.495003 -0.189 0.285 74
84.602997 -0.23199999 1.524 58
84.624001 -0.27500001 2.7590001 40
32.432999 -0.12800001 -1.512 17
0 0 0 0
45.673 -0.228 -0.79500002 4
77.514 -0.42699999 -0.21699999 11
0 0 0 0
105.583 -0.68900001 2.7809999 48
28.811001 -0.212 -1.521 3
33.478001 -0.264 -1.278 1
42.625 -0.35699999 -1.0039999 20
64.503998 -0.574 -0.579 5
117.43 -1.104 0.65600002 84
0 0 0 0
26.667999 -0.289 -1.5700001 6
32.556 -0.36899999 -1.439 23
38.765999 -0.458 -1.146 27
49.349998 -0.60799998 -0.73900002 7
110.661 -1.416 -0.041999999 9
110.243 -1.4630001 1.563 19
24.749001 -0.35600001 -1.603 13
29.534 -0.43900001 -1.4809999 2
36.979 -0.56800002 -1.314 53
0 0 0 0
76.035004 -1.243 -0.48800001 27
115.761 -1.95 0.93699998 24
22.915001 -0.41499999 -1.622 15
27.416 -0.509 -1.539 5
32.702999 -0.62400001 -1.359 6
40.202 -0.78600001 -1.084 19
53.046001 -1.062 -0.65700001 17
0 0 0 0
21.524 -0.47099999 -1.651 17
25.405001 -0.56800002 -1.577 6
32.450001 -0.741 -1.54 18
37.845001 -0.88300002 -1.244 53
44.960999 -1.0700001 -0.82499999 17
76.960999 -1.867 -0.29300001 15
20.325001 -0.52399999 -1.678 15
23.604 -0.62 -1.604 11
28.603001 -0.76499999 -1.526 4
33.237999 -0.90399998 -1.2869999 4
40.688999 -1.125 -0.98500001 3
45.304001 -1.275 -0.44 50
19.233 -0.574 -1.701 13
22.101999 -0.67000002 -1.631 17
26.596001 -0.81800002 -1.574 6
32.660999 -1.018 -1.455 30
39.167999 -1.239 -1.176 57
45.280998 -1.454 -0.704 24
18.218 -0.61799997 -1.716 12
20.899 -0.71799999 -1.6619999 16
24.813 -0.86400002 -1.61 8
30.355 -1.069 -1.525 6
33.277 -1.187 -1.189 33
44.006001 -1.589 -0.93300003 35
17.245001 -0.65700001 -1.722 11
19.826 -0.76300001 -1.688 14
23.101999 -0.89999998 -1.6289999 18
27.816 -1.095 -1.5549999 5
32.921001 -1.3099999 -1.3609999 33
33.403999 -1.344 -0.89600003 92
16.452999 -0.69700003 -1.735 10
18.788 -0.80299997 -1.705 13
21.705 -0.93699998 -1.651 17
25.937 -1.131 -1.594 6
32.641998 -1.437 -1.531 25
33.365002 -1.483 -1.081 102
15.7 -0.73299998 -1.743 9
17.802999 -0.838 -1.7130001 11
20.612 -0.97899997 -1.682 15
24.207001 -1.16 -1.622 14
0 0 0 0
33.355999 -1.628 -1.267 37
15.029 -0.76999998 -1.752 11
16.944 -0.87400001 -1.725 10
19.504 -1.0140001 -1.7 14
22.617001 -1.186 -1.64 18
27.184 -1.436 -1.575 5
32.962002 -1.755 -1.432 38
14.412 -0.80400002 -1.7589999 11
16.179001 -0.90899998 -1.735 9
18.511 -1.0470001 -1.714 12
21.382 -1.2180001 -1.666 17
25.469 -1.461 -1.613 8
0 0 0 0
13.847 -0.838 -1.766 10
15.461 -0.94099998 -1.742 9
17.594 -1.077 -1.723 11
20.326 -1.252 -1.693 15
23.830999 -1.477 -1.637 15
29.579 -1.846 -1.602 26
13.352 -0.87099999 -1.773 10
14.839 -0.97299999 -1.75 11
16.806 -1.108 -1.734 10
19.268999 -1.278 -1.706 13
22.34 -1.49 -1.652 18
26.676001 -1.789 -1.585 6
12.867 -0.90200001 -1.777 11
14.281 -1.005 -1.7589999 10
16.091999 -1.138 -1.744 10
18.309999 -1.301 -1.716 12
21.205 -1.515 -1.677 16
24.992001 -1.795 -1.613 8
12.464 -0.935 -1.785 11
13.757 -1.036 -1.766 10
15.435 -1.1670001 -1.752 10
17.509001 -1.33 -1.73 11
20.157 -1.539 -1.698 15
23.507999 -1.804 -1.638 14
12.073 -0.96700001 -1.7920001 11
13.285 -1.067 -1.773 12
14.829 -1.197 -1.76 10
16.747999 -1.357 -1.74 10
19.181999 -1.5599999 -1.712 13
22.172001 -1.812 -1.656 17
11.714 -0.99800003 -1.798 11
12.84 -1.097 -1.779 11
14.264 -1.223 -1.765 10
16.034 -1.38 -1.7460001 9
18.267 -1.5779999 -1.722 12
21.129 -1.834 -1.684 16
11.379 -1.029 -1.804 12
12.437 -1.128 -1.785 12
13.756 -1.251 -1.77 11
15.45 -1.41 -1.7589999 10
17.483 -1.601 -1.733 11
20.105 -1.849 -1.701 15
11.085 -1.061 -1.812 12
12.062 -1.1569999 -1.791 12
13.312 -1.281 -1.778 12
14.852 -1.434 -1.763 11
16.763 -1.623 -1.743 10
19.183001 -1.864 -1.715 13
10.782 -1.091 -1.816 10
11.721 -1.188 -1.798 11
12.893 -1.3099999 -1.785 12
14.321 -1.46 -1.77 11
16.094999 -1.645 -1.752 9
18.285 -1.876 -1.722 12
10.507 -1.1210001 -1.821 11
11.406 -1.219 -1.804 12
12.494 -1.3380001 -1.788 13
13.826 -1.484 -1.773 12
15.547 -1.673 -1.765 11
17.525999 -1.892 -1.732 11
10.246 -1.15 -1.824 12
11.117 -1.25 -1.811 10
12.129 -1.3660001 -1.793 13
13.383 -1.511 -1.779 13
14.961 -1.692 -1.767 11
16.889999 -1.916 -1.748 10
9.9969997 -1.179 -1.827 12
10.821 -1.278 -1.813 11
11.805 -1.396 -1.8 13
12.983 -1.538 -1.785 13
14.433 -1.714 -1.771 11
16.235001 -1.933 -1.753 9
9.7690001 -1.2079999 -1.83 11
10.56 -1.308 -1.818 12
11.498 -1.426 -1.806 13
12.6 -1.5650001 -1.79 13
13.962 -1.738 -1.776 11
15.635 -1.951 -1.758 15
9.5679998 -1.24 -1.837 11
10.306 -1.336 -1.821 11
11.208 -1.455 -1.8099999 11
12.249 -1.592 -1.794 14
13.525 -1.762 -1.78 12
15.117 -1.973 -1.766 12
9.3549995 -1.267 -1.8380001 11
10.08 -1.367 -1.826 11
10.933 -1.484 -1.814 12
11.918 -1.62 -1.799 12
13.115 -1.785 -1.783 12
14.639 -1.9960001 -1.773 12
9.1619997 -1.2970001 -1.841 11
9.8579998 -1.396 -1.829 11
10.699 -1.516 -1.822 13
11.649 -1.652 -1.807 13
12.773 -1.814 -1.79 14
14.198 -2.02 -1.779 13
8.9799995 -1.325 -1.8430001 11
9.6540003 -1.425 -1.832 10
10.473 -1.5470001 -1.8279999 12
11.36 -1.6799999 -1.811 12
12.437 -1.841 -1.795 13
13.774 -2.043 -1.783 12
8.8120003 -1.355 -1.846 11
9.4630003 -1.455 -1.836 11
10.229 -1.574 -1.8279999 12
11.089 -1.7079999 -1.814 12
12.126 -1.87 -1.8 13
13.382 -2.0669999 -1.7869999 12
8.6549997 -1.386 -1.85 11
9.2709999 -1.484 -1.8380001 11
10.017 -1.604 -1.831 12
10.859 -1.739 -1.8200001 13
11.852 -1.9 -1.807 12
12.998 -2.086 -1.7869999 14
8.4960003 -1.414 -1.851 11
9.1009998 -1.5140001 -1.841 12
9.8269997 -1.635 -1.836 11
10.636 -1.77 -1.824 12
11.597 -1.932 -1.814 12
12.687 -2.115 -1.793 13
8.368 -1.446 -1.857 11
8.9379997 -1.544 -1.844 11
9.6400003 -1.665 -1.839 11
10.436 -1.803 -1.83 12
11.34 -1.96 -1.817 13
12.396 -2.145 -1.8 12
8.2200003 -1.474 -1.857 11
8.776 -1.572 -1.845 11
9.4549999 -1.694 -1.84 12
10.229 -1.832 -1.8329999 12
11.101 -1.99 -1.8200001 13
12.115 -2.1730001 -1.804 12
8.0950003 -1.5039999 -1.86 10
8.6479998 -1.6059999 -1.851 11
9.2910004 -1.725 -1.844 12
10.02 -1.86 -1.8329999 11
10.9 -2.0239999 -1.8279999 13
11.859 -2.204 -1.809 11
7.9790001 -1.536 -1.864 10
8.4989996 -1.6339999 -1.851 11
9.1370001 -1.757 -1.847 10
9.8509998 -1.893 -1.839 12
10.682 -2.0539999 -1.83 12
11.619 -2.2349999 -1.814 12
7.8720002 -1.568 -1.869 11
8.3699999 -1.665 -1.854 11
8.9840002 -1.786 -1.849 11
9.6719999 -1.923 -1.84 10
10.477 -2.0829999 -1.831 12
11.404 -2.2690001 -1.8200001 11
7.7579999 -1.598 -1.8710001 10
8.2399998 -1.6950001 -1.855 11
8.8520002 -1.8200001 -1.853 12
9.5109997 -1.954 -1.842 11
10.294 -2.115 -1.835 12
11.189 -2.3 -1.823 12
7.6500001 -1.628 -1.872 10
8.1350002 -1.729 -1.86 10
8.7060003 -1.849 -1.853 11
9.3669996 -1.988 -1.847 12
10.118 -2.148 -1.8380001 11
10.99 -2.3340001 -1.827 12
7.5640001 -1.6619999 -1.878 10
8.0240002 -1.761 -1.863 10
8.585 -1.882 -1.857 11
9.2150002 -2.0190001 -1.848 12
9.9580002 -2.1819999 -1.842 11
10.792 -2.365 -1.829 12
7.4590001 -1.691 -1.877 10
7.9190001 -1.7920001 -1.865 10
8.4610004 -1.913 -1.857 11
9.0799999 -2.052 -1.85 12
9.7939997 -2.2119999 -1.842 11
10.617 -2.398 -1.832 12
7.3769999 -1.724 -1.881 10
7.8210001 -1.825 -1.868 10
8.3430004 -1.9450001 -1.859 11
8.9510002 -2.085 -1.852 12
9.6450005 -2.2460001 -1.844 12
10.449 -2.4330001 -1.836 12
7.29 -1.756 -1.883 10
7.7329998 -1.859 -1.8710001 10
8.2440004 -1.979 -1.862 11
8.8319998 -2.119 -1.855 11
9.5150003 -2.2820001 -1.848 12
10.291 -2.467 -1.8380001 12
7.2129998 -1.789 -1.887 10
7.6469998 -1.893 -1.875 10
8.1470003 -2.0139999 -1.865 11
8.7320004 -2.1559999 -1.859 11
9.3730001 -2.313 -1.847 11
10.136 -2.5009999 -1.839 12
7.105 -1.813 -1.881 11
7.5479999 -1.9220001 -1.874 10
8.0570002 -2.049 -1.869 11
8.6140003 -2.1889999 -1.859 11
9.2530003 -2.349 -1.85 11
9.9980001 -2.5380001 -1.842 11
7.0209999 -1.8430001 -1.88 10
7.4720001 -1.957 -1.876 10
7.9660001 -2.0840001 -1.8710001 11
8.5170002 -2.2249999 -1.862 11
9.1389999 -2.3859999 -1.853 11
9.8699999 -2.576 -1.845 11
6.9400001 -1.873 -1.878 10
7.3889999 -1.99 -1.877 10
7.8759999 -2.1170001 -1.8710001 10
8.4219999 -2.2609999 -1.864 11
9.0310001 -2.4230001 -1.855 12
9.7449999 -2.6129999 -1.848 11
6.8629999 -1.903 -1.878 11
7.3319998 -2.0280001 -1.883 10
7.8039999 -2.155 -1.876 11
8.3319998 -2.2980001 -1.867 11
8.9130001 -2.4560001 -1.854 12
9.6169996 -2.648 -1.847 12
6.8010001 -1.937 -1.88 11
7.2589998 -2.062 -1.8839999 10
7.7199998 -2.1900001 -1.876 10
8.243 -2.3340001 -1.868 11
8.8290005 -2.4979999 -1.858 11
9.5200005 -2.691 -1.852 11
6.7379999 -1.97 -1.881 10
7.1960001 -2.099 -1.887 10
7.6589999 -2.2290001 -1.881 11
8.158 -2.3710001 -1.869 11
8.75 -2.54 -1.863 11
9.4090004 -2.73 -1.852 12
6.7129998 -2.013 -1.891 9
7.1129999 -2.128 -1.883 9
7.5749998 -2.2609999 -1.8789999 10
8.0839996 -2.4089999 -1.8710001 11
8.6599998 -2.5780001 -1.864 11
9.316 -2.7720001 -1.855 12
6.625 -2.0380001 -1.883 10
7.0700002 -2.168 -1.8890001 10
7.5050001 -2.2969999 -1.8789999 10
8.0120001 -2.448 -1.873 10
8.5810003 -2.618 -1.8660001 11
9.2279997 -2.813 -1.857 11
6.5619998 -2.0669999 -1.881 10
7.0040002 -2.201 -1.888 10
7.447 -2.335 -1.882 10
7.9400001 -2.4849999 -1.874 10
8.5 -2.6559999 -1.8660001 11
9.1499996 -2.8570001 -1.86 11
6.527 -2.1070001 -1.887 10
6.9510002 -2.2379999 -1.89 10
7.395 -2.375 -1.885 10
7.8860002 -2.5280001 -1.878 10
8.4370003 -2.7 -1.869 10
9.0679998 -2.8989999 -1.8609999 11
6.4770002 -2.1400001 -1.887 11
6.9130001 -2.2780001 -1.8940001 10
7.336 -2.4119999 -1.885 10
7.8210001 -2.566 -1.878 11
8.3649998 -2.74 -1.869 11
8.9949999 -2.944 -1.863 11
6.4320002 -2.1760001 -1.888 11
6.8189998 -2.299 -1.883 11
7.3000002 -2.4549999 -1.89 11
7.7670002 -2.608 -1.88 11
8.3140001 -2.786 -1.874 11
8.9200001 -2.9860001 -1.863 11
6.3909998 -2.2119999 -1.8890001 10
6.7670002 -2.3340001 -1.882 11
7.2470002 -2.493 -1.89 10
7.711 -2.6470001 -1.88 11
8.2510004 -2.8280001 -1.873 12
8.8620005 -3.0339999 -1.8660001 11
6.3410001 -2.244 -1.887 10
6.7270002 -2.3729999 -1.8839999 10
7.1750002 -2.5239999 -1.885 10
7.6659999 -2.6900001 -1.883 10
8.1999998 -2.8729999 -1.876 11
8.8009996 -3.079 -1.867 11
6.3039999 -2.279 -1.888 11
6.6960001 -2.4130001 -1.887 11
7.1430001 -2.5669999 -1.888 10
7.6170001 -2.7320001 -1.883 11
8.1630001 -2.9219999 -1.88 10
8.7449999 -3.1259999 -1.868 11
6.2750001 -2.319 -1.891 11
6.6890001 -2.4630001 -1.897 9
7.1090002 -2.6099999 -1.891 10
7.5749998 -2.7739999 -1.8839999 11
8.1029997 -2.9619999 -1.878 11
8.6969995 -3.175 -1.869 11
6.2399998 -2.355 -1.891 10
6.6459999 -2.4990001 -1.895 9
7.0869999 -2.6570001 -1.896 10
7.5380001 -2.819 -1.886 10
8.0550003 -3.007 -1.878 10
8.6549997 -3.2260001 -1.872 10
6.2020001 -2.3900001 -1.89 10
6.5780001 -2.5250001 -1.886 10
7.0359998 -2.6930001 -1.893 10
7.4970002 -2.862 -1.886 10
8.0190001 -3.056 -1.88 10
8.6149998 -3.2780001 -1.873 11
6.1830001 -2.431 -1.893 11
6.552 -2.5669999 -1.888 11
7.007 -2.737 -1.8940001 10
7.467 -2.908 -1.888 10
7.9889998 -3.105 -1.882 11
8.5780001 -3.329 -1.874 11
6.1479998 -2.4660001 -1.892 10
6.5170002 -2.6040001 -1.887 10
6.9829998 -2.7820001 -1.897 10
7.4400001 -2.9560001 -1.89 11
7.9510002 -3.152 -1.881 10
8.5469999 -3.382 -1.876 10
6.1329999 -2.5079999 -1.895 10
6.4840002 -2.641 -1.885 10
6.96 -2.826 -1.898 10
7.4159999 -3.003 -1.891 10
7.9310002 -3.204 -1.8839999 11
8.5179996 -3.4349999 -1.878 11
6.1059999 -2.5450001 -1.8940001 10
6.474 -2.688 -1.89 11
6.9320002 -2.869 -1.898 10
7.3850002 -3.0469999 -1.891 11
7.902 -3.2539999 -1.8839999 10
8.4879999 -3.4890001 -1.877 11
6.0819998 -2.5840001 -1.8940001 10
6.447 -2.7279999 -1.8890001 11
6.9029999 -2.911 -1.897 10
7.3530002 -3.092 -1.8890001 10
7.8709998 -3.302 -1.883 11
8.4770002 -3.549 -1.881 11
6.0669999 -2.6259999 -1.895 9
6.4310002 -2.7720001 -1.89 10
6.8860002 -2.9579999 -1.898 10
7.3379998 -3.142 -1.891 10
7.862 -3.359 -1.886 10
8.4510002 -3.6029999 -1.88 9
6.053 -2.668 -1.897 10
6.4159999 -2.8169999 -1.891 11
6.8740001 -3.006 -1.9 10
7.309 -3.187 -1.888 8
7.8299999 -3.4059999 -1.883 8
8.4350004 -3.661 -1.881 11
6.0359998 -2.7079999 -1.897 10
6.4349999 -2.875 -1.902 9
6.8449998 -3.0469999 -1.896 9
7.3140001 -3.2460001 -1.8940001 10
7.8390002 -3.4690001 -1.8890001 10
8.4280005 -3.7219999 -1.883 10
6.033 -2.7539999 -1.901 7
6.401 -2.9089999 -1.896 8
6.8470001 -3.0999999 -1.901 10
7.3010001 -3.2950001 -1.8940001 9
7.8200002 -3.52 -1.887 10
8.4219999 -3.783 -1.883 11
6.026 -2.7980001 -1.902 6
6.4120002 -2.964 -1.902 9
6.8369999 -3.148 -1.901 10
7.2880001 -3.345 -1.893 10
7.816 -3.5780001 -1.8890001 10
8.4250002 -3.848 -1.886 11
6.027 -2.846 -1.906 8
6.4120002 -3.0139999 -1.905 9
6.8249998 -3.1949999 -1.9 10
7.2839999 -3.3989999 -1.8940001 10
7.8189998 -3.638 -1.89 10
8.4239998 -3.9100001 -1.886 10
6 -2.8789999 -1.9 9
6.3990002 -3.0569999 -1.904 9
6.829 -3.2490001 -1.903 10
7.283 -3.4530001 -1.895 10
7.816 -3.6949999 -1.89 10
8.434 -3.9790001 -1.8890001 11
5.993 -2.9230001 -1.9 9
6.4099998 -3.1110001 -1.909 9
6.8189998 -3.296 -1.901 9
7.2880001 -3.5109999 -1.896 10
7.8319998 -3.7620001 -1.8940001 10
8.4329996 -4.0409999 -1.887 11
5.9970002 -2.97 -1.902 10
6.408 -3.1589999 -1.909 9
6.8239999 -3.3510001 -1.903 10
7.2870002 -3.5650001 -1.896 10
7.836 -3.822 -1.8940001 10
8.4589996 -4.1160002 -1.891 10
5.9910002 -3.013 -1.901 10
6.4070001 -3.2079999 -1.909 9
6.8179998 -3.3989999 -1.9 10
7.2989998 -3.625 -1.898 10
7.8460002 -3.885 -1.895 9
8.4729996 -4.1849999 -1.891 11
6.0339999 -3.0810001 -1.915 8
6.3930001 -3.2479999 -1.904 9
6.8299999 -3.4549999 -1.903 10
7.296 -3.678 -1.895 10
7.855 -3.947 -1.8940001 9
8.4870005 -4.2529998 -1.89 10
5.9980001 -3.108 -1.903 10
6.401 -3.3 -1.905 9
6.836 -3.5090001 -1.903 10
7.316 -3.7409999 -1.897 9
7.8860002 -4.02 -1.898 10
8.5080004 -4.3249998 -1.891 9
6.0029998 -3.155 -1.904 9
6.4109998 -3.352 -1.906 9
6.8379998 -3.5599999 -1.901 10
7.3299999 -3.8010001 -1.897 10
7.9039998 -4.085 -1.898 10
8.5389996 -4.402 -1.892 9
6.0500002 -3.224 -1.9170001 9
6.4180002 -3.4030001 -1.906 9
6.8569999 -3.619 -1.903 10
7.355 -3.8670001 -1.9 9
7.9239998 -4.152 -1.897 9
8.5719995 -4.48 -1.893 9
6.0170002 -3.2509999 -1.904 10
6.4299998 -3.4560001 -1.906 9
6.8660002 -3.6730001 -1.901 9
7.362 -3.9230001 -1.896 10
7.9590001 -4.2259998 -1.899 10
8.6079998 -4.559 -1.8940001 10
6.0190001 -3.2950001 -1.901 10
6.4390001 -3.507 -1.905 9
6.882 -3.73 -1.9 9
7.3920002 -3.9909999 -1.898 9
7.9850001 -4.296 -1.898 11
8.6339998 -4.632 -1.89 8
6.0739999 -3.369 -1.915 9
6.46 -3.5639999 -1.906 9
6.9060001 -3.7920001 -1.902 9
7.4239998 -4.0599999 -1.9 9
8.0249996 -4.3720002 -1.9 10
8.6829996 -4.717 -1.892 9
6.086 -3.418 -1.914 9
6.4689999 -3.6140001 -1.903 9
6.9320002 -3.8529999 -1.902 10
7.4590001 -4.1290002 -1.901 10
8.0640001 -4.448 -1.9 9
8.7390003 -4.8060002 -1.8940001 9
6.1040001 -3.471 -1.914 9
6.4990001 -3.675 -1.906 9
6.9559999 -3.914 -1.901 9
7.494 -4.1989999 -1.901 10
8.1149998 -4.5300002 -1.902 9
8.7880001 -4.8909998 -1.893 9
6.1209998 -3.523 -1.914 9
6.5159998 -3.7279999 -1.904 9
6.994 -3.9820001 -1.904 10
7.539 -4.2740002 -1.903 10
8.1479998 -4.6020002 -1.899 9
8.8590002 -4.9879999 -1.896 9
6.131 -3.569 -1.91 8
6.5479999 -3.79 -1.906 9
7.026 -4.046 -1.903 9
7.573 -4.342 -1.902 10
8.1969995 -4.6820002 -1.899 9
8.9289999 -5.0840001 -1.897 8
6.1690001 -3.631 -1.914 9
6.5770001 -3.849 -1.906 9
7.0580001 -4.1100001 -1.903 9
7.6269999 -4.421 -1.904 9
8.2559996 -4.7680001 -1.9 9
9.0010004 -5.1810002 -1.899 9
6.1820002 -3.6789999 -1.91 9
6.6090002 -3.9089999 -1.906 9
7.098 -4.177 -1.903 10
7.665 -4.4899998 -1.902 9
8.3179998 -4.8540001 -1.901 9
9.0939999 -5.29 -1.903 8
6.2160001 -3.7379999 -1.9119999 9
6.6430001 -3.97 -1.906 9
7.1469998 -4.2490001 -1.905 9
7.7309999 -4.5749998 -1.905 9
8.3940001 -4.948 -1.904 9
9.1739998 -5.3899999 -1.902 8
6.256 -3.799 -1.914 9
6.6760001 -4.0300002 -1.904 9
7.1960001 -4.3210001 -1.905 9
7.783 -4.652 -1.904 9
8.4630003 -5.0380001 -1.903 8
9.2729998 -5.5019999 -1.905 8
6.2880001 -3.8559999 -1.914 9
6.7220001 -4.0970001 -1.905 9
7.2449999 -4.3920002 -1.905 9
7.8470001 -4.7350001 -1.905 9
8.5349998 -5.1290002 -1.903 8
9.3599997 -5.6059999 -1.904 8
6.3200002 -3.9119999 -1.9119999 9
6.7649999 -4.1620002 -1.905 9
7.2940001 -4.4629998 -1.904 10
7.9169998 -4.8210001 -1.906 9
8.6389999 -5.2389998 -1.908 8
9.474 -5.7259998 -1.9069999 8
6.3540001 -3.9690001 -1.91 9
6.8200002 -4.2329998 -1.9069999 9
7.3590002 -4.5430002 -1.906 8
7.9840002 -4.9050002 -1.905 8
8.7209997 -5.336 -1.9069999 8
9.5880003 -5.8460002 -1.908 8
6.3940001 -4.0279999 -1.909 9
6.868 -4.3000002 -1.906 10
7.4289999 -4.625 -1.908 8
8.0670004 -4.9980001 -1.9069999 8
8.8249998 -5.4450002 -1.91 8
9.7069998 -5.9679999 -1.91 8
6.4419999 -4.092 -1.91 9
6.9239998 -4.3699999 -1.906 10
7.5029998 -4.7090001 -1.91 8
8.1529999 -5.092 -1.909 9
8.9300003 -5.5539999 -1.911 8
9.823 -6.0879998 -1.909 8
6.4920001 -4.1560001 -1.91 9
6.9850001 -4.4429998 -1.9069999 9
7.566 -4.7859998 -1.908 9
8.2399998 -5.1859999 -1.91 9
9.0430002 -5.6669998 -1.914 8
9.9759998 -6.23 -1.913 7
6.5479999 -4.223 -1.911 9
7.0489998 -4.5180001 -1.9069999 9
7.6409998 -4.869 -1.908 9
8.3269997 -5.2789998 -1.908 8
9.1590004 -5.7820001 -1.914 7
10.127 -6.3699999 -1.916 7
6.6040001 -4.29 -1.911 9
7.1079998 -4.5879998 -1.906 8
7.7270002 -4.9580002 -1.91 9
8.4359999 -5.3860002 -1.911 8
9.29 -5.9050002 -1.9170001 7
10.286 -6.5149999 -1.9170001 8
6.664 -4.3579998 -1.911 9
7.1869998 -4.6690001 -1.908 8
7.8189998 -5.0510001 -1.911 9
8.5500002 -5.4949999 -1.914 8
9.4169998 -6.026 -1.9170001 8
10.442 -6.6570001 -1.9170001 8
6.7270002 -4.428 -1.911 9
7.2690001 -4.7529998 -1.909 8
7.9120002 -5.1430001 -1.9119999 9
8.6730003 -5.6079998 -1.9170001 7
9.5509996 -6.1490002 -1.9170001 7
10.617 -6.8099999 -1.918 8
6.7930002 -4.4970002 -1.911 9
7.349 -4.8330002 -1.91 9
8.0089998 -5.2360001 -1.913 8
8.7910004 -5.7179999 -1.9170001 8
9.7069998 -6.2849998 -1.92 7
10.816 -6.9780002 -1.9220001 8
6.8670001 -4.572 -1.9119999 8
7.4380002 -4.9190001 -1.911 9
8.1210003 -5.3390002 -1.915 8
8.9320002 -5.842 -1.921 7
9.875 -6.4299998 -1.9220001 7
11.009 -7.1409998 -1.9220001 7
6.9450002 -4.6479998 -1.9119999 9
7.5300002 -5.0050001 -1.911 9
8.2270002 -5.4359999 -1.915 8
9.0670004 -5.96 -1.9220001 7
10.026 -6.5609999 -1.92 7
11.231 -7.3210001 -1.925 6
7.0289998 -4.7259998 -1.913 8
7.6259999 -5.0939999 -1.9119999 9
8.3549995 -5.5469999 -1.918 8
9.2159996 -6.086 -1.924 7
10.222 -6.7210002 -1.924 7
11.444 -7.4949999 -1.924 6
7.1110001 -4.803 -1.913 9
7.7340002 -5.1880002 -1.914 8
8.4860001 -5.658 -1.92 7
9.3649998 -6.2119999 -1.924 7
10.398 -6.8649998 -1.923 7
11.711 -7.7030001 -1.929 7
7.211 -4.8899999 -1.916 8
7.8540001 -5.29 -1.9170001 8
8.625 -5.7740002 -1.9220001 7
9.5220003 -6.3410001 -1.924 7
10.621 -7.04 -1.928 7
11.966 -7.901 -1.9299999 7
7.3060002 -4.9720001 -1.916 8
7.96 -5.381 -1.915 8
8.7709999 -5.8930001 -1.925 7
9.7030001 -6.4840002 -1.927 7
10.841 -7.2119999 -1.9299999 6
12.256 -8.1210003 -1.934 7
7.4050002 -5.0560002 -1.915 8
8.0830002 -5.4809999 -1.916 8
8.9189997 -6.0110002 -1.925 7
9.8789997 -6.6230001 -1.927 7
11.069 -7.3860002 -1.931 6
12.535 -8.3319998 -1.932 8
7.5209999 -5.1500001 -1.918 9
8.2159996 -5.5869999 -1.918 7
9.0799999 -6.1370001 -1.927 7
10.074 -6.7729998 -1.927 7
11.319 -7.5739999 -1.933 6
12.881 -8.5860004 -1.938 8
7.6339998 -5.2399998 -1.919 8
8.3529997 -5.6939998 -1.919 7
9.2469997 -6.2659998 -1.928 7
10.288 -6.9330001 -1.929 6
11.563 -7.756 -1.931 7
13.251 -8.8529997 -1.943 8
7.7550001 -5.3340001 -1.919 8
8.5129995 -5.8150001 -1.923 8
9.4209995 -6.3959999 -1.928 7
10.492 -7.085 -1.928 7
11.866 -7.9749999 -1.936 7
13.64 -9.132 -1.948 8
7.8959999 -5.4400001 -1.923 8
8.651 -5.9190001 -1.921 8
9.6079998 -6.5339999 -1.929 7
10.737 -7.2620001 -1.931 6
12.169 -8.1920004 -1.938 7
14.057 -9.4259996 -1.954 7
8.0279999 -5.5380001 -1.923 7
8.8269997 -6.0469999 -1.924 7
9.8039999 -6.6760001 -1.929 7
10.979 -7.4349999 -1.931 6
12.477 -8.4099998 -1.938 8
14.488 -9.7270002 -1.956 8
8.1739998 -5.6440001 -1.925 8
9.0019999 -6.1719999 -1.926 7
10.018 -6.8270001 -1.931 7
11.242 -7.6199999 -1.932 6
12.853 -8.6709995 -1.944 8
14.966 -10.056 -1.96 8
8.3280001 -5.7529998 -1.926 7
9.1899996 -6.3039999 -1.928 7
10.236 -6.9790001 -1.931 6
11.538 -7.8239999 -1.9349999 7
13.234 -8.9329996 -1.948 8
15.677 -10.539 -1.989 18
8.4809999 -5.8590002 -1.926 7
9.3699999 -6.428 -1.927 7
10.479 -7.145 -1.933 6
11.838 -8.0279999 -1.937 7
13.661 -9.2209997 -1.955 8
15.917 -10.701 -1.954 26
8.6540003 -5.9759998 -1.928 7
9.5790005 -6.5700002 -1.929 7
10.712 -7.302 -1.9299999 6
12.164 -8.2469997 -1.938 7
14.054 -9.4840002 -1.952 8
16.614 -11.167 -1.97 8
8.8380003 -6.099 -1.931 7
9.7880001 -6.7090001 -1.929 7
11.006 -7.4980001 -1.936 6
12.53 -8.4899998 -1.943 8
14.549 -9.8120003 -1.9579999 9
17.344999 -11.65 -1.983 7
9.0159998 -6.2160001 -1.9299999 7
10.013 -6.8559999 -1.929 7
11.277 -7.6739998 -1.9349999 6
12.898 -8.7299995 -1.9450001 8
15.149 -10.206 -1.973 11
18.032 -12.1 -1.984 5
9.2200003 -6.3470001 -1.933 7
10.244 -7.0040002 -1.929 7
11.584 -7.8720002 -1.937 7
13.301 -8.9899998 -1.948 9
15.767 -10.607 -1.987 22
18.938999 -12.69 -2.003 6
9.4250002 -6.4759998 -1.933 7
10.501 -7.1669998 -1.9299999 6
11.905 -8.0749998 -1.938 7
13.768 -9.2889996 -1.956 9
15.986 -10.735 -1.9450001 21
19.671 -13.158 -1.995 5
9.6490002 -6.6160002 -1.9349999 7
10.761 -7.3280001 -1.929 6
12.254 -8.2939997 -1.941 7
14.199 -9.559 -1.955 9
16.837999 -11.284 -1.975 6
21.448 -14.316 -2.0840001 26
9.8649998 -6.7470002 -1.933 7
11.04 -7.4990001 -1.929 6
12.614 -8.5159998 -1.941 8
14.709 -9.8769999 -1.96 9
17.528999 -11.717 -1.979 5
21.899 -14.58 -2.0309999 59
10.11 -6.8930001 -1.934 7
11.369 -7.6989999 -1.934 6
13.024 -8.7679996 -1.944 8
15.421 -10.326 -1.985 12
18.233999 -12.154 -1.977 5
22.589001 -14.997 -1.994 32
10.354 -7.0370002 -1.933 6
11.661 -7.8720002 -1.931 7
13.477 -9.0430002 -1.952 8
15.975 -10.662 -1.985 28
19.274 -12.805 -2.0039999 5
22.606001 -14.96 -1.898 35
10.617 -7.1890001 -1.932 7
12.001 -8.0719995 -1.932 7
13.912 -9.3009996 -1.951 8
16.198999 -10.773 -1.9400001 28
0 0 0 0
22.556 -14.873 -1.7920001 15
10.91 -7.3569999 -1.934 6
12.378 -8.2910004 -1.934 8
14.432 -9.6099997 -1.957 10
17.136 -11.351 -1.973 7
21.523001 -14.192 -2.0439999 39
22.559999 -14.817 -1.692 8
11.224 -7.5349998 -1.936 6
12.78 -8.5229998 -1.936 8
14.988 -9.9370003 -1.9630001 8
17.885 -11.795 -1.977 5
21.888 -14.37 -1.978 25
22.315001 -14.594 -1.572 9
11.564 -7.7270002 -1.939 7
13.208 -8.7670002 -1.9400001 9
15.714 -10.369 -1.985 13
18.642 -12.237 -1.976 4
22.400999 -14.639 -1.925 2
22.327999 -14.535 -1.474 17
11.897 -7.9089999 -1.938 7
13.683 -9.0360003 -1.9450001 9
16.275999 -10.685 -1.9809999 24
0 0 0 0
22.256001 -14.471 -1.813 20
22.4 -14.509 -1.3789999 20
12.266 -8.1090002 -1.9400001 7
14.162 -9.302 -1.947 9
16.577999 -10.826 -1.941 23
21.052999 -13.677 -2.039 24
22.316999 -14.434 -1.716 21
22.580999 -14.549 -1.289 8
12.659 -8.3210001 -1.941 8
14.674 -9.5839996 -1.948 8
17.511999 -11.37 -1.97 7
21.577 -13.938 -1.992 25
22.577 -14.519 -1.6339999 10
22.565001 -14.456 -1.187 19
13.064 -8.5349998 -1.941 8
15.246 -9.8959999 -1.952 9
18.228001 -11.764 -1.966 5
0 0 0 0
22.525999 -14.4 -1.528 23
22.464001 -14.305 -1.082 32
13.533 -8.783 -1.9450001 9
15.909 -10.259 -1.962 11
19.242001 -12.338 -1.985 4
24.219999 -15.452 -2.0150001 11
22.527 -14.309 -1.428 2
22.448999 -14.206 -0.98100001 65
14.038 -9.0500002 -1.952 10
16.711 -10.704 -1.984 20
20.511 -13.063 -2.023 22
22.482 -14.247 -1.77 0
22.471001 -14.177 -1.324 4
22.329 -14.036 -0.87800002 89
14.541 -9.3070002 -1.952 9
17.070999 -10.858 -1.947 42
20.747999 -13.123 -1.952 22
22.563999 -14.199 -1.674 2
22.357 -14.008 -1.2180001 44
22.448999 -14.013 -0.78500003 73
15.089 -9.5860004 -1.955 10
17.471001 -11.029 -1.911 15
22.426001 -14.078 -2.006 10
22.639999 -14.142 -1.577 0
22.412001 -13.939 -1.1210001 91
22.587 -13.997 -0.69099998 50
15.673 -9.8789997 -1.957 9
18.624001 -11.666 -1.952 5
23.125999 -14.406 -1.965 4
22.67 -14.052 -1.479 2
22.559999 -13.924 -1.03 41
0 0 0 0
16.291 -10.186 -1.957 8
19.951 -12.398 -2 25
22.410999 -13.849 -1.802 4
0 0 0 0
22.593 -13.834 -0.93199998 14
74.985001 -45.747002 -1.648 17
16.995001 -10.538 -1.9630001 9
20.184999 -12.438 -1.931 21
27.419001 -16.802 -2.0829999 17
22.657 -13.817 -1.279 68
22.646999 -13.752 -0.838 92
61.716 -37.34 -1.094 56
17.636999 -10.839 -1.955 7
21.872999 -13.361 -1.992 23
22.695 -13.786 -1.623 3
22.580999 -13.651 -1.176 98
22.705 -13.668 -0.74199998 15
61.955002 -37.160999 -0.83499998 31
18.483 -11.256 -1.964 7
22.638 -13.703 -1.96 13
22.698999 -13.665 -1.521 69
22.681999 -13.589 -1.082 99
22.76 -13.578 -0.64700001 5
71.614998 -42.57 -0.66399997 16
19.441999 -11.728 -1.977 37
22.596001 -13.55 -1.8559999 50
22.652 -13.51 -1.42 95
22.756001 -13.507 -0.986 87
22.863001 -13.512 -0.55299997 2
60.474998 -35.616001 -0.31099999 50
19.671 -11.751 -1.9119999 19
22.872999 -13.582 -1.776 0
22.844 -13.493 -1.332 103
22.844999 -13.429 -0.89300001 88
22.913 -13.413 -0.45699999 4
64.416 -37.570999 -0.063000001 12
21.377001 -12.642 -1.982 22
22.993 -13.516 -1.6849999 103
22.872999 -13.374 -1.235 103
22.900999 -13.328 -0.79799998 78
29.844999 -17.297001 -0.472 13
63.598 -36.730999 0.19499999 17
0 0 0 0
22.816999 -13.277 -1.574 98
22.943001 -13.281 -1.143 93
23.02 -13.262 -0.708 21
67.360001 -38.645 -0.79699999 13
63.785999 -36.465 0.449 22
22.757 -13.179 -1.91 20
22.934999 -13.205 -1.485 73
22.896999 -13.114 -1.045 56
58.553001 -33.380001 -1.563 2
65.526001 -37.201 -0.51099998 4
64.449997 -36.458 0.70599997 20
25.325001 -14.507 -2.0190001 20
29.534 -16.819 -1.789 12
22.962999 -13.009 -0.954 1
58.846001 -33.181 -1.3329999 7
64.388 -36.158001 -0.24600001 22
65.300003 -36.542 0.97299999 22
25.750999 -14.584 -1.942 3
33.910999 -19.093 -1.911 1
56.18 -31.466999 -2.1029999 7
75.711998 -42.214001 -1.413 20
64.692001 -35.923 0.0049999999 34
56.338001 -31.174999 1.056 11
0 0 0 0
36.228001 -20.166 -1.893 6
56.438999 -31.250999 -1.8890001 12
75.880997 -41.825001 -1.1210001 14
56.362 -30.940001 0.219 29
56.542 -30.931 1.271 7
28.912001 -15.995 -1.941 6
0 0 0 0
56.501999 -30.922001 -1.671 75
56.507999 -30.785999 -0.61900002 43
65.448997 -35.514 0.49900001 26
67.500999 -36.499001 1.766 13
30.496 -16.667999 -1.925 1
0 0 0 0
56.832001 -30.728001 -1.4630001 5
65.685997 -35.353001 -0.47 22
65.714996 -35.226002 0.74599999 20
69.141998 -36.938 2.0580001 15
33.237999 -17.941999 -1.965 1
53.911999 -28.937 -2.181 2
65.529999 -34.993 -1.433 33
66.935997 -35.577999 -0.229 15
68.502998 -36.264999 1.028 28
68.971001 -36.386002 2.303 19
35.202999 -18.757999 -1.941 5
53.599998 -28.396999 -1.9630001 11
65.550003 -34.551998 -1.188 36
73.323997 -38.473999 0.02 9
68.499001 -35.799 1.276 29
69.153999 -36.015999 2.5550001 17
0 0 0 0
60.847 -31.82 -1.999 12
65.848999 -34.262001 -0.95200002 38
0 0 0 0
69.191002 -35.698002 1.529 16
0 0 0 0
42.131001 -21.861 -2.0050001 5
60.825001 -31.385 -1.777 12
66.393997 -34.085999 -0.72399998 29
88.084 -45.016998 0.64600003 12
0 0 0 0
126.962 -64.411003 5.5440001 20
48.619999 -24.882 -2.1340001 2
0 0 0 0
88.349998 -44.737 -0.653 19
124.737 -62.877998 1.344 14
52.747002 -26.485001 1.522 54
53.077 -26.559 2.4920001 22
48.164001 -24.306999 -1.9400001 1
52.682999 -26.440001 -1.163 3
52.766998 -26.347 -0.20999999 49
52.893002 -26.296 0.745 32
53.122002 -26.308001 1.705 6
85.153 -42.021 4.2639999 12
52.473999 -26.104 -1.9299999 19
40.800999 -20.187 -0.764 14
126.142 -62.099998 -0.083999999 14
83.587997 -40.966 1.449 22
53.243 -25.988001 1.882 5
84.811996 -41.257999 4.5159998 31
40.733002 -19.966 -1.358 48
40.974998 -19.974001 -0.62699997 54
0 0 0 0
82.931 -40.049 1.7029999 30
83.185997 -40.013 3.197 15
83.819 -40.181999 4.7160001 19
40.478001 -19.548 -1.2130001 37
69.580002 -33.417 -0.83700001 4
131.77699 -62.966999 0.764 16
83.410004 -39.676998 1.972 37
82.793999 -39.231998 3.4300001 36
84.029999 -39.68 4.9770002 20
56.199001 -26.724001 -1.499 3
125.845 -59.514 -1.113 152
0 0 0 0
84.587997 -39.626999 2.253 22
82.988998 -38.723 3.6830001 22
79.209 -36.834999 4.9169998 14
55.908001 -26.169001 -1.313 46
136.59399 -63.594002 -0.78899997 30
0 0 0 0
83.389 -38.458 2.47 17
79.151001 -36.362 3.74 40
79.237 -36.275002 5.1440001 40
56.025002 -25.808001 -1.1440001 29
0 0 0 0
85.581001 -39.016998 1.2690001 6
78.514 -35.634998 2.5469999 32
49.290001 -22.282 2.4660001 32
43.410999 -19.556 2.9349999 4
56.119999 -25.43 -0.977 37
85.804001 -38.668999 0.013 49
84.028 -37.683998 1.485 29
49.278999 -21.999001 1.737 9
77.495003 -34.460999 4.086 41
43.667 -19.35 3.0669999 18
48.995998 -21.836 -0.70999998 47
49.011002 -21.724001 0.147 47
49.037998 -21.625999 1.001 36
76.924004 -33.775002 2.9119999 20
77.323997 -33.814999 4.276 35
43.931 -19.143999 3.1960001 37
49.124001 -21.521 -0.57300001 10
102.052 -44.466 0.58499998 16
76.882004 -33.334999 1.776 14
49.167999 -21.221001 1.988 28
77.424004 -33.282001 4.4759998 22
44.216999 -18.940001 3.325 40
55.376999 -23.841999 -0.49700001 6
102.183 -43.755001 0.85299999 9
77.399002 -32.977001 1.9859999 40
76.924004 -32.625999 3.306 36
76.791 -32.442001 4.6259999 36
44.504002 -18.737 3.45 43
55.484001 -23.469999 -0.35100001 8
0 0 0 0
47.137001 -19.729 1.325 3
47.175999 -19.658001 2.1370001 89
77.678001 -32.237999 4.8579998 30
55.875999 -23.106001 4.4580002 32
47.154999 -19.586 -0.17900001 79
47.243 -19.513 0.62900001 39
77.462997 -31.834999 2.3610001 36
45.027 -18.421 2.145 15
77.433998 -31.549 5.0190001 30
50.750999 -20.605 4.1589999 3
66.230003 -27.000999 -0.090000004 33
45.127998 -18.299 0.708 35
45.210999 -18.240999 1.482 73
45.278999 -18.183001 2.256 63
79.18 -31.67 5.296 33
55.791 -22.233999 4.6859999 29
66.302002 -26.524 0.061999999 25
45.388 -18.058001 0.815 47
45.465 -17.997 1.589 58
45.445999 -17.907 2.362 84
45.396 -17.816 3.131 2
45.618999 -17.834999 3.9219999 47
45.491001 -17.851 0.14300001 63
84.137001 -32.833 1.6900001 13
45.631001 -17.716 1.689 85
45.813 -17.707001 2.471 37
78.444 -30.194 5.5619998 31
78.609001 -30.145 6.908 39
100.783 -38.775002 0.537 20
45.918999 -17.570999 1.017 64
46.021 -17.521999 1.794 62
46.063 -17.457001 2.573 20
78.490997 -29.618999 5.7080002 24
80.160004 -30.135 7.1849999 33
44.708 -16.860001 0.32600001 5
0 0 0 0
53.096001 -19.812 2.1689999 3
53.241001 -19.774 3.0699999 5
44.478001 -16.448999 3.313 31
80.521004 -29.67 7.3530002 28
44.777 -16.544001 0.414 19
44.778 -16.450001 1.161 35
44.636002 -16.316 1.902 31
54.023998 -19.653999 3.207 16
54.002998 -19.563 4.1110001 20
0 0 0 0
53.009998 -19.179001 0.58600003 34
52.675999 -18.954 1.457 45
53.429001 -19.125 2.368 64
44.564999 -15.876 2.7179999 29
43.84 -15.55 3.4059999 2
42.956001 -15.18 4.0549998 17
53.194 -18.841999 0.67900002 12
52.813 -18.601 1.549 58
53.34 -18.686001 2.448 50
53.181999 -18.541 3.3239999 27
53.395 -18.537001 4.224 50
53.816002 -18.607 5.1560001 49
53.778 -18.632999 0.77399999 68
53.487999 -18.427 1.652 44
53.181 -18.226999 2.52 65
52.952999 -18.059 3.3840001 38
53.462002 -18.157 4.303 50
54.025002 -18.271999 5.244 38
53.672001 -18.184 0.852 5
52.952 -17.839001 1.71 43
52.860001 -17.714001 2.5769999 58
52.834 -17.618 3.447 46
53.863998 -17.882 4.4039998 47
0 0 0 0
54.054001 -17.9 0.93599999 24
53.040001 -17.458 1.786 62
52.998001 -17.35 2.6530001 47
53.071999 -17.291 3.527 65
54.223 -17.586 4.4959998 34
0 0 0 0
53.880001 -17.427 1.003 59
53.493 -17.200001 1.868 45
53.298 -17.042 2.73 55
50.099998 -15.944 3.3870001 5
54.818001 -17.365999 4.6009998 8
39.312 -12.402 3.9449999 17
53.992001 -17.049 1.069 54
48.606998 -15.26 1.751 6
40.285 -12.578 2.1059999 2
50.300999 -15.626 3.45 37
0 0 0 0
39.360001 -12.12 3.9860001 6
54.077999 -16.664 1.13 27
40.369999 -12.364 1.4960001 17
40.133999 -12.223 2.138 1
39.964001 -12.111 2.777 49
39.779999 -11.998 3.4119999 30
0 0 0 0
40.599998 -12.2 0.88800001 45
40.863998 -12.206 1.552 64
40.870998 -12.137 2.211 34
40.900002 -12.085 2.8740001 5
0 0 0 0
0 0 0 0
48.327999 -14.154 1.098 19
48.613998 -14.15 1.886 73
47.824001 -13.841 2.625 6
41.050999 -11.818 2.915 3
41.262001 -11.819 3.596 1
0 0 0 0
48.554001 -13.847 1.141 35
48.813999 -13.835 1.928 52
50.798 -14.314 2.822 23
106.034 -29.725 7.5929999 24
0 0 0 0
41.169998 -11.433 4.276 1
48.374001 -13.43 1.17 65
48.432999 -13.365 1.943 77
49.813 -13.66 2.793 26
105.341 -28.735001 7.5939999 33
0 0 0 0
43.355 -11.713 4.5190001 3
48.507999 -13.099 1.199 37
0 0 0 0
46.928001 -12.522 2.652 10
53.689999 -14.246 3.892 9
0 0 0 0
0 0 0 0
48.825001 -12.815 1.228 64
48.109001 -12.548 1.971 25
53.236 -13.801 3.027 47
70.286003 -18.122 5.1139998 52
0 0 0 0
0 0 0 0
48.834999 -12.453 1.245 27
49.562 -12.556 2.046 5
53.474998 -13.464 3.0539999 81
70.458 -17.634001 5.1399999 46
0 0 0 0
0 0 0 0
53.27 -13.18 1.37 43
53.166 -13.067 2.204 73
53.275002 -13.014 3.0480001 65
70.678001 -17.164 5.1630001 27
0 0 0 0
0 0 0 0
53.287998 -12.787 1.377 87
53.807999 -12.827 2.234 58
53.34 -12.637 3.0539999 86
62.037998 -14.603 4.5289998 31
74.863998 -17.523001 6.6500001 20
0 0 0 0
53.598 -12.46 1.385 40
0 0 0 0
53.278 -12.22 3.046 54
53.717999 -12.247 3.9159999 10
65.622002 -14.872 5.816 23
0 0 0 0
53.602001 -12.059 1.3789999 38
55.589001 -12.417 2.2980001 13
53.41 -11.854 3.043 23
53.171001 -11.726 3.8629999 16
64.417 -14.125 5.6929998 46
37.807999 -8.2440004 3.937 12
53.560001 -11.651 1.3660001 20
61.979 -13.388 2.5450001 54
47.631001 -10.219 2.698 13
63.361 -13.506 4.5809999 58
37.673 -7.9829998 3.3139999 9
0 0 0 0
47.911999 -10.072 1.207 4
47.844002 -9.9840002 1.948 21
37.341999 -7.7389998 2.1010001 3
37.390999 -7.698 2.687 21
63.209 -12.935 5.5310001 47
36.720001 -7.4699998 3.789 43
48.168999 -9.7720003 1.194 9
37.138 -7.48 1.495 2
48.063999 -9.6090002 2.6789999 42
36.764 -7.3000002 2.6210001 44
36.740002 -7.2480001 3.1930001 34
64.069 -12.562 6.5710001 48
37.019001 -7.2360001 0.89700001 75
36.963001 -7.1700001 1.466 50
61.764999 -11.89 3.405 51
61.928001 -11.841 4.3740001 57
63.140999 -11.993 5.4429998 44
64.491997 -12.172 6.566 26
48.668999 -9.158 1.148 39
48.188999 -8.9960003 1.878 55
37.758999 -6.9970002 2.0539999 1
38.022999 -6.9949999 2.6570001 11
62.841999 -11.482 5.368 21
68.789001 -12.484 6.9450002 18
48.673 -8.8039999 1.11 42
48.849998 -8.7639999 1.864 12
61.577 -10.962 3.299 45
61.771999 -10.918 4.263 50
38.291 -6.7210002 3.2360001 15
63.541 -11.079 6.3569999 7
49.523998 -8.6029997 1.087 21
48.424 -8.342 1.8049999 64
48.311001 -8.2539997 2.5420001 18
48.098 -8.1549997 3.2720001 12
63.046001 -10.61 5.2639999 38
38.508999 -6.4349999 3.812 16
49.591 -8.2550001 1.04 41
48.641998 -8.0270004 1.7640001 46
48.328999 -7.9120002 2.493 22
48.244999 -7.835 3.2309999 45
48.193001 -7.7649999 3.9690001 1
69.199997 -11.069 6.77 38
49.588001 -7.8959999 0.98500001 17
50.499001 -7.9720001 1.774 60
63.324001 -9.9110003 3.194 29
48.363998 -7.5100002 3.181 22
48.187 -7.4229999 3.911 2
69.304001 -10.595 6.6950002 39
35.238998 -5.3610001 0.65799999 3
50.166 -7.5599999 1.7 83
63.705002 -9.5150003 3.132 29
63.910999 -9.467 4.1209998 27
73.671997 -10.823 5.882 4
69.040001 -10.063 6.5749998 22
34.981998 -5.0710001 0.60699999 32
50.443001 -7.2459998 1.643 5
50.651001 -7.2069998 2.4200001 8
0 0 0 0
73.429001 -10.266 5.757 10
69.274002 -9.6090002 6.4959998 35
34.755001 -4.7930002 0.55400002 64
88.237 -12.054 2.7460001 26
0 0 0 0
0 0 0 0
73.706001 -9.7910004 5.6669998 15
68.691002 -9.0430002 6.3340001 10
0 0 0 0
0 0 0 0
0 0 0 0
0 0 0 0
70.589996 -8.8850002 5.3119998 20
68.488998 -8.5419998 6.2030001 50
0 0 0 0
120.725 -14.794 3.3659999 30
118.252 -14.34 5.0900002 14
0 0 0 0
73.947998 -8.7919998 5.4359999 13
68.661003 -8.085 6.0960002 3
121.298 -14.188 1.337 19
92.422997 -10.689 2.415 52
71.047997 -8.1269999 2.9319999 32
119.249 -13.491 6.7290001 29
0 0 0 0
73.741997 -8.1730003 6.4089999 20
71.299004 -7.8439999 0.65200001 43
71.158997 -7.7340002 1.724 27
84.446999 -9.073 3.322 23
118.037 -12.54 6.4330001 33
0 0 0 0
73.907997 -7.6859999 6.2779999 14
93.282997 -9.6199999 0.66900003 17
79.407997 -8.0909996 1.766 28
78.613998 -7.9130001 2.9360001 40
79.567001 -7.914 4.177 4
59.831001 -5.882 4.0489998 23
59.987 -5.8280001 4.9699998 30
104.145 -10.031 0.52999997 23
79.611 -7.5679998 1.603 11
79.383003 -7.4489999 2.796 44
60.043999 -5.5630002 3.023 33
70.852997 -6.487 4.6420002 5
73.478996 -6.6459999 5.9299998 35
103.922 -9.3109999 0.30399999 21
91.648003 -8.0979996 1.646 37
60.195 -5.244 1.987 54
79.125999 -6.8039999 3.8080001 28
71.598 -6.0749998 4.5289998 9
60.799999 -5.0910001 4.7690001 26
60.442001 -5.007 0.037 104
60.457001 -4.934 0.94499999 46
60.449001 -4.8610001 1.855 37
60.547001 -4.8000002 2.7709999 35
60.019001 -4.6869998 3.654 22
71.497002 -5.5079999 5.4369998 6
87.956001 -6.6999998 -0.15700001 10
0 0 0 0
79 -5.8299999 2.233 56
60.776001 -4.415 2.6340001 22
80.720001 -5.777 4.7189999 34
59.681999 -4.204 4.3909998 9
81.397003 -5.6550002 -0.352 8
102.741 -7.02 1.098 7
78.802002 -5.2930002 2.027 42
79.887001 -5.2750001 3.2579999 35
61.216 -3.977 3.421 22
33.326 -2.1270001 2.3659999 7
75.929001 -4.777 -0.52700001 7
102.382 -6.3210001 0.82300001 44
69.227997 -4.197 1.598 6
82.827003 -4.9289999 3.1589999 35
84.047997 -4.9089999 4.473 39
33.458 -1.919 2.286 35
64.086998 -3.6199999 -0.61699998 7
68.764999 -3.8039999 0.368 6
84.848 -4.598 1.728 31
33.491001 -1.776 1.1849999 11
33.494999 -1.7410001 1.6900001 54
114.479 -5.8299999 7.507 13
33.439999 -1.671 -0.417 76
33.414001 -1.632 0.082999997 74
33.428001 -1.595 0.58499998 92
33.398998 -1.557 1.087 65
33.521999 -1.528 1.596 38
84.283997 -3.7490001 5.2839999 5
33.386002 -1.4529999 -0.51499999 115
33.5 -1.4220001 -0.014 26
69.178001 -2.8599999 1.007 13
44.938 -1.811 1.331 72
44.505001 -1.748 1.989 45
44.432999 -1.698 2.655 25
42.931999 -1.599 -0.792 4
69.196999 -2.5039999 -0.23800001 68
45.241001 -1.5880001 0.523 16
45.123001 -1.535 1.2 41
44.729 -1.476 1.863 56
44.486 -1.42 2.5220001 63
44.298 -1.373 -0.95599997 71
45.277 -1.354 -0.29800001 46
0 0 0 0
45.324001 -1.2589999 1.062 11
44.855 -1.2 1.727 72
44.683998 -1.15 2.3929999 49
0 0 0 0
53.946999 -1.279 -0.52899998 2
0 0 0 0
106.563 -2.3080001 2.1570001 15
44.492001 -0.91500002 1.568 22
44.939999 -0.87800002 2.2609999 61
39.807999 -0.73900002 -1.122 48
51.374001 -0.90100002 -0.676 3
0 0 0 0
110.148 -1.705 1.858 21
44.459 -0.64399999 1.42 1
45.505001 -0.61299998 2.138 4
38.062 -0.47600001 -1.2029999 51
45.580002 -0.52100003 -0.75700003 6
77.695999 -0.80900002 -0.124 8
0 0 0 0
105.639 -0.889 3.01 28
85.828003 -0.639 3.7390001 21
36.702999 -0.235 -1.2920001 51
35.652 -0.192 -0.71899998 150
74.140999 -0.32699999 -0.38 13
84.561996 -0.285 0.83600003 113
84.711998 -0.2 2.112 7
105.201 -0.14399999 4.2059999 34
33.188999 -0.011 -1.291 1
35.650002 0.022 -0.85000002 150
35.627998 0.057 -0.31299999 5
0 0 0 0
89.652 0.317 1.911 10
84.328003 0.382 3.0669999 15
32.525002 0.182 -1.388 13
35.646999 0.234 -0.98400003 108
35.756001 0.26800001 -0.44800001 150
40.055 0.34 0.1 18
88.011002 0.833 1.546 30
57.898998 0.60500002 1.888 5
0 0 0 0
35.675999 0.44100001 -1.1210001 67
36.311001 0.484 -0.59399998 54
37.272999 0.53299999 -0.048 33
87.917 1.342 1.21 41
56.499001 0.917 1.628 42
30.487 0.52600002 -1.539 10
35.705002 0.64899999 -1.263 52
36.119999 0.69099998 -0.73299998 52
36.910999 0.741 -0.193 62
89.619003 1.885 0.88200003 10
56.092999 1.235 1.396 53
28.205999 0.65100002 -1.54 4
32.757 0.78500003 -1.293 4
37 0.921 -0.90100002 50
36.816002 0.949 -0.34 61
37.437 0.99900001 0.219 1
56.118 1.551 1.174 55
26.506001 0.76099998 -1.557 6
32.537998 0.96200001 -1.418 22
37.355999 1.1390001 -1.063 50
36.801998 1.154 -0.49000001 74
37.216999 1.2029999 0.064999998 31
53.702999 1.7869999 0.90399998 20
24.924 0.85600001 -1.5700001 7
0 0 0 0
33.256001 1.2 -1.087 8
33.198002 1.228 -0.583 28
33.174999 1.256 -0.079999998 66
33.132999 1.285 0.41999999 116
23.631001 0.94199997 -1.592 13
28.658001 1.169 -1.4960001 4
33.105999 1.378 -1.225 38
33.167999 1.41 -0.72500002 27
37.345001 1.6210001 -0.25099999 30
42.417999 1.88 0.35499999 50
22.405001 1.017 -1.61 18
26.820999 1.24 -1.5190001 6
32.696999 1.539 -1.354 19
37.747002 1.809 -0.99000001 51
42.548 2.079 -0.472 31
42.486 2.1110001 0.17200001 94
21.285999 1.082 -1.627 16
25.136 1.299 -1.538 6
0 0 0 0
37.563999 2.003 -1.154 52
42.625 2.3099999 -0.66299999 12
42.560001 2.3429999 -0.016000001 53
20.263 1.138 -1.643 15
23.764 1.354 -1.563 13
0 0 0 0
36.186001 2.122 -1.277 47
38.676998 2.3010001 -0.778 14
60.660999 3.6600001 -0.29800001 4
19.322001 1.189 -1.659 14
22.474001 1.4 -1.586 18
27.242001 1.7180001 -1.505 4
32.736 2.0910001 -1.309 11
0 0 0 0
44.087002 2.892 -0.42199999 1
18.437 1.2309999 -1.673 12
21.319 1.4400001 -1.607 17
25.431 1.7359999 -1.526 5
0 0 0 0
37.624001 2.6289999 -1.108 52
42.533001 3.007 -0.60600001 35
17.631001 1.268 -1.687 11
20.285999 1.473 -1.628 15
24.007999 1.761 -1.558 10
0 0 0 0
36.462002 2.734 -1.251 49
40.165001 3.0450001 -0.76599997 57
16.863001 1.299 -1.699 10
19.229 1.494 -1.64 13
22.615 1.774 -1.581 18
27.256001 2.1600001 -1.487 5
32.988998 2.6400001 -1.294 14
38.644001 3.1240001 -0.926 54
16.1 1.321 -1.706 9
18.368999 1.52 -1.661 12
21.360001 1.783 -1.602 17
25.384001 2.138 -1.513 6
0 0 0 0
37.181999 3.1900001 -1.077 51
15.404 1.341 -1.7130001 10
17.530001 1.538 -1.677 11
20.216999 1.788 -1.6210001 15
23.868 2.1270001 -1.545 10
0 0 0 0
34.277 3.1059999 -1.165 3
14.877 1.368 -1.734 8
16.754 1.551 -1.692 10
19.184999 1.789 -1.638 14
22.493 2.1129999 -1.573 18
27.250999 2.5799999 -1.485 5
33.037998 3.1530001 -1.293 15
14.146 1.369 -1.726 7
15.949 1.553 -1.696 9
18.290001 1.7920001 -1.66 12
21.226 2.095 -1.597 17
25.242001 2.5090001 -1.508 5
0 0 0 0
13.618 1.382 -1.7359999 11
15.241 1.556 -1.704 12
17.443001 1.791 -1.677 11
20.052 2.072 -1.6160001 14
23.718 2.467 -1.543 11
28.927 3.03 -1.4349999 4
13.105 1.391 -1.745 10
14.674 1.566 -1.722 8
16.643 1.786 -1.692 10
19.016001 2.052 -1.635 13
22.274 2.4189999 -1.569 17
26.712 2.9200001 -1.469 5
12.627 1.398 -1.753 10
13.979 1.5549999 -1.719 10
15.833 1.77 -1.697 9
18.068001 2.0320001 -1.654 12
20.941 2.369 -1.591 16
24.861 2.8299999 -1.503 6
12.141 1.399 -1.756 10
13.435 1.5549999 -1.73 11
15.13 1.76 -1.709 12
17.218 2.013 -1.674 11
19.808001 2.329 -1.6160001 14
23.347 2.76 -1.541 13
11.713 1.402 -1.7640001 10
12.924 1.554 -1.74 11
14.513 1.752 -1.722 7
16.434 1.993 -1.691 10
18.716999 2.2809999 -1.631 13
21.895 2.6830001 -1.567 17
11.295 1.401 -1.768 11
12.425 1.5470001 -1.7460001 10
13.821 1.728 -1.721 10
15.612 1.96 -1.696 6
17.844999 2.2509999 -1.658 11
20.601 2.612 -1.592 15
10.902 1.4 -1.773 11
11.954 1.54 -1.751 12
13.294 1.7180001 -1.734 11
14.932 1.938 -1.711 11
16.987 2.2149999 -1.678 10
19.438 2.546 -1.614 14
10.531 1.396 -1.778 12
11.525 1.533 -1.7589999 11
12.749 1.701 -1.74 11
14.238 1.9069999 -1.715 9
16.163 2.1730001 -1.6900001 9
18.438 2.4890001 -1.638 12
10.195 1.393 -1.784 11
11.115 1.523 -1.7640001 11
12.253 1.6849999 -1.7460001 11
13.633 1.881 -1.724 12
15.361 2.1270001 -1.698 9
17.547001 2.4389999 -1.6619999 11
9.8669996 1.3890001 -1.789 12
10.729 1.5140001 -1.77 12
11.8 1.67 -1.755 11
13.071 1.855 -1.733 11
14.661 2.0880001 -1.709 11
16.65 2.3800001 -1.677 10
9.5509996 1.382 -1.793 12
10.361 1.503 -1.774 12
11.372 1.653 -1.761 11
12.559 1.831 -1.742 10
13.969 2.043 -1.7130001 11
15.828 2.323 -1.689 9
9.2639999 1.377 -1.8 12
10.017 1.492 -1.78 11
10.957 1.636 -1.767 11
12.043 1.802 -1.7460001 10
13.414 2.013 -1.728 12
15.053 2.266 -1.699 11
