# .PCD v0.7 - Point Cloud Data file format
VERSION 0.7
FIELDS x y z intensity
SIZE 4 4 4 4
TYPE F F F F
COUNT 1 1 1 1
WIDTH 1838
HEIGHT 1
VIEWPOINT 0 0 0 1 0 0 0
POINTS 1838
DATA ascii
6.2049999 -3.8770001 -1.892 9
6.698 -4.1440001 -1.888 9
7.2389998 -4.4390001 -1.878 9
7.8569999 -4.7789998 -1.865 9
8.5769997 -5.178 -1.852 8
5.8860002 -3.7049999 -1.902 8
6.3169999 -3.9349999 -1.892 9
6.8169999 -4.2049999 -1.886 9
7.3730001 -4.507 -1.875 9
8.0139999 -4.8590002 -1.862 9
8.7790003 -5.2839999 -1.852 8
5.973 -3.7460001 -1.897 8
6.421 -3.9849999 -1.8890001 9
6.9510002 -4.2729998 -1.886 9
7.5289998 -4.5869999 -1.875 8
8.1850004 -4.947 -1.86 8
8.9729996 -5.3839998 -1.847 9
6.0749998 -3.7950001 -1.895 8
6.5430002 -4.0450001 -1.8890001 9
7.0809999 -4.335 -1.883 9
7.6630001 -4.651 -1.868 9
8.3669996 -5.0380001 -1.858 8
9.1949997 -5.4970002 -1.846 8
6.1849999 -3.8469999 -1.895 8
6.6570001 -4.098 -1.885 9
7.2119999 -4.3969998 -1.88 9
7.8070002 -4.7189999 -1.862 9
8.5369997 -5.119 -1.852 7
9.4569998 -5.6300001 -1.85 7
6.2969999 -3.898 -1.8940001 8
6.7859998 -4.158 -1.885 9
7.3429999 -4.4569998 -1.874 9
7.9860001 -4.8060002 -1.862 9
8.7440004 -5.2199998 -1.851 8
9.698 -5.7490001 -1.848 8
6.414 -3.951 -1.893 9
6.9200001 -4.2189999 -1.8839999 9
7.4990001 -4.5300002 -1.873 8
8.165 -4.8899999 -1.86 8
8.9610004 -5.3249998 -1.849 8
9.9799995 -5.8889999 -1.849 8
6.5349998 -4.0040002 -1.891 9
7.059 -4.2810001 -1.882 9
7.6589999 -4.6030002 -1.8710001 9
8.3400002 -4.9699998 -1.8559999 8
9.1820002 -5.4289999 -1.847 8
10.272 -6.0310001 -1.85 7
6.6620002 -4.0580001 -1.89 9
7.1939998 -4.3390002 -1.878 10
7.8119998 -4.6690001 -1.8660001 9
8.5310001 -5.0560002 -1.852 8
9.4420004 -5.553 -1.848 8
10.588 -6.184 -1.852 7
6.7969999 -4.1160002 -1.8890001 9
7.3299999 -4.395 -1.872 10
7.9819999 -4.7420001 -1.862 9
8.7510004 -5.1560001 -1.852 9
9.7049999 -5.6750002 -1.849 7
10.92 -6.342 -1.852 8
6.934 -4.1719999 -1.886 9
7.5009999 -4.4689999 -1.873 9
8.1680002 -4.823 -1.86 9
8.9540005 -5.243 -1.846 9
9.967 -5.7919998 -1.845 7
11.258 -6.4990001 -1.851 8
7.0739999 -4.2280002 -1.8839999 9
7.651 -4.5289998 -1.867 9
8.3459997 -4.8959999 -1.855 9
9.1929998 -5.349 -1.846 8
10.276 -5.9349999 -1.848 7
11.627 -6.6700001 -1.85 7
7.2160001 -4.283 -1.88 9
7.8270001 -4.6009998 -1.865 9
8.5469999 -4.98 -1.851 9
9.4469995 -5.46 -1.846 8
10.601 -6.0809999 -1.849 7
12.001 -6.8390002 -1.845 6
7.3709998 -4.342 -1.877 9
7.9910002 -4.6630001 -1.859 9
8.7559996 -5.0650001 -1.848 9
9.7130003 -5.5739999 -1.844 7
10.947 -6.2360001 -1.85 7
12.389 -7.0110002 -1.84 7
7.527 -4.401 -1.873 9
8.1829996 -4.7399998 -1.857 8
8.9779997 -5.1550002 -1.845 8
9.9940004 -5.6929998 -1.842 7
11.272 -6.375 -1.845 6
12.804 -7.1939998 -1.835 7
7.691 -4.461 -1.869 9
8.3629999 -4.8060002 -1.851 8
9.2119999 -5.2490001 -1.842 8
10.309 -5.8280001 -1.845 7
11.664 -6.5469999 -1.848 6
13.263 -7.3959999 -1.831 8
7.8670001 -4.526 -1.8660001 9
8.5609999 -4.8800001 -1.846 9
9.4809999 -5.3579998 -1.8430001 8
10.615 -5.9530001 -1.842 7
12.038 -6.7030001 -1.842 6
13.742 -7.6020002 -1.825 8
8.0369997 -4.585 -1.86 9
8.7840004 -4.9650002 -1.844 9
9.7589998 -5.4699998 -1.8430001 8
10.972 -6.1020002 -1.845 7
12.414 -6.8559999 -1.834 7
14.285 -7.8390002 -1.823 9
8.2340002 -4.6560001 -1.858 9
9.0030003 -5.0440001 -1.84 9
10.045 -5.5809999 -1.842 8
11.32 -6.2420001 -1.842 6
12.84 -7.0310001 -1.83 7
14.841 -8.0749998 -1.817 10
8.4280005 -4.7220001 -1.854 8
9.2530003 -5.138 -1.839 9
10.347 -5.698 -1.841 7
11.696 -6.3920002 -1.841 6
13.305 -7.2220001 -1.826 8
15.447 -8.3310003 -1.812 10
8.6300001 -4.789 -1.849 8
9.4969997 -5.224 -1.835 9
10.673 -5.823 -1.84 7
12.068 -6.5349998 -1.835 6
13.801 -7.4229999 -1.821 8
16.115 -8.6129999 -1.807 10
8.8360004 -4.8559999 -1.8430001 9
9.7810001 -5.329 -1.835 8
11.02 -5.9549999 -1.841 7
12.477 -6.6919999 -1.832 7
14.301 -7.618 -1.813 9
16.848 -8.9209995 -1.804 8
9.0719995 -4.9359999 -1.841 9
10.081 -5.4369998 -1.836 8
11.357 -6.0760002 -1.836 6
12.872 -6.8369999 -1.822 7
14.876 -7.848 -1.809 10
17.634001 -9.2469997 -1.798 7
9.3190002 -5.0190001 -1.839 8
10.359 -5.5310001 -1.831 8
11.726 -6.211 -1.834 6
13.345 -7.0159998 -1.819 8
15.47 -8.0799999 -1.802 10
18.493 -9.6000004 -1.7920001 7
9.5790005 -5.1040001 -1.837 9
10.697 -5.651 -1.832 8
12.112 -6.3470001 -1.83 6
13.814 -7.1869998 -1.811 8
16.162001 -8.3540001 -1.801 9
19.372 -9.9530001 -1.781 6
9.8529997 -5.1919999 -1.835 8
11.041 -5.7690001 -1.831 7
12.53 -6.4959998 -1.826 7
14.352 -7.388 -1.808 9
16.858 -8.6199999 -1.793 8
20.357 -10.348 -1.771 6
10.14 -5.283 -1.834 8
11.367 -5.8730001 -1.825 7
12.921 -6.625 -1.817 7
14.888 -7.5799999 -1.8 9
17.634001 -8.9189997 -1.788 9
21.823999 -10.973 -1.791 22
10.445 -5.3800001 -1.8329999 8
11.731 -5.993 -1.822 7
13.382 -6.7839999 -1.813 8
15.481 -7.7930002 -1.793 9
18.454 -9.2290001 -1.78 6
22.26 -11.068 -1.721 22
10.761 -5.4780002 -1.831 8
12.133 -6.125 -1.821 6
13.857 -6.9429998 -1.806 8
16.159 -8.04 -1.7920001 11
19.322001 -9.552 -1.7690001 6
23.912001 -11.751 -1.733 16
11.078 -5.5700002 -1.826 7
12.515 -6.2410002 -1.814 7
14.348 -7.1020002 -1.798 9
16.871 -8.2930002 -1.786 10
20.283001 -9.9069996 -1.7589999 6
25.634001 -12.449 -1.735 8
11.435 -5.678 -1.825 8
12.919 -6.3629999 -1.807 7
14.916 -7.2919998 -1.795 9
17.561001 -8.526 -1.774 9
21.121 -10.19 -1.73 4
27.466 -13.175 -1.73 27
11.795 -5.7820001 -1.821 8
13.361 -6.4970002 -1.801 8
15.47 -7.467 -1.785 10
18.403999 -8.823 -1.77 8
22.851 -10.887 -1.765 14
27.799999 -13.169 -1.624 2
12.176 -5.8909998 -1.817 8
13.809 -6.6279998 -1.7920001 8
16.122999 -7.6820002 -1.7819999 11
19.237 -9.1029997 -1.76 9
23.205 -10.913 -1.684 8
30.874001 -14.437 -1.6619999 6
12.544 -5.987 -1.809 7
14.314 -6.7789998 -1.788 9
16.767 -7.8829999 -1.772 10
20.084 -9.3789997 -1.742 7
25.044001 -11.622 -1.702 12
32.005001 -14.768 -1.5779999 7
12.947 -6.0949998 -1.804 7
14.812 -6.9190001 -1.779 9
17.488001 -8.1099997 -1.767 13
20.961 -9.6560001 -1.721 6
26.764999 -12.252 -1.698 8
31.919001 -14.529 -1.432 10
13.371 -6.2069998 -1.798 8
15.364 -7.0770001 -1.772 10
18.238001 -8.3400002 -1.757 10
22.150999 -10.062 -1.7180001 7
28.285 -12.769 -1.6670001 6
36.827 -16.535 -1.492 3
13.838 -6.3309999 -1.794 8
15.959 -7.2449999 -1.766 11
19.024 -8.5749998 -1.7460001 12
0 0 0 0
29.858999 -13.288 -1.6289999 17
43.125999 -19.086 -1.5599999 3
14.286 -6.441 -1.784 8
16.584 -7.4200001 -1.7589999 11
19.823999 -8.8050003 -1.7309999 9
24.298 -10.721 -1.669 17
32.608002 -14.302 -1.64 4
49.063 -21.399 -1.5700001 2
14.779 -6.5630002 -1.777 9
17.257 -7.6059999 -1.752 12
20.694 -9.0550003 -1.715 7
25.938999 -11.274 -1.67 8
33.188 -14.339 -1.529 1
51.931 -22.313 -1.446 5
15.275 -6.6789999 -1.768 10
17.941999 -7.7859998 -1.742 13
21.562 -9.2910004 -1.693 6
27.736 -11.874 -1.669 32
35.488998 -15.102 -1.488 3
52.105 -22.052999 -1.242 7
15.818 -6.809 -1.761 10
18.667999 -7.974 -1.7309999 12
23.063999 -9.7840004 -1.715 22
28.673 -12.083 -1.607 5
0 0 0 0
51.794998 -21.580999 -1.03 18
16.398001 -6.9460001 -1.7539999 11
19.417 -8.1630001 -1.7180001 10
23.676001 -9.8839998 -1.661 23
29.450001 -12.216 -1.5319999 2
47.616001 -19.635 -1.618 4
52.043999 -21.341 -0.83399999 74
17.028 -7.0949998 -1.749 12
20.158001 -8.3369999 -1.7 9
25.1 -10.308 -1.66 24
31.618999 -12.901 -1.518 3
47.171001 -19.132999 -1.418 3
58.516998 -23.606001 -0.713 32
17.665001 -7.237 -1.74 11
20.997 -8.5380001 -1.6849999 8
26.589001 -10.737 -1.653 15
34.556999 -13.863 -1.525 5
50.084999 -19.973 -1.313 2
58.284 -23.112 -0.491 35
18.334999 -7.381 -1.73 13
21.827 -8.7220001 -1.664 6
27.791 -11.029 -1.618 12
0 0 0 0
51.995998 -20.379999 -1.169 1
58.444 -22.781 -0.27700001 41
19.013 -7.5219998 -1.7180001 14
22.716999 -8.9189997 -1.6440001 6
0 0 0 0
0 0 0 0
50.191002 -19.329 -0.94700003 5
50.297001 -19.266001 -0.063000001 59
19.732 -7.6669998 -1.707 15
24.131001 -9.3059998 -1.654 25
29.856001 -11.435 -1.5140001 19
45.743 -17.406 -1.508 6
57.342999 -21.687 -0.87900001 35
57.450001 -21.608 0.12800001 14
20.473 -7.809 -1.693 10
24.479 -9.2679996 -1.5880001 24
33.025002 -12.417 -1.556 9
48.485001 -18.113001 -1.428 6
57.355 -21.299 -0.68099999 21
69.532997 -25.676001 0.38800001 42
21.164 -7.921 -1.6720001 9
0 0 0 0
33.292 -12.283 -1.451 3
48.112 -17.636 -1.251 2
0 0 0 0
48.606998 -17.617001 0.42899999 29
22.079 -8.1070004 -1.665 8
27.283001 -9.9440002 -1.575 30
37.164001 -13.453 -1.494 0
48.636002 -17.492001 -1.104 35
48.757999 -17.427999 -0.259 20
48.762001 -17.334999 0.58499998 8
22.787001 -8.2040005 -1.6390001 7
28.421 -10.156 -1.545 20
38.687 -13.731 -1.428 3
54.374001 -19.171 -1.058 2
53.794998 -18.855 -0.115 2
130.287 -45.410999 1.972 14
24.334999 -8.5869999 -1.6670001 20
0 0 0 0
43.875 -15.26 -1.478 2
47.821999 -16.525 -0.78200001 51
47.853001 -16.436001 0.043000001 52
47.806 -16.327999 0.86500001 37
24.855 -8.5900002 -1.6210001 38
30.186001 -10.356 -1.444 19
43.761002 -14.909 -1.336 1
48.058998 -16.267 -0.63800001 46
0 0 0 0
56.084 -18.761 1.177 37
25.643 -8.677 -1.591 32
31.864 -10.703 -1.426 3
46.345001 -15.46 -1.277 4
70.111 -23.232 -0.72600001 18
0 0 0 0
56.185001 -18.402 1.337 26
0 0 0 0
37.469002 -12.314 -1.564 2
48.043999 -15.681 -1.183 5
56.879002 -18.441999 -0.428 87
100.419 -32.363998 0.95300001 15
56.609001 -18.139999 1.5 3
27.402 -8.8769999 -1.535 31
37.230999 -11.97 -1.447 6
51.969002 -16.591 -1.133 11
57.487999 -18.232 -0.27399999 28
171.87801 -54.172001 2.089 24
0 0 0 0
0 0 0 0
38.537998 -12.112 -1.391 1
57.903 -18.069 -1.1059999 8
49.592999 -15.375 -0.107 89
0 0 0 0
56.563 -17.325001 1.788 40
0 0 0 0
41.991001 -12.889 -1.401 6
54.360001 -16.569 -0.89499998 28
50.029999 -15.146 0.02 3
57.287998 -17.237 0.98699999 3
56.660999 -16.948999 1.929 47
30.319 -9.1569996 -1.4450001 12
44.424999 -13.315 -1.367 9
54.583 -16.245001 -0.76099998 85
54.506001 -16.110001 0.154 51
83.089996 -24.402 1.63 20
56.806 -16.584 2.0650001 39
0 0 0 0
44.220001 -12.93 -1.251 7
54.480999 -15.812 -0.62800002 64
54.819 -15.802 0.285 21
64.345001 -18.429001 1.41 43
52.012001 -14.809 2.007 6
31.823 -9.1429996 -1.358 3
44.297001 -12.628 -1.148 2
54.847 -15.521 -0.505 59
56.828999 -15.974 0.42300001 20
64.980003 -18.146 1.566 27
43.483002 -12.067 1.77 41
35.542999 -9.9510002 -1.434 6
43.84 -12.178 -1.038 4
56.549 -15.592 -0.39700001 53
56.907001 -15.582 0.54500002 10
43.738998 -11.899 1.143 52
43.891998 -11.867 1.875 42
35.265999 -9.6129999 -1.344 2
43.735001 -11.828 -0.94099998 28
43.834 -11.768 -0.21699999 105
43.882 -11.698 0.50800002 40
52.009998 -13.772 1.462 38
51.931 -13.665 2.3169999 53
40.118 -10.643 -1.444 7
43.890999 -11.554 -0.85500002 95
57.165001 -14.934 -0.17 45
64.772003 -16.799999 0.875 26
51.563 -13.281 1.545 56
51.598999 -13.206 2.395 64
39.845001 -10.278 -1.355 4
51.141998 -13.086 -0.89700001 38
58.966 -14.973 -0.064000003 58
52.325001 -13.193 0.801 14
51.577999 -12.915 1.636 30
0 0 0 0
42.158001 -10.563 -1.354 12
51.763 -12.867 -0.81400001 101
52.402 -12.925 0.033 61
52.624001 -12.881 0.89600003 9
51.570999 -12.538 1.721 62
51.077999 -12.337 2.539 42
41.882 -10.185 -1.271 11
51.813 -12.495 -0.72500002 18
58.925999 -14.099 0.13600001 75
0 0 0 0
51.771999 -12.21 1.807 29
56.854 -13.319 2.911 41
41.629002 -9.8149996 -1.194 4
52.348 -12.239 -0.64899999 6
59.451 -13.789 0.23 41
56.879002 -13.092 1.1440001 42
56.695 -12.956 2.062 25
56.645 -12.858 2.9790001 51
38.84 -8.8719997 -1.053 78
38.779999 -8.7819996 -0.42300001 106
38.972 -8.7550001 0.206 10
58.108002 -12.954 1.248 11
56.575001 -12.519 2.132 56
56.540001 -12.424 3.046 58
38.875 -8.5939999 -0.99800003 43
38.858002 -8.5150003 -0.36899999 3
0 0 0 0
57.727001 -12.447 1.313 33
56.758999 -12.146 2.2079999 35
56.551998 -12.016 3.1129999 27
39.775002 -8.4989996 -0.96799999 65
40.050999 -8.4840002 -0.33000001 1
0 0 0 0
58 -12.08 1.388 3
56.972 -11.777 2.279 3
56.584999 -11.614 3.174 5
39.330002 -8.1149998 -0.91100001 7
59.731998 -12.215 -0.42399999 8
0 0 0 0
58.401001 -11.74 1.4579999 2
64.788002 -12.922 2.6570001 59
64.982002 -12.866 3.707 55
39.200001 -7.8000002 -0.86500001 32
60.608002 -11.949 -0.36700001 10
0 0 0 0
67.113998 -13.009 1.739 3
64.764 -12.452 2.714 57
51.058998 -9.7410002 2.957 42
46.380001 -8.8920002 -0.97799999 34
59.803001 -11.355 -0.308 6
0 0 0 0
65.352997 -12.194 1.747 9
0 0 0 0
40.318001 -7.4039998 2.3640001 36
40.146999 -7.4029999 -0.81199998 2
0 0 0 0
174.562 -31.599001 2.016 41
40.110001 -7.1960001 1.101 5
40.111 -7.1370001 1.739 37
39.900002 -7.0430002 2.3640001 41
40.043999 -7.0939999 -0.77999997 90
40.041 -7.0240002 -0.146 105
40.063 -6.9619999 0.48800001 58
40.105999 -6.908 1.124 46
40.224998 -6.8670001 1.766 39
40.694 -6.8889999 2.4330001 16
40.098 -6.8119998 -0.75700003 95
71.949997 -12.103 -0.221 26
52.057999 -8.6700001 0.66299999 58
51.887001 -8.5620003 1.482 24
51.662998 -8.4460001 2.2920001 23
64.490997 -10.455 3.882 20
40.290001 -6.5510001 -0.74000001 2
71.972 -11.583 -0.18700001 5
78.561996 -12.52 1.033 6
52.555 -8.2939997 1.52 7
51.507 -8.0530005 2.303 50
51.408001 -7.9650002 3.1110001 20
43.846001 -6.8140001 -0.78799999 12
0 0 0 0
77.885002 -11.847 1.048 16
52.615002 -7.9260001 1.536 33
51.800999 -7.7280002 2.3280001 28
51.389999 -7.5949998 3.1199999 35
44.250999 -6.5560002 -0.78299999 2
0 0 0 0
78.133003 -11.327 1.068 6
52.577999 -7.5430002 1.544 4
53.237999 -7.5609999 2.3989999 70
66.272003 -9.3210001 4.0289998 37
43.473 -6.1240001 -0.76200002 4
43.389999 -6.0450001 -0.082000002 4
43.366001 -5.9749999 0.59600002 8
91.110001 -12.423 2.6800001 14
53.254002 -7.1849999 2.401 63
67.100998 -8.9619999 4.079 32
43.222 -5.7810001 -0.75599998 5
43.240002 -5.7160001 -0.081 29
43.238998 -5.6500001 0.59399998 32
38.102001 -4.921 1.118 14
53.459999 -6.8319998 2.405 8
81.005997 -10.243 4.9130001 14
44.936001 -5.6859999 -0.78899997 9
37.984001 -4.7490001 -0.075000003 14
0 0 0 0
37.834999 -4.6199999 1.104 35
0 0 0 0
0 0 0 0
0 0 0 0
0 0 0 0
131.70799 -15.324 1.757 18
123.322 -14.173 3.566 28
119.959 -13.621 5.3369999 26
123.679 -13.885 7.4310002 11
0 0 0 0
58.119999 -6.4310002 -0.148 13
106.956 -11.679 1.387 11
121.635 -13.117 3.4679999 15
95.403 -10.162 4.204 45
121.682 -12.802 7.256 36
43.625 -4.5830002 -0.80599999 18
57.216999 -5.9289999 -0.171 8
106.12 -10.845 1.327 15
74.273003 -7.4840002 2.0799999 34
74.304001 -7.3870001 3.234 10
120.856 -11.858 7.138 30
43.780998 -4.2880001 -0.83200002 27
57.299 -5.5289998 -0.204 12
0 0 0 0
95.039001 -8.9110003 2.6040001 35
81.682999 -7.5539999 3.5039999 41
82.529999 -7.5289998 4.8200002 16
43.386002 -3.9460001 -0.85299999 52
49.983002 -4.474 -0.211 7
94.646004 -8.3409996 1.062 6
95.162003 -8.2539997 2.5369999 30
82.228996 -7.0240002 3.4649999 47
63.083 -5.3080001 3.635 11
0 0 0 0
55.206001 -4.5510001 -0.27700001 14
90.330002 -7.322 0.93900001 8
94.733002 -7.5570002 2.448 22
63.334999 -4.967 2.6140001 29
82.241997 -6.3470001 4.6659999 39
41.912998 -3.217 -0.89399999 60
51.990002 -3.918 -0.308 4
63.493 -4.7020001 0.60100001 124
63.476002 -4.618 1.579 40
63.500999 -4.5380001 2.5599999 36
63.632999 -4.4710002 3.5480001 31
40.793999 -2.8429999 -0.91100001 59
51.787998 -3.5409999 -0.36000001 8
84.490997 -5.6690001 0.71100003 5
0 0 0 0
82.185997 -5.303 3.224 48
63.854 -4.0440001 3.4890001 20
40.401001 -2.536 -0.94700003 62
47.657001 -2.931 -0.38499999 4
84.426003 -5.0819998 0.61400002 9
106.059 -6.2480001 2.4030001 15
81.753998 -4.7140002 3.1099999 47
82.884003 -4.678 4.4289999 30
39.898998 -2.227 -0.98400003 58
47.41 -2.5840001 -0.442 13
82.110001 -4.3699999 0.493 6
105.323 -5.474 2.25 29
82.819 -4.2049999 3.043 13
47.273998 -2.3429999 2.464 15
35.91 -1.7539999 -0.935 3
47.097 -2.24 -0.50400001 27
0 0 0 0
71.928001 -3.244 1.436 31
48.097 -2.112 1.699 3
36.514999 -1.5599999 1.851 40
36.208 -1.52 -0.995 48
42.832001 -1.7460001 -0.52100003 5
36.465 -1.441 0.114 88
36.453999 -1.3940001 0.67299998 71
36.466 -1.351 1.232 74
36.473999 -1.308 1.793 49
35.84 -1.257 -1.0420001 36
36.408001 -1.2309999 -0.50099999 119
36.485001 -1.191 0.056000002 90
72.231003 -2.2709999 1.217 10
48.422001 -1.467 1.559 45
47.818001 -1.393 2.273 44
35.676998 -1.008 -1.098 24
42.016998 -1.136 -0.64999998 16
48.282001 -1.248 -0.0080000004 13
48.273998 -1.1900001 0.73000002 65
48.321999 -1.137 1.472 30
47.974998 -1.075 2.197 57
35.547001 -0.764 -1.158 16
41.361 -0.84100002 -0.71399999 44
0 0 0 0
0 0 0 0
0 0 0 0
47.688999 -0.75099999 2.096 19
32.209999 -0.47400001 -1.1109999 1
40.640999 -0.55000001 -0.78100002 60
47.938999 -0.59399998 -0.18799999 5
0 0 0 0
113.172 -1.154 3.0209999 21
47.433998 -0.43000001 1.992 5
31.375 -0.25299999 -1.145 2
39.964001 -0.27599999 -0.84799999 61
48.067001 -0.28 -0.285 20
80.615997 -0.37799999 0.75400001 12
0 0 0 0
108.832 -0.27200001 4.349 36
30.606001 -0.041000001 -1.183 5
39.458 -0.0089999996 -0.92199999 56
38.678001 0.034000002 -0.31299999 116
79.369003 0.15700001 0.56999999 6
87.657997 0.26699999 1.971 42
107.752 0.45199999 4.0689998 46
29.646999 0.15700001 -1.2130001 5
35.632999 0.227 -0.91299999 8
38.689999 0.28799999 -0.40000001 150
38.659 0.33199999 0.19 2
0 0 0 0
91.614998 0.98299998 3.253 11
28.49 0.34 -1.234 5
35.555 0.463 -0.99599999 23
38.709 0.54500002 -0.493 90
38.882 0.59100002 0.097999997 150
0 0 0 0
59.542 1.03 1.971 34
27.306 0.50700003 -1.251 6
0 0 0 0
38.723999 0.79900002 -0.58899999 43
39.389999 0.85299999 0.0020000001 62
40.472 0.91900003 0.62099999 6
59.484001 1.413 1.822 43
26.514 0.667 -1.284 8
33.551998 0.87800002 -1.112 9
40.32 1.097 -0.71899998 58
39.889 1.124 -0.101 56
40.196999 1.174 0.51200002 40
59.193001 1.789 1.66 33
25.473 0.80599999 -1.303 10
31.233999 1.0190001 -1.119 3
39.597 1.332 -0.81300002 58
39.841999 1.382 -0.20900001 69
40.077 1.429 0.403 56
56.863998 2.086 1.441 8
24.589001 0.93699998 -1.327 15
29.849001 1.1670001 -1.154 5
36.171001 1.449 -0.84399998 15
36.200001 1.4859999 -0.29100001 46
36.165001 1.5190001 0.26300001 123
36.162998 1.557 0.815 81
23.712999 1.058 -1.351 20
28.52 1.299 -1.187 5
35.721001 1.661 -0.93900001 23
40.606998 1.927 -0.44499999 11
64.487 3.1210001 0.28 4
45.487 2.2460001 0.89300001 59
22.948999 1.171 -1.378 19
27.179001 1.4119999 -1.214 6
0 0 0 0
41.004002 2.2049999 -0.57300001 58
45.608002 2.497 0.059999999 74
0 0 0 0
22.118 1.268 -1.397 18
26.101999 1.52 -1.248 8
0 0 0 0
40.523998 2.4360001 -0.69400001 59
45.667999 2.786 -0.081 45
45.66 2.829 0.61699998 33
21.283001 1.3559999 -1.415 16
24.951 1.61 -1.274 12
31.075001 2.0320001 -1.109 4
39.207001 2.598 -0.796 55
40.455002 2.7179999 -0.20100001 1
45.705002 3.1129999 0.472 14
20.530001 1.4349999 -1.434 15
24.056999 1.702 -1.3099999 19
29.322001 2.0999999 -1.145 4
35.796001 2.595 -0.847 8
42.412998 3.1129999 -0.352 53
47.196999 3.5050001 0.33199999 43
19.818001 1.5089999 -1.454 14
23.051001 1.774 -1.335 19
27.733999 2.1559999 -1.178 6
35.641998 2.803 -0.96600002 28
41.333 3.2869999 -0.484 61
47.238998 3.7969999 0.171 19
19.072001 1.5700001 -1.4680001 13
22.134001 1.8380001 -1.3609999 18
26.464001 2.22 -1.219 7
33.998001 2.881 -1.0420001 9
40.112 3.4349999 -0.61199999 61
45.341 3.921 0.0049999999 4
18.355 1.624 -1.482 12
21.308001 1.902 -1.39 16
25.284 2.2750001 -1.257 11
31.292999 2.8410001 -1.073 6
37.307999 3.418 -0.704 2
0 0 0 0
17.796 1.682 -1.5039999 11
20.488001 1.951 -1.413 15
24.187 2.3199999 -1.293 17
29.111 2.8150001 -1.1059999 3
36.325001 3.5420001 -0.81900001 11
0 0 0 0
17.025999 1.712 -1.506 10
19.711 1.995 -1.436 14
23.049999 2.349 -1.321 19
27.766001 2.8499999 -1.161 5
35.728001 3.6960001 -0.94199997 24
40.841999 4.256 -0.44600001 53
16.488001 1.756 -1.525 10
18.913 2.0250001 -1.4529999 13
22.07 2.378 -1.352 17
26.201 2.842 -1.198 7
34.187 3.734 -1.034 8
39.738998 4.3709998 -0.58700001 54
15.933 1.79 -1.539 9
18.194 2.0539999 -1.472 12
21.195999 2.408 -1.3839999 16
25.006001 2.859 -1.244 9
31.245001 3.595 -1.0700001 4
37.112 4.2979999 -0.69700003 1
15.368 1.817 -1.55 8
17.472 2.0769999 -1.488 11
20.322001 2.428 -1.413 15
23.853001 2.8659999 -1.286 12
28.759001 3.4749999 -1.103 4
36.051998 4.382 -0.82300001 11
14.867 1.844 -1.564 9
16.778 2.0910001 -1.501 10
19.469 2.438 -1.436 14
22.681999 2.8540001 -1.318 18
27.218 3.4419999 -1.1569999 6
0 0 0 0
14.366 1.864 -1.575 10
16.167 2.1070001 -1.518 9
18.621 2.438 -1.455 13
21.59 2.839 -1.348 16
25.799999 3.4100001 -1.2079999 6
31.808001 4.2259998 -0.995 3
13.871 1.88 -1.584 10
15.595 2.1210001 -1.534 9
17.782 2.427 -1.4680001 12
20.704 2.8380001 -1.3839999 15
24.438 3.365 -1.251 12
29.804001 4.125 -1.061 4
13.42 1.895 -1.595 10
15.025 2.128 -1.548 9
17.086 2.4289999 -1.49 11
19.780001 2.822 -1.413 14
23.030001 3.299 -1.283 14
27.615999 3.974 -1.107 4
12.988 1.906 -1.6059999 11
14.457 2.128 -1.557 10
16.429001 2.425 -1.508 10
18.945999 2.806 -1.4400001 13
22.021 3.276 -1.327 16
26.23 3.918 -1.17 6
12.573 1.916 -1.617 11
13.953 2.131 -1.5700001 10
15.787 2.418 -1.526 9
18.066999 2.776 -1.459 12
21.035 3.244 -1.367 16
24.747 3.8310001 -1.22 9
12.205 1.927 -1.63 10
13.478 2.132 -1.5829999 11
15.159 2.404 -1.538 9
17.242001 2.7420001 -1.475 11
20.066 3.201 -1.399 15
23.434 3.7520001 -1.265 12
11.827 1.931 -1.64 10
13.006 2.128 -1.5930001 11
14.571 2.3889999 -1.551 10
16.559999 2.723 -1.499 10
19.124001 3.152 -1.427 13
22.240999 3.678 -1.308 16
11.442 1.9299999 -1.646 11
12.594 2.128 -1.607 11
14.048 2.378 -1.566 10
15.847 2.6889999 -1.513 9
18.146999 3.0880001 -1.4450001 12
21.121 3.6040001 -1.346 16
11.101 1.933 -1.656 11
12.197 2.1259999 -1.6210001 11
13.505 2.358 -1.576 11
15.205 2.6600001 -1.531 8
17.361 3.0439999 -1.47 11
20.128 3.539 -1.3839999 15
10.731 1.925 -1.659 12
11.792 2.1170001 -1.63 11
13.045 2.345 -1.591 10
14.588 2.6270001 -1.544 9
16.552999 2.987 -1.4859999 10
19.153999 3.4649999 -1.414 13
10.415 1.923 -1.6670001 11
11.416 2.109 -1.6390001 11
12.601 2.3299999 -1.604 12
14.021 2.596 -1.557 10
15.87 2.944 -1.507 9
18.243 3.391 -1.441 12
10.101 1.916 -1.673 11
11.044 2.096 -1.647 11
12.203 2.3180001 -1.619 11
13.515 2.5710001 -1.574 10
15.2 2.8959999 -1.524 8
17.375999 3.3169999 -1.464 11
9.823 1.914 -1.683 12
10.668 2.079 -1.651 12
11.781 2.2969999 -1.628 10
13.03 2.5420001 -1.5880001 11
14.589 2.8499999 -1.541 8
16.521 3.233 -1.479 10
9.5570002 1.909 -1.692 11
10.351 2.0680001 -1.66 12
11.377 2.2739999 -1.636 11
12.573 2.5150001 -1.602 11
13.994 2.802 -1.554 10
15.834 3.175 -1.502 9
9.2860003 1.901 -1.698 11
10.061 2.059 -1.671 12
11.017 2.2550001 -1.646 12
12.151 2.4879999 -1.6160001 11
13.499 2.767 -1.573 11
15.136 3.1059999 -1.5190001 8
9.0170002 1.89 -1.702 11
9.7510004 2.043 -1.676 11
10.643 2.23 -1.652 12
11.723 2.4560001 -1.625 11
12.974 2.72 -1.585 11
14.505 3.0439999 -1.535 7
8.776 1.882 -1.71 11
9.4820004 2.0309999 -1.686 10
10.311 2.2079999 -1.66 12
11.316 2.424 -1.6339999 12
12.509 2.6800001 -1.6 11
13.917 2.9849999 -1.552 11
8.5310001 1.87 -1.714 12
9.2030001 2.016 -1.692 12
9.9940004 2.188 -1.669 12
10.938 2.3940001 -1.6440001 11
12.072 2.6429999 -1.614 11
13.399 2.9349999 -1.571 11
8.2840004 1.855 -1.717 11
8.9379997 1.999 -1.698 12
9.698 2.168 -1.678 12
10.557 2.358 -1.649 13
11.651 2.6029999 -1.626 10
12.866 2.8759999 -1.5829999 10
8.059 1.842 -1.721 11
8.6859999 1.983 -1.705 12
9.4180002 2.148 -1.687 11
10.22 2.329 -1.658 12
11.215 2.5550001 -1.631 11
12.391 2.8239999 -1.597 11
7.8460002 1.829 -1.726 11
8.4449997 1.966 -1.711 13
9.1309996 2.1229999 -1.692 11
9.9110003 2.302 -1.668 11
10.841 2.5179999 -1.643 11
11.952 2.7750001 -1.6109999 11
7.645 1.817 -1.7309999 11
8.2049999 1.946 -1.714 12
8.8710003 2.1010001 -1.7 11
9.6160002 2.2750001 -1.678 11
10.469 2.4760001 -1.649 12
11.514 2.723 -1.6210001 10
7.4400001 1.801 -1.733 10
7.9790001 1.927 -1.7180001 11
8.6160002 2.0780001 -1.705 12
9.3240004 2.2460001 -1.6849999 10
10.14 2.441 -1.66 12
11.117 2.675 -1.632 11
7.2280002 1.781 -1.732 11
7.757 1.9069999 -1.722 11
8.3590002 2.052 -1.7079999 12
9.0450001 2.217 -1.692 11
9.8050003 2.401 -1.666 11
10.73 2.6259999 -1.642 11
7.0799999 1.775 -1.744 9
7.5710001 1.893 -1.73 11
8.1260004 2.0280001 -1.7130001 11
8.7849998 2.1889999 -1.699 11
9.5240002 2.3699999 -1.678 12
10.359 2.576 -1.649 11
6.8709998 1.752 -1.74 11
7.369 1.874 -1.733 11
7.9060001 2.006 -1.719 11
8.533 2.161 -1.706 11
9.2329998 2.335 -1.686 11
10.021 2.5320001 -1.658 11
6.6989999 1.7359999 -1.743 11
7.1469998 1.847 -1.729 11
7.6830001 1.98 -1.722 13
8.2720003 2.128 -1.7079999 11
8.9510002 2.299 -1.692 11
9.7080002 2.4909999 -1.668 12
6.5430002 1.722 -1.748 11
6.9549999 1.825 -1.7309999 10
7.4710002 1.956 -1.725 11
8.0489998 2.102 -1.715 12
8.6850004 2.2639999 -1.699 11
9.4119997 2.45 -1.678 10
6.3800001 1.705 -1.75 11
6.7859998 1.807 -1.7359999 11
7.302 1.939 -1.735 10
7.829 2.0739999 -1.72 12
8.4379997 2.2309999 -1.705 12
9.1140003 2.4059999 -1.683 11
6.2290001 1.689 -1.753 10
6.612 1.7869999 -1.737 12
7.1090002 1.915 -1.738 10
7.6009998 2.0420001 -1.721 12
8.1859999 2.1949999 -1.7079999 12
8.849 2.368 -1.692 11
6.0840001 1.673 -1.756 10
6.4619999 1.77 -1.743 11
6.9320002 1.893 -1.742 9
7.4070001 2.017 -1.727 10
7.9629998 2.164 -1.715 11
8.5930004 2.3299999 -1.699 12
5.9400001 1.656 -1.757 10
6.2979999 1.749 -1.744 11
6.7259998 1.8609999 -1.738 11
7.2069998 1.988 -1.73 11
7.7459998 2.132 -1.72 11
8.3330002 2.289 -1.7029999 12
5.8049998 1.64 -1.76 9
6.145 1.729 -1.7460001 10
6.5570002 1.8380001 -1.74 11
7.02 1.961 -1.734 11
7.4959998 2.089 -1.715 12
8.0930004 2.25 -1.7079999 12
5.6789999 1.625 -1.7640001 10
6.007 1.711 -1.75 10
6.4060001 1.817 -1.745 11
6.8309999 1.931 -1.734 11
7.3109999 2.062 -1.723 11
7.8699999 2.214 -1.7130001 11
5.546 1.607 -1.7640001 9
5.8699999 1.693 -1.753 10
6.2470002 1.794 -1.747 10
6.645 1.901 -1.734 10
7.1399999 2.0369999 -1.732 10
7.6329999 2.171 -1.7130001 12
5.4219999 1.59 -1.766 10
5.7449999 1.676 -1.758 10
6.0970001 1.771 -1.749 10
6.4889998 1.878 -1.739 11
6.9450002 2.003 -1.732 10
7.402 2.1289999 -1.712 11
5.3119998 1.575 -1.77 10
5.6059999 1.654 -1.757 10
5.961 1.751 -1.753 10
6.3369999 1.854 -1.743 11
6.7639999 1.972 -1.735 10
7.23 2.1010001 -1.721 11
5.1950002 1.558 -1.771 10
5.4879999 1.637 -1.762 10
5.8260002 1.73 -1.756 10
6.1900001 1.83 -1.747 10
6.586 1.9400001 -1.735 11
7.04 2.0669999 -1.725 10
5.0929999 1.544 -1.776 10
5.3720002 1.619 -1.765 10
5.6890001 1.707 -1.757 11
6.0419998 1.804 -1.749 10
6.4330001 1.913 -1.74 11
6.8610001 2.0339999 -1.729 11
4.9809999 1.526 -1.776 10
5.2589998 1.601 -1.768 10
5.572 1.688 -1.762 11
5.9039998 1.78 -1.752 10
6.2839999 1.887 -1.744 10
6.6830001 1.999 -1.73 11
4.8660002 1.505 -1.773 10
5.1420002 1.581 -1.767 11
5.4450002 1.665 -1.763 11
5.7620001 1.7539999 -1.752 10
6.1370001 1.86 -1.747 10
6.5209999 1.969 -1.734 10
4.7729998 1.4910001 -1.777 9
5.0380001 1.564 -1.771 11
5.3280001 1.6440001 -1.7640001 10
5.6430001 1.733 -1.757 10
5.9949999 1.832 -1.75 10
6.3720002 1.9400001 -1.739 11
4.6810002 1.476 -1.78 9
4.9439998 1.548 -1.776 11
5.2090001 1.622 -1.7640001 11
5.5300002 1.712 -1.762 10
5.8499999 1.803 -1.749 10
6.2119999 1.906 -1.739 10
4.592 1.46 -1.7819999 9
4.8470001 1.531 -1.779 11
5.1149998 1.6059999 -1.771 11
5.4000001 1.686 -1.761 10
5.7270002 1.779 -1.7539999 10
6.0760002 1.8789999 -1.744 10
4.5079999 1.446 -1.786 9
4.7480001 1.513 -1.779 10
5.0170002 1.5880001 -1.775 11
5.2969999 1.6670001 -1.766 11
5.6020002 1.7539999 -1.756 10
5.9320002 1.848 -1.744 10
4.4239998 1.431 -1.788 9
4.6459999 1.492 -1.777 10
4.9130001 1.567 -1.776 11
5.1849999 1.6440001 -1.767 10
5.4790001 1.727 -1.757 10
5.7950001 1.818 -1.745 11
4.3369999 1.414 -1.788 9
4.5619998 1.476 -1.781 10
4.8179998 1.548 -1.778 10
5.0830002 1.623 -1.77 10
5.3639998 1.7029999 -1.7589999 10
5.678 1.793 -1.75 11
4.2600002 1.399 -1.791 9
4.4790001 1.46 -1.784 10
4.7220001 1.528 -1.779 10
4.9829998 1.602 -1.772 11
5.2509999 1.678 -1.76 11
5.5580001 1.766 -1.752 10
4.1849999 1.3839999 -1.793 9
4.402 1.444 -1.7869999 10
4.632 1.508 -1.78 10
4.8829999 1.579 -1.773 11
5.145 1.654 -1.762 11
5.4299998 1.7359999 -1.75 11
4.1090002 1.368 -1.794 9
4.316 1.425 -1.7869999 10
4.5450001 1.489 -1.7819999 10
4.7930002 1.5599999 -1.776 10
5.0469999 1.632 -1.765 11
5.3080001 1.706 -1.749 11
4.033 1.352 -1.794 9
4.2399998 1.409 -1.789 11
4.4569998 1.469 -1.781 10
4.7020001 1.539 -1.778 11
4.9559999 1.6109999 -1.7690001 11
5.2290001 1.6900001 -1.76 11
3.961 1.336 -1.794 9
4.1760001 1.396 -1.795 10
4.3860002 1.454 -1.786 10
4.6209998 1.52 -1.781 10
4.868 1.591 -1.773 11
5.1269999 1.665 -1.761 10
3.8970001 1.322 -1.7970001 9
4.0999999 1.378 -1.794 10
4.3109999 1.436 -1.788 10
4.5320001 1.498 -1.78 9
4.7729998 1.567 -1.773 11
5.0359998 1.642 -1.765 10
3.836 1.308 -1.8 9
4.0300002 1.362 -1.795 10
4.2360001 1.418 -1.79 10
4.4520001 1.479 -1.7819999 10
4.6919999 1.5470001 -1.776 11
4.9450002 1.62 -1.7690001 10
3.7739999 1.294 -1.801 9
3.9619999 1.345 -1.796 10
4.1630001 1.4 -1.791 10
4.3759999 1.46 -1.784 10
4.6040001 1.524 -1.776 10
4.8649998 1.6 -1.774 11
3.723 1.283 -1.808 9
3.8940001 1.3279999 -1.796 10
4.0970001 1.3839999 -1.794 10
4.3010001 1.4400001 -1.785 10
4.5159998 1.501 -1.775 10
4.7680001 1.573 -1.772 11
3.665 1.268 -1.8099999 8
3.829 1.311 -1.7970001 10
4.0250001 1.365 -1.793 10
4.2329998 1.423 -1.788 10
4.4489999 1.483 -1.781 10
4.6820002 1.549 -1.773 10
3.605 1.253 -1.809 9
3.777 1.298 -1.802 10
3.9630001 1.349 -1.796 10
4.1620002 1.403 -1.789 9
4.3779998 1.464 -1.784 10
4.6040001 1.528 -1.776 10
3.55 1.238 -1.811 8
3.714 1.281 -1.801 9
3.898 1.331 -1.796 10
4.1020002 1.388 -1.793 9
4.303 1.443 -1.783 9
4.526 1.506 -1.777 10
3.4990001 1.225 -1.813 8
3.664 1.268 -1.8049999 9
3.835 1.313 -1.795 10
4.0349998 1.368 -1.793 10
4.2389998 1.425 -1.7869999 10
4.4640002 1.488 -1.783 10
3.4519999 1.212 -1.816 8
3.608 1.252 -1.8049999 9
3.779 1.2970001 -1.7970001 10
3.967 1.348 -1.7920001 10
4.164 1.402 -1.784 9
4.3870001 1.465 -1.7819999 10
3.4000001 1.197 -1.816 8
3.562 1.239 -1.8099999 9
3.7309999 1.284 -1.802 9
3.914 1.3329999 -1.796 9
4.1069999 1.385 -1.788 9
4.3189998 1.444 -1.783 10
3.352 1.183 -1.817 8
3.517 1.226 -1.813 9
3.6830001 1.2690001 -1.8049999 9
3.855 1.3150001 -1.796 10
4.0500002 1.368 -1.791 10
4.2519999 1.423 -1.784 10
3.306 1.17 -1.818 8
3.4619999 1.209 -1.812 9
3.6259999 1.252 -1.804 9
3.8 1.298 -1.7970001 9
3.984 1.347 -1.789 10
4.1939998 1.404 -1.7869999 10
3.2620001 1.156 -1.8200001 8
3.425 1.198 -1.818 9
3.582 1.238 -1.808 9
3.7460001 1.28 -1.798 9
3.937 1.332 -1.795 10
4.131 1.3839999 -1.788 9
3.217 1.142 -1.819 8
3.3740001 1.182 -1.816 9
3.5380001 1.224 -1.811 8
3.697 1.2640001 -1.799 9
3.8759999 1.311 -1.7920001 10
4.0749998 1.365 -1.789 9
3.177 1.1289999 -1.821 8
3.329 1.1670001 -1.816 9
3.4860001 1.206 -1.809 9
3.6470001 1.247 -1.799 8
3.826 1.294 -1.794 10
4.0240002 1.347 -1.7920001 9
3.132 1.114 -1.819 7
3.2850001 1.152 -1.816 9
3.4460001 1.193 -1.812 9
3.608 1.234 -1.804 8
3.777 1.277 -1.796 9
3.967 1.327 -1.791 9
3.095 1.102 -1.8200001 8
3.253 1.141 -1.821 8
3.411 1.1799999 -1.817 9
3.5680001 1.219 -1.808 9
3.7290001 1.26 -1.7970001 9
3.9059999 1.306 -1.788 9
3.0539999 1.087 -1.819 7
3.2060001 1.124 -1.817 8
3.369 1.165 -1.817 8
3.529 1.205 -1.811 8
3.684 1.243 -1.798 9
3.865 1.29 -1.793 9
3.0239999 1.076 -1.823 7
3.174 1.112 -1.822 8
3.326 1.149 -1.816 8
3.48 1.186 -1.808 8
3.6429999 1.227 -1.801 8
3.819 1.272 -1.795 9
2.993 1.064 -1.826 7
3.135 1.097 -1.8200001 8
3.286 1.1339999 -1.816 8
3.4460001 1.173 -1.812 9
3.609 1.2130001 -1.806 9
3.7690001 1.253 -1.793 9
2.961 1.051 -1.827 7
3.102 1.084 -1.822 8
3.25 1.119 -1.817 8
3.404 1.156 -1.811 8
3.563 1.1950001 -1.804 9
3.733 1.237 -1.7970001 9
2.9319999 1.04 -1.829 6
3.069 1.071 -1.822 8
3.22 1.107 -1.821 8
3.372 1.142 -1.8150001 9
3.529 1.1799999 -1.807 9
3.691 1.22 -1.798 9
2.901 1.027 -1.829 6
3.0339999 1.056 -1.822 8
3.1819999 1.091 -1.819 8
3.3399999 1.128 -1.817 8
3.4949999 1.165 -1.8099999 9
3.6559999 1.204 -1.801 8
0 0 0 0
3.007 1.044 -1.824 8
3.1459999 1.075 -1.817 8
3.306 1.113 -1.818 8
3.4590001 1.149 -1.811 9
3.6229999 1.188 -1.804 8
1.5549999 0.54699999 -1.001 6
2.983 1.0319999 -1.8279999 7
3.118 1.062 -1.819 8
3.273 1.098 -1.818 8
3.4260001 1.1339999 -1.812 8
3.586 1.171 -1.8049999 8
1.472 0.51700002 -0.95700002 4
2.95 1.018 -1.825 7
3.095 1.05 -1.824 8
3.237 1.082 -1.816 7
3.3929999 1.118 -1.812 8
3.5550001 1.156 -1.807 9
0 0 0 0
2.9289999 1.007 -1.829 7
3.062 1.035 -1.821 8
3.211 1.068 -1.818 7
3.369 1.105 -1.817 8
3.52 1.1390001 -1.807 8
0 0 0 0
2.905 0.99400002 -1.83 6
3.039 1.022 -1.823 7
3.1889999 1.056 -1.822 8
3.3369999 1.089 -1.816 8
3.494 1.124 -1.8099999 9
0 0 0 0
0 0 0 0
3.0120001 1.008 -1.823 7
3.1619999 1.041 -1.823 8
3.3080001 1.073 -1.816 8
3.4660001 1.108 -1.812 8
0 0 0 0
1.605 0.54400003 -1.028 5
2.9920001 0.99599999 -1.826 7
3.1270001 1.024 -1.817 7
3.286 1.059 -1.819 8
3.4400001 1.0930001 -1.813 8
0 0 0 0
1.505 0.50700003 -0.972 4
2.97 0.98299998 -1.826 7
3.1059999 1.011 -1.819 8
3.257 1.043 -1.817 7
3.4089999 1.076 -1.811 8
0 0 0 0
0 0 0 0
2.948 0.97000003 -1.827 7
3.0869999 0.99800003 -1.821 8
3.2309999 1.028 -1.816 8
3.391 1.063 -1.8150001 8
0 0 0 0
0 0 0 0
2.9300001 0.95700002 -1.8279999 7
3.0699999 0.98500001 -1.824 7
3.21 1.013 -1.817 7
3.3670001 1.0470001 -1.816 8
0 0 0 0
0 0 0 0
2.9100001 0.94300002 -1.8279999 7
3.0450001 0.97000003 -1.822 7
3.1900001 0.99900001 -1.818 7
3.342 1.031 -1.8150001 8
0 0 0 0
0 0 0 0
0 0 0 0
3.027 0.95599997 -1.823 7
3.1700001 0.98500001 -1.819 8
3.322 1.015 -1.8150001 8
0 0 0 0
0 0 0 0
1.728 0.551 -1.099 3
3.0120001 0.94400001 -1.825 7
3.152 0.97000003 -1.819 8
3.2980001 0.99900001 -1.813 8
0 0 0 0
0 0 0 0
1.55 0.49000001 -0.991 2
2.99 0.92799997 -1.821 7
3.138 0.95700002 -1.821 8
3.289 0.98699999 -1.819 7
0 0 0 0
0 0 0 0
1.524 0.47799999 -0.97899997 3
2.9790001 0.91600001 -1.824 7
3.1170001 0.94199997 -1.818 7
3.2650001 0.97000003 -1.8150001 7
0 0 0 0
0 0 0 0
1.515 0.47 -0.97899997 4
2.967 0.903 -1.826 7
3.102 0.92699999 -1.818 8
3.253 0.95599997 -1.817 7
0 0 0 0
0 0 0 0
1.5039999 0.46200001 -0.97500002 5
2.957 0.89099997 -1.827 6
3.0940001 0.91500002 -1.822 7
3.2409999 0.94199997 -1.818 7
0 0 0 0
0 0 0 0
1.493 0.454 -0.972 5
2.948 0.87800002 -1.8279999 6
3.0799999 0.90100002 -1.8200001 8
3.2309999 0.92900002 -1.8200001 8
0 0 0 0
0 0 0 0
1.493 0.449 -0.97600001 5
2.938 0.866 -1.829 7
3.072 0.88800001 -1.822 7
3.223 0.91500002 -1.822 7
0 0 0 0
0 0 0 0
1.485 0.44100001 -0.97299999 3
2.924 0.85100001 -1.826 6
3.066 0.875 -1.824 7
3.2060001 0.89899999 -1.819 7
0 0 0 0
0 0 0 0
1.477 0.43399999 -0.97100002 2
2.905 0.83499998 -1.819 9
3.056 0.861 -1.824 7
3.201 0.88599998 -1.821 7
0 0 0 0
0 0 0 0
1.467 0.42500001 -0.96600002 2
0 0 0 0
3.05 0.84899998 -1.825 7
3.1900001 0.87099999 -1.819 7
0 0 0 0
0 0 0 0
1.4529999 0.41600001 -0.95899999 2
0 0 0 0
3.0439999 0.83499998 -1.825 7
3.187 0.85799998 -1.821 7
0 0 0 0
0 0 0 0
0 0 0 0
0 0 0 0
3.0380001 0.82099998 -1.824 6
3.184 0.84500003 -1.823 7
0 0 0 0
0 0 0 0
1.443 0.40099999 -0.95499998 2
1.771 0.48100001 -1.117 8
3.033 0.80800003 -1.824 7
3.178 0.82999998 -1.822 7
0 0 0 0
0 0 0 0
0 0 0 0
1.766 0.47299999 -1.115 6
3.0280001 0.79400003 -1.823 7
3.174 0.81599998 -1.821 7
0 0 0 0
0 0 0 0
1.4349999 0.38699999 -0.95099998 3
1.765 0.465 -1.115 5
3.027 0.78100002 -1.823 7
3.1719999 0.80199999 -1.821 7
0 0 0 0
0 0 0 0
0 0 0 0
1.771 0.45899999 -1.119 3
3.03 0.76899999 -1.825 7
3.177 0.78899997 -1.824 7
0 0 0 0
0 0 0 0
1.433 0.37400001 -0.94999999 3
1.7970001 0.458 -1.135 3
3.0320001 0.75599998 -1.826 7
3.1789999 0.77600002 -1.825 7
0 0 0 0
0 0 0 0
1.4349999 0.368 -0.94999999 3
1.837 0.46000001 -1.159 2
3.0369999 0.74299997 -1.827 6
3.181 0.76300001 -1.825 7
0 0 0 0
0 0 0 0
1.437 0.361 -0.94999999 3
0 0 0 0
3.04 0.73000002 -1.827 6
3.178 0.74699998 -1.822 7
0 0 0 0
0 0 0 0
1.438 0.35499999 -0.94999999 3
0 0 0 0
3.05 0.71899998 -1.831 6
3.188 0.73500001 -1.825 7
0 0 0 0
0 0 0 0
1.448 0.35100001 -0.95499998 3
0 0 0 0
3.0539999 0.70499998 -1.83 6
3.191 0.72100002 -1.824 7
0 0 0 0
0 0 0 0
1.454 0.345 -0.95700002 3
0 0 0 0
3.062 0.69300002 -1.831 7
3.2 0.708 -1.825 7
0 0 0 0
0 0 0 0
1.4579999 0.33899999 -0.95700002 3
2.924 0.66299999 -1.829 6
3.0699999 0.68000001 -1.832 7
3.2119999 0.69599998 -1.827 7
0 0 0 0
0 0 0 0
1.472 0.33500001 -0.963 3
1.564 0.347 -0.97500002 0
3.072 0.66600001 -1.8279999 7
3.22 0.68199998 -1.827 7
0 0 0 0
0 0 0 0
1.477 0.329 -0.96399999 2
2.951 0.63999999 -1.835 5
3.086 0.65399998 -1.83 7
3.2260001 0.66799998 -1.824 7
0 0 0 0
0 0 0 0
1.484 0.32300001 -0.96499997 2
2.967 0.62900001 -1.839 5
3.098 0.64099997 -1.831 7
3.2460001 0.65600002 -1.829 7
0 0 0 0
0 0 0 0
1.498 0.31799999 -0.97000003 2
2.9719999 0.61500001 -1.834 6
3.112 0.62900001 -1.832 7
3.257 0.64300001 -1.8279999 7
0 0 0 0
0 0 0 0
1.5140001 0.31400001 -0.97600001 2
2.984 0.60299999 -1.834 7
3.119 0.61400002 -1.8279999 7
3.2690001 0.62900001 -1.827 8
0 0 0 0
0 0 0 0
1.526 0.30899999 -0.97899997 2
2.997 0.58999997 -1.834 7
3.1400001 0.60299999 -1.832 7
3.2809999 0.61500001 -1.826 7
0 0 0 0
0 0 0 0
1.5470001 0.30500001 -0.98799998 2
3.013 0.57800001 -1.834 6
3.1500001 0.58899999 -1.829 8
3.3010001 0.602 -1.8279999 8
0 0 0 0
1.415 0.28 -0.94300002 6
1.566 0.30000001 -0.995 1
3.0309999 0.56599998 -1.836 6
3.1689999 0.57700002 -1.83 7
3.3169999 0.58899999 -1.827 8
0 0 0 0
1.425 0.27399999 -0.94400001 6
1.6 0.29899999 -1.01 1
3.0420001 0.55299997 -1.832 6
3.188 0.56400001 -1.831 7
3.3380001 0.57599998 -1.8279999 7
0 0 0 0
1.441 0.27000001 -0.949 5
0 0 0 0
3.066 0.542 -1.836 6
3.2130001 0.55199999 -1.834 7
3.3599999 0.56300002 -1.829 7
0 0 0 0
1.46 0.26499999 -0.95599997 4
2.9330001 0.51800001 -1.83 6
3.0829999 0.52899998 -1.834 6
3.2279999 0.53799999 -1.831 7
3.3789999 0.54900002 -1.8279999 7
0 0 0 0
1.4809999 0.26100001 -0.96200001 4
2.974 0.509 -1.8430001 6
3.1059999 0.51700002 -1.835 7
3.2520001 0.52600002 -1.8329999 7
3.3940001 0.53500003 -1.824 8
0 0 0 0
1.503 0.257 -0.97000003 4
2.99 0.49700001 -1.841 6
3.1289999 0.505 -1.837 7
3.2690001 0.51200002 -1.83 7
3.4260001 0.52200001 -1.8279999 8
0 0 0 0
1.529 0.25400001 -0.98000002 2
3.01 0.484 -1.839 7
3.1500001 0.49200001 -1.835 7
3.2939999 0.5 -1.83 7
3.4489999 0.509 -1.827 8
1.399 0.23199999 -0.93400002 5
1.5549999 0.25 -0.98900002 2
3.0350001 0.47299999 -1.841 6
3.178 0.47999999 -1.8380001 7
3.322 0.48699999 -1.832 8
3.4809999 0.49599999 -1.83 8
1.423 0.228 -0.94199997 5
1.609 0.25 -1.016 1
3.053 0.46000001 -1.837 7
3.1960001 0.46599999 -1.834 7
3.342 0.47299999 -1.829 8
3.5090001 0.48300001 -1.83 8
1.444 0.22400001 -0.94800001 4
0 0 0 0
3.089 0.449 -1.844 6
3.227 0.454 -1.836 7
3.3740001 0.461 -1.831 8
3.53 0.46799999 -1.825 8
1.47 0.22 -0.95700002 4
2.9660001 0.43000001 -1.841 7
3.112 0.43700001 -1.842 7
3.253 0.442 -1.836 7
3.398 0.447 -1.8279999 8
3.5610001 0.45500001 -1.826 8
1.494 0.21600001 -0.96399999 3
3.0020001 0.41999999 -1.847 7
3.1340001 0.42399999 -1.839 7
3.2820001 0.42899999 -1.836 7
3.431 0.435 -1.829 8
3.5929999 0.442 -1.826 8
1.53 0.213 -0.97799999 2
3.026 0.40700001 -1.845 6
3.165 0.412 -1.84 6
3.3150001 0.417 -1.8380001 8
3.467 0.42300001 -1.832 8
3.625 0.428 -1.824 8
1.568 0.20999999 -0.99299997 2
3.052 0.39500001 -1.8430001 7
3.1919999 0.39899999 -1.8380001 7
3.346 0.405 -1.837 7
3.497 0.40900001 -1.83 8
3.6600001 0.41499999 -1.825 8
1.742 0.22499999 -1.0930001 3
3.082 0.384 -1.844 7
3.223 0.38699999 -1.8380001 7
3.3800001 0.39199999 -1.8380001 7
3.5280001 0.396 -1.8279999 8
3.701 0.40200001 -1.827 8
2.964 0.368 -1.842 9
3.1129999 0.37200001 -1.844 7
3.2590001 0.375 -1.84 7
3.411 0.37900001 -1.836 8
3.566 0.38299999 -1.829 8
3.734 0.38699999 -1.824 8
3.0050001 0.35699999 -1.848 7
3.1440001 0.36000001 -1.8430001 7
3.2869999 0.36199999 -1.837 8
3.444 0.366 -1.835 7
3.602 0.36899999 -1.8279999 8
3.7750001 0.37400001 -1.824 8
3.033 0.345 -1.845 7
3.1760001 0.34799999 -1.842 8
3.326 0.34999999 -1.839 8
3.49 0.354 -1.839 8
3.6429999 0.35699999 -1.829 9
3.8110001 0.36000001 -1.822 8
3.0650001 0.333 -1.845 6
3.2130001 0.336 -1.844 8
3.3659999 0.338 -1.841 8
3.527 0.34099999 -1.839 8
3.684 0.34299999 -1.829 8
3.848 0.34599999 -1.819 8
3.1010001 0.322 -1.846 6
3.247 0.324 -1.8430001 7
3.398 0.32600001 -1.8380001 8
3.556 0.32800001 -1.8329999 8
3.7260001 0.33000001 -1.829 8
3.898 0.333 -1.821 9
3.1329999 0.31 -1.844 7
3.2850001 0.31200001 -1.844 7
3.437 0.31299999 -1.8380001 8
3.596 0.315 -1.832 8
3.773 0.317 -1.83 9
3.9400001 0.31799999 -1.819 8
3.1760001 0.29899999 -1.848 7
3.323 0.30000001 -1.844 8
3.4809999 0.301 -1.84 8
3.6429999 0.30199999 -1.834 8
3.8080001 0.303 -1.825 9
3.993 0.30500001 -1.8200001 9
3.214 0.287 -1.848 7
3.3640001 0.28799999 -1.844 8
3.5190001 0.28799999 -1.8380001 8
3.6889999 0.289 -1.835 9
3.852 0.289 -1.823 9
4.0370002 0.28999999 -1.817 8
3.2479999 0.27500001 -1.845 7
3.405 0.27500001 -1.844 8
3.566 0.27599999 -1.839 8
3.7320001 0.27599999 -1.832 9
3.9030001 0.27599999 -1.823 9
4.0910001 0.27700001 -1.817 9
3.29 0.26300001 -1.846 7
3.4449999 0.26300001 -1.842 8
3.6110001 0.26300001 -1.839 9
3.777 0.26199999 -1.831 9
3.9460001 0.26199999 -1.819 9
4.1529999 0.26300001 -1.819 9
3.3310001 0.25099999 -1.845 7
3.487 0.25 -1.841 8
3.6600001 0.25 -1.839 9
3.8280001 0.249 -1.831 9
4.0050001 0.249 -1.822 9
4.2150002 0.249 -1.821 9
3.3710001 0.23899999 -1.8430001 8
3.5350001 0.23800001 -1.841 8
3.71 0.23800001 -1.84 9
3.875 0.236 -1.8279999 9
4.0560002 0.235 -1.819 9
4.27 0.235 -1.819 9
3.4189999 0.227 -1.844 7
3.5829999 0.226 -1.841 9
3.753 0.22400001 -1.836 8
3.9170001 0.222 -1.823 9
4.1129999 0.221 -1.819 9
4.336 0.221 -1.821 10
3.4579999 0.215 -1.841 8
3.6159999 0.212 -1.8329999 9
3.802 0.212 -1.834 9
3.9719999 0.20900001 -1.822 9
4.1750002 0.208 -1.8200001 10
4.3959999 0.207 -1.818 10
3.503 0.20299999 -1.839 8
3.671 0.20100001 -1.835 9
3.8499999 0.199 -1.831 8
4.0300002 0.19599999 -1.822 9
4.2379999 0.19400001 -1.8200001 10
4.4619999 0.193 -1.818 10
3.5510001 0.191 -1.8380001 8
3.723 0.18799999 -1.834 8
3.8970001 0.185 -1.826 9
4.098 0.183 -1.826 10
4.3049998 0.18099999 -1.8200001 10
4.5310001 0.178 -1.817 10
3.6099999 0.17900001 -1.842 8
3.78 0.176 -1.835 9
3.96 0.17299999 -1.829 9
4.1589999 0.17 -1.825 10
4.3709998 0.167 -1.8200001 10
4.6030002 0.164 -1.817 10
3.6600001 0.167 -1.841 8
3.8329999 0.164 -1.834 9
4.013 0.16 -1.825 9
4.2249999 0.15700001 -1.825 10
4.4349999 0.153 -1.817 10
4.6700001 0.149 -1.813 10
3.7090001 0.155 -1.8380001 9
3.8870001 0.15099999 -1.832 9
4.0739999 0.147 -1.824 10
4.2919998 0.14300001 -1.824 10
4.5120001 0.139 -1.818 10
4.744 0.13500001 -1.8099999 10
3.7650001 0.14300001 -1.837 9
3.948 0.138 -1.832 9
4.145 0.134 -1.827 10
4.3610001 0.13 -1.823 10
4.585 0.125 -1.817 10
4.8299999 0.12 -1.811 11
3.8280001 0.131 -1.8380001 8
4.0089998 0.126 -1.831 9
4.2150002 0.121 -1.827 10
4.4320002 0.116 -1.822 10
4.6589999 0.111 -1.8150001 10
4.915 0.105 -1.8099999 11
3.8800001 0.118 -1.834 9
4.0679998 0.113 -1.8279999 9
4.289 0.108 -1.8279999 10
4.5079999 0.103 -1.822 10
4.7309999 0.097000003 -1.8099999 11
5.0009999 0.090999998 -1.809 10
3.9400001 0.106 -1.832 9
4.1370001 0.101 -1.8279999 10
4.3610001 0.094999999 -1.8279999 10
4.586 0.089000002 -1.821 10
4.8200002 0.082000002 -1.811 11
5.099 0.075999998 -1.8099999 11
4.0040002 0.093999997 -1.832 9
4.2119999 0.088 -1.83 10
4.4260001 0.082000002 -1.823 10
4.6609998 0.075000003 -1.818 10
4.9120002 0.068000004 -1.812 11
5.1919999 0.061000001 -1.808 12
4.066 0.082000002 -1.829 9
4.2750001 0.075000003 -1.826 10
4.5089998 0.068999998 -1.825 11
4.7379999 0.061999999 -1.8150001 10
5.0029998 0.054000001 -1.811 10
5.2909999 0.046 -1.806 11
4.1360002 0.068999998 -1.829 10
4.3579998 0.063000001 -1.8279999 11
4.5890002 0.056000002 -1.824 11
4.8239999 0.048 -1.813 10
5.1059999 0.039999999 -1.812 11
5.3940001 0.030999999 -1.804 11
4.2059999 0.057 -1.827 9
4.434 0.050000001 -1.827 11
4.6669998 0.041999999 -1.8200001 10
4.9180002 0.034000002 -1.813 11
5.2030001 0.025 -1.811 11
5.4990001 0.016000001 -1.802 12
4.2880001 0.045000002 -1.83 9
4.5159998 0.037999999 -1.827 10
4.7459998 0.028999999 -1.816 10
5.0219998 0.021 -1.816 11
5.3130002 0.011 -1.812 11
5.6199999 0.001 -1.803 12
4.368 0.033 -1.831 9
4.5929999 0.025 -1.823 11
4.8390002 0.016000001 -1.817 10
5.118 0.0070000002 -1.814 11
5.4109998 -0.003 -1.807 12
5.7410002 -0.014 -1.802 12
4.4439998 0.021 -1.8279999 10
4.6830001 0.012 -1.824 10
4.9369998 0.003 -1.817 11
5.2280002 -0.0060000001 -1.8150001 10
5.527 -0.017000001 -1.806 12
5.8590002 -0.028999999 -1.799 12
4.5250001 0.0089999996 -1.826 10
4.7620001 0 -1.819 11
5.0430002 -0.0089999996 -1.819 11
5.335 -0.02 -1.814 11
5.638 -0.032000002 -1.803 12
5.9840002 -0.045000002 -1.795 12
4.6230001 -0.0020000001 -1.83 10
4.8569999 -0.012 -1.818 10
5.145 -0.023 -1.818 11
5.4299998 -0.034000002 -1.807 11
5.776 -0.046999998 -1.806 12
6.1149998 -0.059999999 -1.791 12
4.6960001 -0.014 -1.823 10
4.9559999 -0.025 -1.818 11
5.243 -0.035999998 -1.814 11
5.5440001 -0.048 -1.804 11
5.888 -0.061000001 -1.799 11
6.2729998 -0.075999998 -1.794 12
4.7969999 -0.027000001 -1.825 10
5.0560002 -0.037 -1.816 10
5.3639998 -0.048999999 -1.816 11
5.684 -0.061999999 -1.809 11
6.0370002 -0.075999998 -1.801 12
6.4369998 -0.092 -1.795 11
4.8839998 -0.039000001 -1.8200001 11
5.1659999 -0.050000001 -1.817 11
5.4679999 -0.063000001 -1.8099999 12
5.8109999 -0.077 -1.807 12
6.1919999 -0.092 -1.803 11
6.5960002 -0.108 -1.793 12
4.9860001 -0.050999999 -1.8200001 11
5.2750001 -0.063000001 -1.8150001 10
5.592 -0.075999998 -1.8099999 11
5.9650002 -0.090999998 -1.811 13
6.336 -0.107 -1.799 12
6.7639999 -0.124 -1.79 12
5.0900002 -0.063000001 -1.818 11
5.3889999 -0.075000003 -1.813 11
5.7129998 -0.089000002 -1.806 11
6.092 -0.105 -1.8049999 12
6.4980001 -0.122 -1.798 12
6.941 -0.141 -1.788 12
5.2030001 -0.075000003 -1.818 11
5.5 -0.088 -1.809 11
5.8559999 -0.103 -1.808 12
6.2309999 -0.119 -1.801 12
6.664 -0.13699999 -1.796 12
7.1259999 -0.15700001 -1.785 11
5.3080001 -0.086999997 -1.814 10
5.6300001 -0.101 -1.809 12
6.0009999 -0.116 -1.808 11
6.3920002 -0.134 -1.8 12
6.8379998 -0.153 -1.794 12
7.3369999 -0.17399999 -1.786 12
5.427 -0.098999999 -1.812 11
5.7600002 -0.113 -1.807 13
6.1459999 -0.13 -1.806 12
6.566 -0.148 -1.801 13
7.0250001 -0.168 -1.7920001 12
7.5380001 -0.191 -1.781 12
5.5479999 -0.11 -1.8099999 11
5.9039998 -0.126 -1.807 12
6.2989998 -0.14300001 -1.803 13
6.73 -0.162 -1.796 12
7.2290001 -0.184 -1.7920001 11
7.757 -0.208 -1.777 12
5.6810002 -0.122 -1.809 11
6.052 -0.139 -1.806 12
6.467 -0.15700001 -1.803 13
6.9060001 -0.177 -1.793 12
7.4299998 -0.2 -1.788 12
8.0019999 -0.22499999 -1.776 12
5.823 -0.134 -1.809 11
6.197 -0.15099999 -1.802 12
6.631 -0.17 -1.799 12
7.1110001 -0.192 -1.794 12
7.6469998 -0.21600001 -1.784 12
8.2679996 -0.243 -1.776 11
5.9720001 -0.146 -1.809 11
6.362 -0.164 -1.802 12
6.8070002 -0.184 -1.796 12
7.3080001 -0.206 -1.79 11
7.8649998 -0.23100001 -1.778 13
8.5200005 -0.26100001 -1.7690001 12
6.125 -0.15800001 -1.809 11
6.5229998 -0.176 -1.799 12
7.0009999 -0.197 -1.796 11
7.52 -0.221 -1.786 11
8.1269999 -0.248 -1.779 12
8.7919998 -0.278 -1.762 12
6.277 -0.169 -1.8049999 12
6.6929998 -0.18799999 -1.794 12
7.1999998 -0.211 -1.7920001 12
7.7550001 -0.235 -1.785 13
8.3690004 -0.26300001 -1.771 11
9.0970001 -0.296 -1.758 12
6.4520001 -0.18099999 -1.806 11
6.8769999 -0.2 -1.7920001 12
7.4159999 -0.22400001 -1.791 12
7.9899998 -0.25 -1.78 12
8.6459999 -0.28 -1.766 12
9.415 -0.31400001 -1.752 12
6.6220002 -0.192 -1.803 12
7.0840001 -0.213 -1.7920001 12
7.6389999 -0.23800001 -1.788 12
8.243 -0.26499999 -1.776 12
8.9440002 -0.296 -1.763 12
9.757 -0.333 -1.7460001 13
6.802 -0.20299999 -1.8 12
7.2940001 -0.22499999 -1.791 11
7.8699999 -0.25099999 -1.784 12
8.4960003 -0.27900001 -1.768 12
9.2580004 -0.31299999 -1.757 12
10.12 -0.35100001 -1.738 13
6.9879999 -0.214 -1.795 11
7.5089998 -0.237 -1.7869999 12
8.1099997 -0.26300001 -1.778 12
8.79 -0.294 -1.765 12
9.5970001 -0.329 -1.753 12
10.513 -0.37 -1.7309999 12
7.1919999 -0.22499999 -1.793 12
7.7259998 -0.248 -1.781 12
8.3690004 -0.27599999 -1.774 12
9.0930004 -0.308 -1.76 12
9.9390001 -0.345 -1.743 13
10.936 -0.389 -1.722 13
7.447 -0.236 -1.801 10
7.9829998 -0.25999999 -1.781 11
8.6280003 -0.28799999 -1.766 12
9.4169998 -0.32300001 -1.755 12
10.324 -0.36199999 -1.737 13
11.368 -0.40799999 -1.71 13
7.631 -0.245 -1.788 11
8.2279997 -0.271 -1.775 12
8.9350004 -0.30199999 -1.762 12
9.7629995 -0.33700001 -1.747 13
10.716 -0.37799999 -1.726 12
11.844 -0.42699999 -1.697 12
7.8720002 -0.25600001 -1.785 11
8.4960003 -0.28200001 -1.7690001 12
9.2489996 -0.31400001 -1.756 12
