# .PCD v0.7 - Point Cloud Data file format
VERSION 0.7
FIELDS x y z intensity
SIZE 4 4 4 4
TYPE F F F F
COUNT 1 1 1 1
WIDTH 1881
HEIGHT 1
VIEWPOINT 0 0 0 1 0 0 0
POINTS 1881
DATA ascii
97.956001 -11.859 1.825 17
76.254997 -9.1350002 2.5669999 28
76.542999 -9.0769997 3.7320001 6
76.821999 -9.0179996 4.9060001 17
0 0 0 0
74.084 -8.533 6.9829998 13
76.415001 -8.7209997 1.262 56
76.193001 -8.6040001 2.404 37
76.092003 -8.5019999 3.5469999 13
76.070999 -8.408 4.6929998 6
77.334999 -8.4619999 5.9429998 12
79.305 -8.5959997 7.3010001 12
99.258003 -10.654 1.4220001 10
84.551003 -8.9750004 2.48 40
84.811996 -8.9060001 3.7650001 41
76.344002 -7.9289999 4.5409999 4
65.016998 -6.6810002 4.8509998 28
0 0 0 0
109.073 -10.982 1.3150001 21
84.332001 -8.3850002 2.2780001 29
85.028 -8.3540001 3.575 36
65.230003 -6.335 3.7260001 16
75.911003 -7.2880001 5.4829998 26
66.027 -6.2659998 5.7690001 10
65.702003 -6.164 0.63 86
65.640999 -6.0819998 1.613 47
65.505997 -5.994 2.5929999 43
65.342003 -5.9050002 3.5699999 32
65.209999 -5.8239999 4.5479999 41
65.219002 -5.756 5.5359998 44
93.102997 -8.1199999 0.66100001 8
0 0 0 0
84.154999 -7.1500001 3.1210001 53
84.510002 -7.086 4.4050002 37
65.130997 -5.388 4.375 7
64.570999 -5.276 5.3140001 6
86.563004 -6.9829998 0.389 5
0 0 0 0
83.959999 -6.5830002 2.892 49
66.153 -5.1129999 3.273 15
120.258 -9.1660004 7.7610002 33
38.418999 -2.888 3.059 4
0 0 0 0
107.571 -7.855 1.8 30
84.582001 -6.0840001 2.684 37
88.412003 -6.2600002 4.1300001 21
66.428001 -4.632 4.1030002 14
38.633999 -2.655 2.9690001 42
0 0 0 0
74.039001 -4.9310002 1.03 7
89.996002 -5.8930001 2.5999999 25
49.598 -3.194 2.177 21
38.803001 -2.457 2.286 9
38.879002 -2.4219999 2.8759999 34
68.839996 -4.2179999 -0.273 4
92.810997 -5.5819998 1.017 8
50.383999 -2.9749999 1.306 2
38.736 -2.2449999 1.585 47
38.819 -2.2090001 2.171 33
0 0 0 0
38.692001 -2.1240001 -0.27000001 93
38.679001 -2.0799999 0.30599999 81
38.728001 -2.039 0.88499999 73
38.792999 -2.003 1.469 43
38.706001 -1.9579999 2.046 1
89.778 -4.4489999 6.098 8
38.710999 -1.8789999 -0.39300001 90
74.450996 -3.5350001 0.35600001 62
50.589001 -2.3440001 0.99599999 4
50.235001 -2.276 1.743 51
49.971001 -2.2130001 2.483 64
49.743 -2.154 3.221 47
45.358002 -1.918 -0.60799998 4
50.5 -2.0810001 0.075999998 72
0 0 0 0
50.568001 -1.9809999 1.592 32
49.882 -1.903 2.319 62
49.912998 -1.853 3.0699999 37
44.567001 -1.612 -0.74400002 16
58.837002 -2.0650001 -0.104 7
0 0 0 0
111.779 -3.6960001 3.1489999 9
49.917 -1.597 2.1530001 52
50.423 -1.563 2.9319999 52
43.081001 -1.293 -0.86799997 39
55.125 -1.597 -0.287 8
115.866 -3.243 1.13 23
0 0 0 0
49.775002 -1.294 1.978 17
50.949001 -1.273 2.789 6
42.068001 -1.0089999 -0.99599999 66
48.238998 -1.109 -0.41999999 5
82.837997 -1.8200001 0.51599997 12
0 0 0 0
89.890999 -1.795 3.2539999 18
89.822998 -1.704 4.599 28
37.841 -0.68000001 -1.034 8
40.965 -0.69300002 -0.50800002 150
82.474998 -1.312 0.20999999 6
0 0 0 0
109.995 -1.536 3.579 37
89.294998 -1.1619999 4.2480001 6
36.087002 -0.433 -1.122 2
40.962002 -0.45100001 -0.66000003 150
40.972 -0.412 -0.046 138
0 0 0 0
93.587997 -0.75400001 2.6960001 16
89.221001 -0.63200003 3.9089999 29
35.992001 -0.219 -1.258 4
40.985001 -0.211 -0.81800002 88
41.012001 -0.171 -0.204 150
42.722 -0.13600001 0.42699999 3
61.881001 -0.139 1.548 23
62.514999 -0.079999998 2.5020001 33
31.971001 -0.0089999996 -1.244 5
38.279999 0.026000001 -0.91600001 1
41.07 0.066 -0.366 60
42.396 0.109 0.257 53
61.926998 0.21699999 1.307 6
61.536999 0.27500001 2.2219999 51
29.947001 0.162 -1.286 5
37.858002 0.241 -1.057 15
42.348 0.31 -0.54699999 63
42.143002 0.34799999 0.086999997 60
45.706001 0.419 0.78200001 1
61.500999 0.62300003 1.976 27
28.489 0.317 -1.342 7
0 0 0 0
42.691002 0.55599999 -0.72799999 65
42.111 0.58600003 -0.085000001 63
42.654999 0.63200003 0.55500001 5
58.994999 0.93000001 1.654 4
26.794001 0.44800001 -1.376 9
32.738998 0.57800001 -1.188 3
38.543999 0.71499997 -0.81800002 3
38.542999 0.75 -0.23800001 37
38.458 0.78399998 0.33899999 100
38.450001 0.81999999 0.917 107
25.441999 0.56699997 -1.4170001 19
30.632999 0.70999998 -1.244 5
38.290001 0.92199999 -0.97799999 40
38.532001 0.963 -0.40400001 3
42.827999 1.108 0.19599999 3
47.759998 1.279 0.93699998 40
24.091 0.66900003 -1.448 20
28.709999 0.82099998 -1.2920001 6
0 0 0 0
43.063999 1.311 -0.63999999 54
47.939999 1.502 0.0080000004 47
47.870998 1.5420001 0.73000002 53
22.848 0.75800002 -1.477 19
27.014 0.92000002 -1.3380001 10
34.379002 1.2 -1.183 2
42.511002 1.521 -0.82099998 65
47.949001 1.758 -0.20299999 43
47.938999 1.799 0.51899999 33
21.677 0.83600003 -1.502 17
25.552 1.006 -1.383 13
31.382999 1.262 -1.224 4
38.154999 1.568 -0.91100001 4
46.494999 1.951 -0.40799999 47
47.959 2.0539999 0.30199999 3
20.559 0.89999998 -1.521 15
24.127001 1.076 -1.419 20
29.209 1.327 -1.275 6
0 0 0 0
42.992001 2.026 -0.574 41
49.460999 2.3759999 0.083999999 5
19.584 0.95899999 -1.544 14
22.899 1.14 -1.456 19
27.337999 1.3839999 -1.323 8
34.063 1.752 -1.131 2
42.400002 2.217 -0.76599997 67
48.130001 2.5569999 -0.141 57
18.684 1.011 -1.5650001 12
21.674 1.1900001 -1.485 17
25.756001 1.4349999 -1.372 14
31.650999 1.79 -1.205 3
0 0 0 0
44.971001 2.618 -0.34799999 23
17.819 1.0549999 -1.582 11
20.549 1.232 -1.51 15
24.226 1.471 -1.41 20
29.139999 1.7920001 -1.251 5
0 0 0 0
43.233002 2.7320001 -0.54400003 65
17.038 1.0930001 -1.599 10
19.459 1.2640001 -1.529 13
23.007 1.512 -1.455 19
27.325001 1.818 -1.312 8
33.805 2.2750001 -1.107 2
42.450001 2.892 -0.74599999 65
16.271999 1.125 -1.613 9
18.556999 1.2970001 -1.554 12
21.659 1.53 -1.4809999 17
25.604 1.8279999 -1.359 10
30.965 2.2349999 -1.1720001 3
38.891998 2.8380001 -0.87900001 9
15.59 1.153 -1.627 9
17.636999 1.317 -1.569 11
20.531 1.548 -1.51 15
24.131001 1.8380001 -1.405 18
29.028999 2.234 -1.2460001 5
0 0 0 0
14.942 1.177 -1.641 11
16.813999 1.337 -1.587 10
19.280001 1.546 -1.522 12
22.773001 1.842 -1.446 18
27.059 2.21 -1.304 7
33.787998 2.786 -1.112 6
14.352 1.198 -1.655 11
16.073999 1.353 -1.604 9
18.405001 1.562 -1.551 12
21.437 1.834 -1.476 16
25.325001 2.1860001 -1.355 11
30.774 2.6789999 -1.175 3
13.765 1.2130001 -1.664 11
15.381 1.365 -1.619 9
17.518999 1.567 -1.572 11
20.24 1.824 -1.5039999 15
23.877001 2.1689999 -1.405 16
28.482 2.609 -1.24 6
13.224 1.225 -1.673 11
14.752 1.376 -1.636 11
16.693001 1.568 -1.591 10
19.131001 1.809 -1.526 13
22.493999 2.1429999 -1.446 18
26.565001 2.552 -1.3 7
12.723 1.2359999 -1.683 12
14.153 1.383 -1.65 11
15.92 1.566 -1.6059999 9
18.200001 1.802 -1.553 12
21.106001 2.1040001 -1.474 16
24.892 2.4990001 -1.355 10
12.278 1.2460001 -1.696 11
13.569 1.385 -1.659 11
15.212 1.562 -1.622 10
17.275 1.784 -1.571 11
19.910999 2.0699999 -1.502 14
23.476 2.4579999 -1.409 18
11.854 1.2539999 -1.707 11
13.012 1.3839999 -1.668 11
14.573 1.558 -1.638 10
16.441999 1.768 -1.591 10
18.841999 2.039 -1.529 13
22.066 2.4030001 -1.449 17
11.412 1.256 -1.712 11
12.523 1.385 -1.6799999 11
13.973 1.553 -1.653 10
15.66 1.75 -1.607 9
17.855 2.007 -1.553 12
20.693001 2.3399999 -1.478 15
11.015 1.258 -1.72 11
12.074 1.386 -1.693 10
13.384 1.543 -1.664 11
14.953 1.732 -1.622 10
16.969 1.976 -1.575 10
19.495001 2.283 -1.505 14
10.624 1.257 -1.724 12
11.629 1.381 -1.701 10
12.836 1.531 -1.6720001 12
14.336 1.717 -1.64 10
16.146 1.944 -1.592 9
18.481001 2.2360001 -1.533 12
10.254 1.253 -1.728 11
11.212 1.375 -1.7079999 12
12.35 1.521 -1.684 11
13.738 1.699 -1.654 10
15.348 1.9069999 -1.605 7
17.448 2.1789999 -1.551 11
9.908 1.25 -1.732 12
10.813 1.369 -1.715 13
11.902 1.512 -1.696 11
13.145 1.676 -1.663 11
14.68 1.88 -1.624 10
16.610001 2.1370001 -1.576 10
9.5930004 1.247 -1.739 11
10.429 1.36 -1.721 12
11.447 1.498 -1.704 12
12.603 1.655 -1.673 11
14.063 1.854 -1.643 10
15.771 2.0880001 -1.5930001 9
9.2849998 1.242 -1.744 11
10.046 1.347 -1.722 12
11.019 1.482 -1.71 12
12.108 1.6339999 -1.683 11
13.478 1.826 -1.658 10
15.047 2.0469999 -1.612 11
8.9860001 1.235 -1.747 11
9.7119999 1.3380001 -1.728 12
10.62 1.467 -1.716 12
11.653 1.615 -1.694 11
12.85 1.7869999 -1.6619999 11
14.391 2.0090001 -1.632 11
8.71 1.228 -1.752 11
9.4040003 1.329 -1.735 11
10.222 1.448 -1.7180001 12
11.233 1.596 -1.705 11
12.361 1.762 -1.676 11
13.755 1.9680001 -1.646 10
8.4449997 1.221 -1.756 11
9.1020002 1.318 -1.74 11
9.8669996 1.432 -1.724 12
10.807 1.573 -1.71 12
11.878 1.734 -1.687 11
13.131 1.923 -1.654 11
8.2040005 1.214 -1.761 10
8.8199997 1.307 -1.7460001 12
9.5539999 1.419 -1.732 11
10.412 1.55 -1.716 12
11.434 1.707 -1.697 11
12.608 1.888 -1.668 12
7.9650002 1.205 -1.7640001 10
8.5530005 1.296 -1.75 11
9.2460003 1.403 -1.737 12
10.028 1.525 -1.7180001 12
11.018 1.6799999 -1.707 11
12.102 1.85 -1.679 12
7.743 1.196 -1.7690001 10
8.2989998 1.284 -1.755 11
8.9469995 1.386 -1.7410001 11
9.6829996 1.503 -1.723 11
10.593 1.648 -1.711 12
11.643 1.816 -1.691 11
7.5450001 1.1900001 -1.777 10
8.0489998 1.27 -1.758 10
8.6719999 1.37 -1.747 12
9.3719997 1.484 -1.7309999 11
10.204 1.618 -1.715 11
11.202 1.781 -1.7 12
7.3390002 1.1799999 -1.781 10
7.829 1.2589999 -1.765 10
8.4090004 1.354 -1.752 11
9.0690002 1.4630001 -1.737 11
9.8389997 1.59 -1.72 12
10.769 1.744 -1.705 12
7.118 1.165 -1.778 11
7.5999999 1.245 -1.766 10
8.1540003 1.337 -1.755 11
8.7919998 1.443 -1.743 11
9.5190001 1.5650001 -1.729 11
10.372 1.709 -1.712 12
6.9169998 1.152 -1.778 10
7.402 1.234 -1.773 10
7.928 1.322 -1.762 11
8.5120001 1.421 -1.747 11
9.2049999 1.539 -1.734 11
9.9879999 1.673 -1.715 12
6.7529998 1.1440001 -1.785 11
7.211 1.222 -1.779 9
7.7059999 1.306 -1.767 10
8.2629995 1.402 -1.753 10
8.9090004 1.513 -1.739 11
9.6400003 1.641 -1.721 12
6.5739999 1.132 -1.7869999 10
6.9850001 1.202 -1.774 10
7.4879999 1.29 -1.771 10
8.0270004 1.383 -1.76 11
8.6219997 1.487 -1.744 11
9.3290005 1.612 -1.729 11
6.4050002 1.12 -1.789 10
6.7919998 1.187 -1.775 10
7.2979999 1.276 -1.779 10
7.7940001 1.363 -1.7640001 10
8.3590002 1.4630001 -1.748 11
9.0220003 1.581 -1.734 11
6.2480001 1.108 -1.7920001 10
6.631 1.176 -1.7819999 11
7.0840001 1.256 -1.778 10
7.573 1.3430001 -1.768 10
8.1169996 1.4400001 -1.755 10
8.7379999 1.552 -1.74 11
6.1009998 1.097 -1.796 10
6.454 1.16 -1.783 11
6.882 1.2359999 -1.778 9
7.3860002 1.327 -1.777 10
7.8920002 1.418 -1.761 11
8.4659996 1.523 -1.745 10
5.9590001 1.086 -1.8 10
6.2930002 1.146 -1.785 11
6.7080002 1.221 -1.7819999 10
7.1609998 1.303 -1.775 11
7.6630001 1.395 -1.765 10
8.2130003 1.4960001 -1.75 10
5.823 1.075 -1.804 10
6.1440001 1.132 -1.789 10
6.5250001 1.202 -1.781 11
6.9679999 1.283 -1.777 10
7.4689999 1.375 -1.773 10
7.9790001 1.47 -1.756 11
5.6890001 1.062 -1.806 10
6.0089998 1.1210001 -1.796 10
6.3740001 1.187 -1.7869999 11
6.77 1.26 -1.776 10
7.2360001 1.347 -1.77 11
7.7589998 1.4450001 -1.762 10
5.5539999 1.049 -1.806 10
5.8660002 1.1059999 -1.798 11
6.2249999 1.1720001 -1.7920001 11
6.5970001 1.2410001 -1.779 11
7.04 1.324 -1.773 10
7.5430002 1.419 -1.767 10
5.4190001 1.034 -1.8049999 11
5.7379999 1.0930001 -1.802 11
6.079 1.1569999 -1.796 10
6.4419999 1.224 -1.785 11
6.8569999 1.303 -1.776 10
7.3099999 1.3890001 -1.765 11
5.303 1.022 -1.808 10
5.6020002 1.0779999 -1.803 10
5.9330001 1.14 -1.798 10
6.2859998 1.206 -1.788 11
6.671 1.279 -1.777 10
7.119 1.365 -1.77 11
5.1919999 1.01 -1.812 10
5.474 1.063 -1.8049999 10
5.7930002 1.123 -1.8 11
6.1350002 1.188 -1.7920001 11
6.5019999 1.258 -1.78 11
6.9190001 1.3380001 -1.77 10
5.0819998 0.99800003 -1.8150001 10
5.362 1.051 -1.8099999 11
5.6669998 1.108 -1.804 10
5.9899998 1.169 -1.795 10
6.3540001 1.239 -1.7869999 12
6.7410002 1.314 -1.774 10
4.9720001 0.98500001 -1.816 10
5.2410002 1.035 -1.811 11
5.5349998 1.091 -1.8049999 11
5.8509998 1.151 -1.7970001 10
6.1950002 1.217 -1.788 11
6.5679998 1.29 -1.776 11
4.8740001 0.97299999 -1.8200001 11
5.1230001 1.02 -1.811 11
5.4120002 1.075 -1.807 11
5.7179999 1.133 -1.8 11
6.053 1.198 -1.7920001 11
6.4050002 1.266 -1.779 11
4.7600002 0.95700002 -1.816 10
5.027 1.008 -1.817 12
5.302 1.0599999 -1.811 12
5.5780001 1.113 -1.798 11
5.927 1.181 -1.799 11
6.2550001 1.244 -1.783 11
4.6810002 0.94800001 -1.824 9
4.9200001 0.99299997 -1.817 12
5.1900001 1.045 -1.814 11
5.4650002 1.097 -1.803 11
5.7709999 1.1569999 -1.794 11
6.1040001 1.221 -1.784 11
4.5890002 0.935 -1.827 10
4.8179998 0.97799999 -1.819 10
5.0809999 1.029 -1.816 11
5.348 1.08 -1.806 11
5.6370001 1.136 -1.796 11
5.9699998 1.201 -1.789 10
4.4959998 0.921 -1.827 9
4.7090001 0.96200001 -1.8150001 10
4.9749999 1.013 -1.817 11
5.2389998 1.063 -1.8099999 11
5.5250001 1.119 -1.802 10
5.8249998 1.178 -1.789 10
4.4089999 0.90899998 -1.829 10
4.6290002 0.94999999 -1.822 11
4.8779998 0.99800003 -1.8200001 11
5.1399999 1.048 -1.8150001 11
5.4099998 1.101 -1.8049999 11
5.7030001 1.158 -1.794 11
4.3239999 0.89499998 -1.829 9
4.5440001 0.93699998 -1.826 10
4.7690001 0.98000002 -1.817 11
5.0240002 1.029 -1.813 11
5.2919998 1.081 -1.8049999 11
5.559 1.133 -1.789 11
4.2480001 0.884 -1.8329999 10
4.4590001 0.92299998 -1.8279999 10
4.6830001 0.96600002 -1.821 11
4.9330001 1.0140001 -1.818 11
5.197 1.0650001 -1.812 11
5.4390001 1.112 -1.791 11
4.1739998 0.87199998 -1.836 9
4.3790002 0.91000003 -1.831 11
4.599 0.95200002 -1.825 11
4.8369999 0.99800003 -1.8200001 11
5.086 1.046 -1.811 11
5.3460002 1.096 -1.799 11
4.085 0.85600001 -1.831 9
4.3000002 0.89700001 -1.8329999 11
4.513 0.93699998 -1.827 11
4.7249999 0.977 -1.814 11
4.9889998 1.029 -1.814 11
5.2470002 1.079 -1.8049999 11
4.0120001 0.84299999 -1.832 9
4.2189999 0.88200003 -1.8329999 9
4.427 0.921 -1.8279999 11
4.6409998 0.96200001 -1.818 10
4.888 1.01 -1.8150001 12
5.1479998 1.0599999 -1.809 11
3.9460001 0.83200002 -1.836 9
4.1370001 0.86699998 -1.831 10
4.3439999 0.90600002 -1.8279999 10
4.5560002 0.94599998 -1.821 10
4.7909999 0.991 -1.816 10
5.0450001 1.041 -1.811 11
3.8770001 0.81900001 -1.837 9
4.0609999 0.85299999 -1.831 10
4.277 0.89399999 -1.835 11
4.4759998 0.93099999 -1.824 11
4.6929998 0.972 -1.814 11
4.9450002 1.021 -1.811 11
3.812 0.80699998 -1.839 9
3.9860001 0.838 -1.831 9
4.191 0.87699997 -1.831 9
4.4000001 0.91600001 -1.827 11
4.612 0.95599997 -1.817 10
4.8540001 1.003 -1.814 11
3.7539999 0.79500002 -1.842 9
3.9200001 0.82499999 -1.8329999 9
4.1220002 0.86299998 -1.834 10
4.3169999 0.89899999 -1.826 10
4.5349998 0.94 -1.821 10
4.763 0.98400003 -1.8150001 10
3.6949999 0.78299999 -1.845 8
3.859 0.81300002 -1.836 9
4.0469999 0.84799999 -1.8329999 9
4.2509999 0.88499999 -1.831 10
4.4520001 0.92299998 -1.822 10
4.6799998 0.96600002 -1.817 11
3.628 0.76899999 -1.8430001 8
3.7980001 0.80000001 -1.8380001 9
3.9760001 0.83200002 -1.832 9
4.1680002 0.86799997 -1.827 9
4.3759999 0.90600002 -1.823 10
4.6020002 0.949 -1.821 10
3.573 0.75800002 -1.845 8
3.7390001 0.787 -1.84 9
3.9119999 0.81800002 -1.834 9
4.1009998 0.85299999 -1.83 10
4.3080001 0.89099997 -1.827 10
4.52 0.93099999 -1.821 10
3.5150001 0.745 -1.845 8
3.678 0.77399999 -1.84 9
3.8510001 0.80500001 -1.836 9
4.0370002 0.83899999 -1.832 8
4.2350001 0.875 -1.8279999 10
4.4450002 0.91399997 -1.823 10
3.4590001 0.73199999 -1.845 8
3.6210001 0.76099998 -1.841 9
3.7939999 0.79100001 -1.8380001 9
3.964 0.82200003 -1.829 9
4.1599998 0.85699999 -1.826 10
4.3740001 0.89700001 -1.825 9
3.4070001 0.72000003 -1.846 8
3.569 0.74800003 -1.844 9
3.7379999 0.778 -1.84 9
3.905 0.80800003 -1.831 9
4.1009998 0.84299999 -1.83 9
4.2919998 0.87800002 -1.821 10
3.3529999 0.70700002 -1.845 8
3.52 0.736 -1.847 8
3.687 0.76499999 -1.844 9
3.845 0.79299998 -1.832 8
4.04 0.82800001 -1.832 9
4.2389998 0.86400002 -1.829 10
3.3110001 0.69700003 -1.85 7
3.461 0.722 -1.844 9
3.631 0.75199997 -1.844 9
3.7839999 0.778 -1.831 9
3.971 0.81099999 -1.829 9
4.171 0.847 -1.829 9
3.263 0.68400002 -1.849 8
3.4130001 0.70999998 -1.845 8
3.572 0.73699999 -1.841 9
3.7409999 0.76599997 -1.8380001 9
3.911 0.79500002 -1.83 9
4.1059999 0.82999998 -1.829 9
3.2119999 0.67199999 -1.848 7
3.362 0.69700003 -1.844 8
3.5339999 0.72600001 -1.849 9
3.688 0.75199997 -1.839 8
3.855 0.77999997 -1.832 9
4.039 0.81199998 -1.827 9
3.168 0.66000003 -1.848 7
3.319 0.685 -1.848 8
3.4749999 0.71100003 -1.845 9
3.638 0.73799998 -1.841 8
3.806 0.76599997 -1.835 8
3.9809999 0.796 -1.8279999 9
3.128 0.64899999 -1.851 8
3.2679999 0.671 -1.845 8
3.4260001 0.69700003 -1.845 9
3.5929999 0.72500002 -1.845 9
3.7520001 0.75099999 -1.836 9
3.925 0.77999997 -1.829 9
3.0869999 0.63700002 -1.851 7
3.2279999 0.65899998 -1.847 9
3.3759999 0.68300003 -1.8430001 8
3.5339999 0.70899999 -1.84 8
3.7030001 0.73699999 -1.8380001 9
3.8699999 0.76499999 -1.829 9
3.049 0.62599999 -1.854 7
3.1900001 0.648 -1.85 8
3.3380001 0.671 -1.847 8
3.49 0.69599998 -1.842 8
3.6500001 0.722 -1.836 9
3.819 0.74900001 -1.831 8
3.01 0.61400002 -1.854 7
3.148 0.63599998 -1.85 8
3.299 0.65899998 -1.849 8
3.4590001 0.685 -1.849 8
3.609 0.708 -1.84 9
3.7739999 0.73500001 -1.834 8
0 0 0 0
3.115 0.625 -1.854 8
3.2509999 0.64499998 -1.846 8
3.4030001 0.66900003 -1.8430001 8
3.5569999 0.69300002 -1.8380001 8
3.7379999 0.722 -1.84 8
1.619 0.32600001 -1.022 2
3.0739999 0.61199999 -1.853 8
3.2160001 0.63300002 -1.849 8
3.3659999 0.65600002 -1.846 8
3.5150001 0.67900002 -1.839 9
3.6889999 0.70700002 -1.84 8
1.5319999 0.30599999 -0.98000002 2
3.03 0.59799999 -1.848 7
3.174 0.62 -1.847 8
3.3239999 0.64300001 -1.846 8
3.4749999 0.66500002 -1.841 8
3.6389999 0.69099998 -1.8380001 9
1.485 0.294 -0.96100003 3
3.003 0.588 -1.853 7
3.1389999 0.60799998 -1.849 8
3.2869999 0.63 -1.847 8
3.438 0.65200001 -1.8430001 9
3.599 0.676 -1.84 8
1.451 0.285 -0.94999999 4
0 0 0 0
3.1040001 0.59500003 -1.85 7
3.243 0.61500001 -1.844 7
3.4000001 0.63800001 -1.844 9
3.556 0.66100001 -1.84 8
0 0 0 0
1.596 0.30700001 -1.008 1
3.0710001 0.583 -1.85 8
3.2130001 0.60299999 -1.847 7
3.3659999 0.625 -1.847 9
3.517 0.64700001 -1.84 8
0 0 0 0
1.544 0.294 -0.986 2
3.039 0.57099998 -1.851 8
3.178 0.58999997 -1.847 8
3.3310001 0.61199999 -1.847 8
3.483 0.63300002 -1.842 8
0 0 0 0
1.499 0.28200001 -0.96700001 3
3.003 0.55800003 -1.848 6
3.1530001 0.579 -1.852 7
3.293 0.59799999 -1.845 8
3.448 0.61900002 -1.8430001 8
0 0 0 0
1.462 0.27200001 -0.95300001 4
2.9749999 0.546 -1.85 7
3.115 0.565 -1.848 7
3.2579999 0.58399999 -1.844 8
3.415 0.60600001 -1.844 8
0 0 0 0
0 0 0 0
0 0 0 0
3.089 0.55299997 -1.851 7
3.233 0.57200003 -1.848 7
3.3800001 0.59100002 -1.844 8
0 0 0 0
0 0 0 0
1.559 0.27900001 -0.98799998 1
3.0610001 0.54100001 -1.852 7
3.2 0.55800003 -1.847 8
3.349 0.57800001 -1.845 7
0 0 0 0
0 0 0 0
1.531 0.27000001 -0.97899997 2
3.0350001 0.52899998 -1.853 7
3.168 0.54500002 -1.845 8
3.316 0.56300002 -1.8430001 7
0 0 0 0
0 0 0 0
1.5 0.26100001 -0.96799999 2
3.0009999 0.51499999 -1.848 6
3.138 0.53100002 -1.844 7
3.2939999 0.551 -1.847 7
0 0 0 0
0 0 0 0
1.467 0.25099999 -0.95499998 3
2.984 0.50400001 -1.853 7
3.1199999 0.51999998 -1.849 7
3.266 0.53799999 -1.847 7
0 0 0 0
0 0 0 0
1.4400001 0.243 -0.94499999 3
0 0 0 0
3.099 0.50800002 -1.851 7
3.2420001 0.52499998 -1.848 7
0 0 0 0
0 0 0 0
0 0 0 0
1.577 0.25799999 -0.995 1
3.072 0.495 -1.85 7
3.207 0.509 -1.842 7
0 0 0 0
0 0 0 0
0 0 0 0
1.535 0.24600001 -0.97500002 2
3.046 0.48199999 -1.847 7
3.1900001 0.498 -1.846 7
0 0 0 0
0 0 0 0
0 0 0 0
1.518 0.23899999 -0.972 2
3.027 0.47 -1.849 7
3.1659999 0.484 -1.845 7
1.132 0.184 -0.84100002 1
0 0 0 0
0 0 0 0
1.5039999 0.23199999 -0.96899998 2
3 0.456 -1.844 7
3.151 0.472 -1.848 7
0 0 0 0
0 0 0 0
0 0 0 0
1.478 0.223 -0.958 2
2.9820001 0.44400001 -1.844 9
3.1300001 0.45899999 -1.848 7
0 0 0 0
0 0 0 0
0 0 0 0
1.461 0.21600001 -0.95200002 2
2.0420001 0.29699999 -1.27 4
3.1129999 0.44600001 -1.848 7
0 0 0 0
0 0 0 0
0 0 0 0
1.447 0.20900001 -0.949 2
1.825 0.25999999 -1.142 2
3.099 0.43399999 -1.85 7
0 0 0 0
0 0 0 0
0 0 0 0
0 0 0 0
1.5930001 0.221 -1.002 1
3.0780001 0.421 -1.847 6
0 0 0 0
0 0 0 0
0 0 0 0
1.4220001 0.19599999 -0.94099998 2
1.562 0.211 -0.98699999 1
3.0669999 0.40799999 -1.849 6
0 0 0 0
0 0 0 0
0 0 0 0
0 0 0 0
1.54 0.20299999 -0.977 2
3.0569999 0.396 -1.851 6
0 0 0 0
0 0 0 0
0 0 0 0
0 0 0 0
1.523 0.19499999 -0.97000003 2
3.0469999 0.384 -1.852 7
0 0 0 0
0 0 0 0
0 0 0 0
0 0 0 0
1.512 0.189 -0.96700001 2
3.0350001 0.37200001 -1.852 6
0 0 0 0
0 0 0 0
0 0 0 0
0 0 0 0
1.508 0.182 -0.96799999 2
3.027 0.359 -1.853 6
0 0 0 0
0 0 0 0
0 0 0 0
0 0 0 0
1.497 0.175 -0.963 2
3.0209999 0.347 -1.854 6
0 0 0 0
0 0 0 0
0 0 0 0
0 0 0 0
1.495 0.17 -0.96399999 2
3.013 0.33500001 -1.854 5
0 0 0 0
0 0 0 0
0 0 0 0
0 0 0 0
1.484 0.163 -0.95899999 2
0 0 0 0
0 0 0 0
0 0 0 0
0 0 0 0
0 0 0 0
1.479 0.156 -0.95700002 2
3.0020001 0.31099999 -1.854 7
0 0 0 0
0 0 0 0
0 0 0 0
0 0 0 0
1.472 0.15000001 -0.954 2
2.9809999 0.29699999 -1.844 8
0 0 0 0
0 0 0 0
0 0 0 0
0 0 0 0
1.471 0.14399999 -0.954 2
0 0 0 0
0 0 0 0
0 0 0 0
0 0 0 0
0 0 0 0
1.469 0.138 -0.95300001 2
0 0 0 0
0 0 0 0
0 0 0 0
0 0 0 0
0 0 0 0
1.469 0.132 -0.954 2
0 0 0 0
0 0 0 0
0 0 0 0
0 0 0 0
0 0 0 0
1.469 0.126 -0.954 2
2.9779999 0.249 -1.844 8
0 0 0 0
0 0 0 0
0 0 0 0
0 0 0 0
1.472 0.12 -0.95499998 2
2.993 0.23800001 -1.853 9
0 0 0 0
0 0 0 0
0 0 0 0
0 0 0 0
1.477 0.115 -0.958 2
2.9960001 0.226 -1.853 8
0 0 0 0
0 0 0 0
0 0 0 0
0 0 0 0
1.48 0.109 -0.958 2
1.601 0.114 -0.98900002 0
0 0 0 0
0 0 0 0
0 0 0 0
0 0 0 0
1.487 0.103 -0.96100003 2
3.0020001 0.20100001 -1.851 6
0 0 0 0
0 0 0 0
0 0 0 0
0 0 0 0
1.495 0.097000003 -0.96399999 2
3.013 0.19 -1.854 6
0 0 0 0
0 0 0 0
0 0 0 0
0 0 0 0
1.5039999 0.092 -0.96799999 2
3.0250001 0.178 -1.857 6
0 0 0 0
0 0 0 0
0 0 0 0
1.382 0.082000002 -0.93000001 2
1.507 0.085000001 -0.96700001 2
3.0380001 0.16599999 -1.859 6
0 0 0 0
0 0 0 0
0 0 0 0
0 0 0 0
1.521 0.079999998 -0.97299999 2
3.046 0.154 -1.858 7
0 0 0 0
0 0 0 0
0 0 0 0
1.402 0.071000002 -0.93699998 2
1.529 0.074000001 -0.97399998 2
3.0610001 0.142 -1.8609999 6
0 0 0 0
0 0 0 0
0 0 0 0
1.414 0.066 -0.94199997 2
1.5420001 0.068000004 -0.97899997 2
3.072 0.12899999 -1.86 6
0 0 0 0
0 0 0 0
0 0 0 0
1.419 0.059999999 -0.94099998 2
1.561 0.063000001 -0.98699999 2
3.0840001 0.117 -1.859 7
0 0 0 0
0 0 0 0
0 0 0 0
1.431 0.055 -0.94400001 2
1.592 0.057 -1.001 1
3.096 0.105 -1.858 7
0 0 0 0
0 0 0 0
0 0 0 0
1.448 0.048999999 -0.95099998 2
0 0 0 0
3.1140001 0.093000002 -1.859 7
0 0 0 0
0 0 0 0
0 0 0 0
1.462 0.044 -0.95499998 2
0 0 0 0
3.1289999 0.081 -1.858 6
0 0 0 0
0 0 0 0
0 0 0 0
1.479 0.037999999 -0.96100003 2
1.584 0.037 -0.98100001 0
3.151 0.068000004 -1.86 7
0 0 0 0
0 0 0 0
0 0 0 0
1.499 0.032000002 -0.96799999 2
3.0209999 0.059 -1.859 7
3.168 0.056000002 -1.859 7
0 0 0 0
0 0 0 0
1.385 0.027000001 -0.93300003 4
1.518 0.027000001 -0.97399998 2
3.046 0.048 -1.863 6
3.1900001 0.044 -1.86 7
0 0 0 0
0 0 0 0
1.404 0.022 -0.93900001 4
1.543 0.021 -0.98400003 2
3.0650001 0.035999998 -1.862 7
3.2130001 0.030999999 -1.8609999 7
0 0 0 0
0 0 0 0
1.424 0.016000001 -0.94599998 4
1.569 0.015 -0.99299997 1
3.0810001 0.023 -1.858 6
3.233 0.018999999 -1.859 7
0 0 0 0
0 0 0 0
1.438 0.011 -0.94800001 4
0 0 0 0
3.1070001 0.011 -1.86 6
3.26 0.0060000001 -1.86 7
0 0 0 0
0 0 0 0
1.462 0.0049999999 -0.95599997 3
2.9389999 0.0049999999 -1.832 4
3.1389999 0 -1.865 7
3.2880001 -0.0060000001 -1.8609999 7
0 0 0 0
0 0 0 0
1.483 0 -0.96200001 2
3.0150001 -0.0060000001 -1.864 6
3.1600001 -0.012 -1.8609999 7
3.3099999 -0.017999999 -1.858 7
0 0 0 0
0 0 0 0
1.513 -0.0049999999 -0.97399998 2
3.052 -0.017000001 -1.8710001 6
3.188 -0.024 -1.862 7
3.348 -0.030999999 -1.864 8
0 0 0 0
1.4 -0.0080000004 -0.93800002 6
1.546 -0.011 -0.986 2
3.069 -0.028999999 -1.865 7
3.2149999 -0.035999998 -1.862 8
3.3710001 -0.044 -1.86 7
0 0 0 0
1.427 -0.013 -0.94700003 5
1.586 -0.017999999 -1.003 1
3.0910001 -0.041000001 -1.8609999 7
3.2479999 -0.048999999 -1.864 7
3.4119999 -0.057 -1.865 8
0 0 0 0
1.447 -0.018999999 -0.95099998 5
0 0 0 0
3.132 -0.052999999 -1.869 6
3.2820001 -0.061000001 -1.865 8
3.4400001 -0.07 -1.862 8
0 0 0 0
1.479 -0.025 -0.963 4
3.0109999 -0.056000002 -1.868 6
3.1589999 -0.064999998 -1.867 7
3.312 -0.074000001 -1.864 8
3.4760001 -0.082999997 -1.863 8
0 0 0 0
1.5089999 -0.030999999 -0.97299999 3
3.0420001 -0.068000004 -1.868 6
3.1889999 -0.077 -1.865 7
3.345 -0.086000003 -1.864 8
3.513 -0.096000001 -1.864 8
0 0 0 0
1.553 -0.037 -0.991 2
3.0680001 -0.079000004 -1.865 7
3.221 -0.089000002 -1.865 7
3.3789999 -0.098999999 -1.863 7
3.5539999 -0.11 -1.865 8
1.421 -0.035999998 -0.94199997 5
1.618 -0.044 -1.022 1
3.109 -0.090999998 -1.87 6
3.2590001 -0.101 -1.867 8
3.4189999 -0.112 -1.865 8
3.579 -0.122 -1.858 8
1.455 -0.041999999 -0.954 4
0 0 0 0
3.1389999 -0.103 -1.868 7
3.2950001 -0.114 -1.8660001 8
3.4590001 -0.125 -1.8660001 8
3.6329999 -0.13699999 -1.865 8
1.484 -0.048 -0.963 3
3.029 -0.104 -1.8710001 6
3.177 -0.115 -1.869 7
3.335 -0.126 -1.868 8
3.5 -0.138 -1.8660001 8
3.6689999 -0.15000001 -1.8609999 8
1.53 -0.055 -0.98100001 2
3.062 -0.116 -1.87 7
3.214 -0.127 -1.869 7
3.3740001 -0.138 -1.868 8
3.5450001 -0.15099999 -1.868 8
3.7160001 -0.163 -1.863 8
1.585 -0.061999999 -1.005 2
3.1040001 -0.127 -1.874 7
3.25 -0.139 -1.868 7
3.411 -0.15099999 -1.8660001 8
3.5829999 -0.164 -1.865 9
3.76 -0.177 -1.862 8
0 0 0 0
3.138 -0.139 -1.8710001 7
3.289 -0.15099999 -1.867 8
3.4530001 -0.163 -1.8660001 8
3.6289999 -0.177 -1.8660001 9
3.8050001 -0.191 -1.86 8
3.0209999 -0.138 -1.869 6
3.1800001 -0.15099999 -1.874 7
3.3329999 -0.163 -1.869 9
3.506 -0.176 -1.8710001 8
3.675 -0.19 -1.865 8
3.8469999 -0.204 -1.8559999 8
3.063 -0.15000001 -1.872 6
3.214 -0.162 -1.87 8
3.3770001 -0.175 -1.87 8
3.5420001 -0.189 -1.8660001 8
3.72 -0.20299999 -1.863 8
3.905 -0.219 -1.859 9
3.105 -0.161 -1.874 7
3.256 -0.17299999 -1.87 8
3.4200001 -0.18700001 -1.869 8
3.595 -0.20200001 -1.869 9
3.77 -0.21699999 -1.864 9
3.951 -0.23199999 -1.8559999 9
3.1359999 -0.17200001 -1.868 7
3.2969999 -0.185 -1.869 8
3.4679999 -0.199 -1.87 9
3.6429999 -0.215 -1.869 8
3.819 -0.23 -1.862 9
4.0120001 -0.24699999 -1.858 9
3.1919999 -0.184 -1.875 7
3.3469999 -0.197 -1.872 8
3.5150001 -0.212 -1.87 9
3.6900001 -0.227 -1.8660001 8
3.8740001 -0.244 -1.862 9
4.0669999 -0.26100001 -1.8559999 9
3.2260001 -0.19499999 -1.87 7
3.3940001 -0.20900001 -1.872 7
3.5680001 -0.22400001 -1.872 8
3.743 -0.23999999 -1.867 8
3.9219999 -0.257 -1.858 9
4.138 -0.27599999 -1.8609999 9
3.2709999 -0.206 -1.87 7
3.441 -0.221 -1.8710001 9
3.6159999 -0.237 -1.87 9
3.7980001 -0.25400001 -1.8660001 8
3.984 -0.271 -1.859 9
4.2030001 -0.29100001 -1.8609999 10
3.3210001 -0.21799999 -1.872 7
3.497 -0.234 -1.874 9
3.6700001 -0.25 -1.87 9
3.849 -0.26699999 -1.863 9
4.0469999 -0.285 -1.86 9
4.2690001 -0.30599999 -1.8609999 10
3.368 -0.229 -1.8710001 8
3.546 -0.24600001 -1.873 9
3.724 -0.26199999 -1.87 9
3.9059999 -0.28 -1.862 8
4.1160002 -0.30000001 -1.862 10
4.336 -0.32100001 -1.86 10
3.4230001 -0.241 -1.873 7
3.596 -0.25799999 -1.8710001 9
3.7869999 -0.27599999 -1.872 9
3.967 -0.29300001 -1.862 9
4.1799998 -0.31400001 -1.8609999 9
4.4089999 -0.336 -1.8609999 10
3.4749999 -0.25299999 -1.873 8
3.648 -0.26899999 -1.869 9
3.8380001 -0.28799999 -1.868 9
4.0380001 -0.30700001 -1.8660001 9
4.2519999 -0.32800001 -1.863 10
4.4749999 -0.35100001 -1.857 9
3.53 -0.26499999 -1.874 8
3.7130001 -0.28200001 -1.873 9
3.891 -0.30000001 -1.864 10
4.1069999 -0.32100001 -1.867 10
4.3189998 -0.34299999 -1.8609999 11
4.5560002 -0.36700001 -1.859 9
3.5840001 -0.27599999 -1.873 8
3.77 -0.29499999 -1.872 9
3.9530001 -0.31299999 -1.863 9
4.1760001 -0.33500001 -1.867 9
4.4029999 -0.35800001 -1.865 10
4.6329999 -0.382 -1.857 10
3.6440001 -0.28799999 -1.874 9
3.825 -0.30599999 -1.869 10
4.0180001 -0.32600001 -1.863 9
4.2420001 -0.34900001 -1.865 10
4.4660001 -0.37200001 -1.859 10
4.7069998 -0.39700001 -1.853 10
3.6989999 -0.30000001 -1.872 8
3.8829999 -0.31900001 -1.8660001 9
4.0910001 -0.34 -1.865 10
4.3119998 -0.36199999 -1.863 9
4.552 -0.38699999 -1.8609999 10
4.7979999 -0.41299999 -1.854 10
3.7690001 -0.31200001 -1.876 9
3.948 -0.331 -1.8660001 10
4.1609998 -0.35299999 -1.865 11
4.3850002 -0.37599999 -1.8609999 10
4.6259999 -0.40099999 -1.858 10
4.881 -0.42899999 -1.852 10
3.8210001 -0.32300001 -1.87 9
4.0149999 -0.34299999 -1.865 9
4.2389998 -0.36700001 -1.8660001 10
4.4720001 -0.391 -1.864 10
4.7059999 -0.41600001 -1.855 11
4.9809999 -0.44499999 -1.853 11
3.888 -0.33500001 -1.8710001 9
4.086 -0.35600001 -1.865 10
4.3169999 -0.38 -1.867 11
4.5469999 -0.405 -1.8609999 11
4.7969999 -0.43099999 -1.855 10
5.085 -0.46200001 -1.855 11
3.951 -0.347 -1.868 9
4.1690001 -0.37 -1.87 10
4.3920002 -0.39300001 -1.865 11
4.6279998 -0.419 -1.859 10
4.8860002 -0.44600001 -1.853 9
5.1830001 -0.47799999 -1.853 11
4.0180001 -0.359 -1.867 9
4.237 -0.382 -1.8660001 10
4.48 -0.40799999 -1.867 10
4.7199998 -0.433 -1.86 10
4.994 -0.463 -1.857 11
5.2800002 -0.49399999 -1.849 11
4.0929999 -0.37099999 -1.868 9
4.3239999 -0.39500001 -1.869 10
4.5609999 -0.421 -1.8660001 10
4.809 -0.44800001 -1.858 11
5.086 -0.47799999 -1.853 12
5.3730001 -0.50999999 -1.8430001 11
4.1719999 -0.38299999 -1.869 10
4.3990002 -0.40799999 -1.8660001 10
4.638 -0.43399999 -1.8609999 11
4.9070001 -0.463 -1.859 8
5.2010002 -0.495 -1.8559999 12
5.4990001 -0.52700001 -1.846 12
4.2550001 -0.396 -1.8710001 10
4.4819999 -0.41999999 -1.8660001 10
4.7259998 -0.447 -1.859 10
5.0139999 -0.47799999 -1.86 12
5.3010001 -0.50999999 -1.852 12
5.6129999 -0.54400003 -1.8430001 12
4.3260002 -0.40700001 -1.8660001 10
4.572 -0.43399999 -1.8660001 10
4.8189998 -0.461 -1.858 12
5.1040001 -0.49200001 -1.855 11
5.4060001 -0.52499998 -1.848 11
5.743 -0.56199998 -1.8430001 12
4.4229999 -0.421 -1.872 10
4.6539998 -0.44600001 -1.862 10
4.9219999 -0.47499999 -1.859 10
5.2249999 -0.50800002 -1.859 11
5.5279999 -0.542 -1.848 12
5.848 -0.57700002 -1.834 12
4.5009999 -0.43200001 -1.867 10
4.7490001 -0.45899999 -1.8609999 11
5.0310001 -0.49000001 -1.86 11
5.3319998 -0.52200001 -1.855 12
5.6469998 -0.55699998 -1.845 13
5.9980001 -0.597 -1.836 12
4.5970001 -0.44499999 -1.869 10
4.8410001 -0.47099999 -1.858 12
5.1350002 -0.50300002 -1.857 11
5.4320002 -0.53600001 -1.848 11
5.7670002 -0.57300001 -1.841 12
6.1430001 -0.61500001 -1.835 12
4.6810002 -0.456 -1.864 11
4.9439998 -0.484 -1.858 10
5.256 -0.51800001 -1.86 12
5.5539999 -0.551 -1.847 12
5.9050002 -0.58999997 -1.841 12
6.2810001 -0.63200003 -1.83 13
4.7709999 -0.46700001 -1.8609999 11
5.0549998 -0.498 -1.859 12
5.3590002 -0.53100002 -1.854 13
5.691 -0.56800002 -1.849 12
6.0469999 -0.60699999 -1.839 12
6.4580002 -0.653 -1.834 12
4.8699999 -0.479 -1.859 10
5.1609998 -0.51099998 -1.857 11
5.4749999 -0.54500002 -1.852 12
5.8189998 -0.583 -1.846 12
6.2020001 -0.625 -1.84 12
6.625 -0.67199999 -1.832 12
4.9749999 -0.491 -1.859 10
5.276 -0.52399999 -1.8559999 13
5.5929999 -0.55800003 -1.849 12
5.961 -0.59899998 -1.846 12
6.362 -0.64300001 -1.84 13
6.783 -0.68900001 -1.826 13
5.0780001 -0.50300002 -1.8559999 11
5.3930001 -0.537 -1.854 13
5.73 -0.57300001 -1.849 13
6.1059999 -0.61400002 -1.844 12
6.5229998 -0.66000003 -1.8380001 12
6.9780002 -0.70999998 -1.827 12
5.198 -0.51599997 -1.858 11
5.5019999 -0.54900002 -1.848 12
5.8649998 -0.58700001 -1.847 12
6.2589998 -0.63 -1.842 13
6.6859999 -0.67699999 -1.8329999 13
7.1789999 -0.73100001 -1.827 12
5.3200002 -0.528 -1.858 12
5.6370001 -0.56199998 -1.849 12
6.006 -0.602 -1.845 12
6.4180002 -0.64600003 -1.841 12
6.8660002 -0.69499999 -1.832 12
7.381 -0.75099999 -1.824 12
5.4330001 -0.53899997 -1.854 12
5.7639999 -0.574 -1.845 12
6.1609998 -0.616 -1.845 12
6.5840001 -0.662 -1.8380001 12
7.0510001 -0.71200001 -1.829 12
7.599 -0.77100003 -1.823 13
5.5539999 -0.55000001 -1.851 12
5.9099998 -0.588 -1.846 12
6.3150001 -0.63099998 -1.842 13
6.7540002 -0.67699999 -1.834 13
7.257 -0.73100001 -1.8279999 13
7.8280001 -0.79299998 -1.8200001 13
5.6760001 -0.56099999 -1.845 12
6.0619998 -0.60100001 -1.846 12
6.4829998 -0.64600003 -1.842 12
6.9219999 -0.69199997 -1.8279999 12
7.4710002 -0.75 -1.827 12
8.0869999 -0.81599998 -1.822 11
5.8239999 -0.574 -1.848 11
6.1989999 -0.61299998 -1.839 11
6.6389999 -0.65899998 -1.836 12
7.138 -0.71100003 -1.832 12
7.6989999 -0.76999998 -1.825 12
8.3319998 -0.83600003 -1.816 11
5.9710002 -0.58499998 -1.847 12
6.3639998 -0.62599999 -1.8380001 13
6.8200002 -0.67299998 -1.834 14
7.3449998 -0.727 -1.83 13
7.9260001 -0.78799999 -1.821 11
8.6070004 -0.85900003 -1.813 11
6.1220002 -0.597 -1.845 11
6.533 -0.639 -1.837 12
7.0120001 -0.68800002 -1.832 12
7.5539999 -0.74299997 -1.826 12
8.1879997 -0.80900002 -1.822 11
8.8830004 -0.88099998 -1.808 12
6.2729998 -0.60799998 -1.842 12
6.7059999 -0.65100002 -1.834 12
7.2189999 -0.70300001 -1.831 12
7.7940001 -0.76099998 -1.826 11
8.4280005 -0.82599998 -1.813 11
9.1969995 -0.90499997 -1.806 11
6.4460001 -0.61900002 -1.842 12
6.881 -0.66299999 -1.829 13
7.4219999 -0.71700001 -1.827 12
8.0319996 -0.778 -1.822 11
8.7080002 -0.84600002 -1.809 11
9.5229998 -0.92799997 -1.8 11
6.6209998 -0.63099998 -1.84 12
7.0739999 -0.67500001 -1.826 13
7.6500001 -0.73100001 -1.825 12
8.2770004 -0.79400003 -1.816 11
9.0120001 -0.86699998 -1.807 11
9.8570004 -0.95099998 -1.793 11
6.7909999 -0.63999999 -1.835 12
7.2880001 -0.68800002 -1.826 12
7.8899999 -0.74699998 -1.825 11
8.5489998 -0.81099999 -1.814 12
9.3290005 -0.88700002 -1.804 11
10.221 -0.97500002 -1.7869999 13
6.9780002 -0.64999998 -1.832 12
7.4980001 -0.69999999 -1.822 11
8.132 -0.75999999 -1.8200001 11
8.8280001 -0.82700002 -1.808 11
9.6470003 -0.90600002 -1.796 12
10.629 -1.001 -1.783 12
7.1810002 -0.66100001 -1.831 11
7.7589998 -0.71499997 -1.8279999 11
8.3909998 -0.77399999 -1.816 12
9.132 -0.84399998 -1.804 11
10.009 -0.92699999 -1.791 12
11.066 -1.027 -1.777 12
7.4180002 -0.67299998 -1.835 10
7.9829998 -0.72500002 -1.821 11
8.658 -0.78799999 -1.811 11
9.4540005 -0.861 -1.8 12
10.384 -0.94800001 -1.785 12
11.521 -1.053 -1.77 13
7.631 -0.68199998 -1.83 11
8.2360001 -0.73699999 -1.818 11
8.9540005 -0.80199999 -1.807 11
9.8039999 -0.87900001 -1.796 12
10.807 -0.97000003 -1.78 12
12.027 -1.082 -1.763 11
7.849 -0.69 -1.824 10
8.4899998 -0.74699998 -1.812 12
9.2639999 -0.815 -1.803 11
10.152 -0.89399999 -1.788 12
11.241 -0.99199998 -1.773 13
12.561 -1.11 -1.7539999 11
8.0909996 -0.699 -1.821 10
8.7690001 -0.75700003 -1.807 12
9.5830002 -0.82800001 -1.796 11
10.541 -0.912 -1.7819999 12
11.725 -1.015 -1.768 13
13.107 -1.136 -1.7410001 13
8.3479996 -0.70700002 -1.817 11
9.0690002 -0.76800001 -1.803 11
9.9329996 -0.84100002 -1.791 13
10.974 -0.93000001 -1.778 12
12.241 -1.038 -1.761 12
13.721 -1.164 -1.727 12
8.6110001 -0.71399999 -1.811 11
9.3839998 -0.778 -1.798 11
10.315 -0.85399997 -1.786 12
11.437 -0.94800001 -1.772 13
12.78 -1.059 -1.749 12
14.395 -1.194 -1.714 13
8.9040003 -0.72100002 -1.808 11
9.717 -0.787 -1.793 12
10.715 -0.86699998 -1.781 12
11.926 -0.96499997 -1.765 12
13.368 -1.082 -1.739 12
15.151 -1.226 -1.701 12
9.2069998 -0.72799999 -1.803 11
10.055 -0.79400003 -1.784 12
11.143 -0.87900001 -1.774 11
12.45 -0.98199999 -1.757 12
13.984 -1.102 -1.723 12
15.987 -1.26 -1.687 9
9.5299997 -0.73400003 -1.799 11
10.447 -0.80299997 -1.78 12
11.609 -0.89200002 -1.768 12
12.99 -0.99699998 -1.745 13
14.676 -1.125 -1.709 11
16.84 -1.29 -1.665 10
9.8699999 -0.73799998 -1.793 11
10.857 -0.81099999 -1.775 13
12.112 -0.903 -1.761 12
13.585 -1.012 -1.733 12
15.447 -1.149 -1.696 11
17.837999 -1.325 -1.645 11
10.22 -0.74199998 -1.785 11
11.31 -0.81900001 -1.77 13
12.645 -0.91299999 -1.752 13
14.218 -1.025 -1.717 12
16.332001 -1.175 -1.684 9
18.955 -1.363 -1.623 13
10.617 -0.745 -1.781 12
11.778 -0.824 -1.763 13
13.197 -0.921 -1.74 12
14.949 -1.041 -1.705 11
17.200001 -1.196 -1.66 11
20.282 -1.4069999 -1.604 15
11.043 -0.74800003 -1.776 13
12.278 -0.829 -1.7539999 13
13.798 -0.92799997 -1.726 12
15.738 -1.056 -1.691 9
18.212 -1.219 -1.637 12
21.671 -1.447 -1.572 17
11.489 -0.74800003 -1.7690001 13
12.817 -0.83200002 -1.745 12
14.469 -0.935 -1.7130001 12
16.573999 -1.068 -1.671 10
19.365 -1.244 -1.614 14
23.297001 -1.492 -1.539 19
11.975 -0.74800003 -1.763 12
13.379 -0.83200002 -1.732 12
15.209 -0.94199997 -1.7 12
17.48 -1.079 -1.648 11
20.690001 -1.272 -1.592 16
25.167999 -1.5420001 -1.501 17
12.477 -0.745 -1.752 12
13.995 -0.83099997 -1.7180001 13
16.01 -0.94700003 -1.6849999 10
18.52 -1.09 -1.626 12
22.209 -1.301 -1.5650001 18
27.011 -1.576 -1.439 12
13.028 -0.741 -1.743 12
14.665 -0.829 -1.704 12
16.837999 -0.94700003 -1.663 10
19.750999 -1.105 -1.608 14
23.856001 -1.326 -1.529 20
29.406 -1.627 -1.381 6
13.6 -0.73299998 -1.7309999 12
15.394 -0.824 -1.689 11
17.795 -0.94599998 -1.642 11
21.014 -1.1109999 -1.577 16
25.715 -1.352 -1.488 18
32.356998 -1.691 -1.319 5
14.215 -0.72299999 -1.716 12
16.214001 -0.81800002 -1.674 11
18.834 -0.94300002 -1.618 13
22.593 -1.124 -1.553 18
27.541 -1.36 -1.42 9
35.814999 -1.756 -1.2359999 9
14.916 -0.71100003 -1.704 12
17.059999 -0.80699998 -1.653 10
20.061001 -0.94099998 -1.598 14
24.306 -1.131 -1.5190001 21
30.124001 -1.3890001 -1.367 5
38.144001 -1.744 -1.082 47
15.65 -0.69499999 -1.688 12
17.976 -0.79100001 -1.628 12
21.42 -0.93300003 -1.571 16
26.049 -1.124 -1.465 20
32.991001 -1.41 -1.294 4
38.509998 -1.631 -0.85699999 3
16.451 -0.676 -1.671 11
19.034 -0.773 -1.605 13
22.906 -0.92000002 -1.538 19
27.917 -1.109 -1.4 8
36.055 -1.416 -1.1950001 0
45.486 -1.768 -0.74000001 15
17.313999 -0.65200001 -1.65 11
20.264 -0.75300002 -1.584 15
24.673 -0.90499997 -1.508 21
30.653999 -1.11 -1.352 5
38.247002 -1.3660001 -1.038 9
48.033001 -1.693 -0.493 3
18.268 -0.62300003 -1.627 12
21.587999 -0.72500002 -1.554 17
26.336 -0.87099999 -1.448 15
33.370998 -1.086 -1.2690001 4
43.136002 -1.381 -0.91000003 55
58.257999 -1.837 -0.249 13
19.353001 -0.58899999 -1.605 13
23.142 -0.69199997 -1.526 19
28.299 -0.83099997 -1.386 7
37.766998 -1.089 -1.212 20
45.452999 -1.288 -0.69499999 12
0 0 0 0
20.547001 -0.54900002 -1.58 15
24.83 -0.64999998 -1.49 22
30.715 -0.787 -1.324 6
38.25 -0.95899999 -1.006 1
50.220001 -1.23 -0.47499999 22
89.302002 -2.1359999 0.64999998 5
21.886999 -0.50099999 -1.552 17
26.48 -0.59100002 -1.431 17
33.643002 -0.73100001 -1.253 3
43.194 -0.91299999 -0.88300002 46
0 0 0 0
0 0 0 0
23.417999 -0.44400001 -1.523 20
28.49 -0.523 -1.374 7
37.740002 -0.671 -1.188 21
40.924999 -0.70300001 -0.60399997 150
79.067001 -1.309 0.154 8
89.941002 -1.432 1.676 23
25.115999 -0.377 -1.489 22
31.079 -0.44800001 -1.323 6
37.848999 -0.52100003 -0.977 1
40.919998 -0.537 -0.373 91
82.998001 -1.034 0.62599999 7
94.653999 -1.115 2.2939999 6
26.677999 -0.292 -1.428 15
33.612999 -0.345 -1.238 6
40.938 -0.39199999 -0.824 149
40.955002 -0.366 -0.14399999 150
0 0 0 0
93.526001 -0.70700002 2.7809999 11
28.768999 -0.192 -1.375 7
0 0 0 0
40.942001 -0.21799999 -0.59500003 108
42.549 -0.197 0.086000003 54
93.132004 -0.368 1.733 17
63.048 -0.20299999 2.2190001 25
31.469999 -0.078000002 -1.33 6
38.209 -0.067000002 -0.98000002 3
41.070999 -0.043000001 -0.37400001 60
42.581001 -0.013 0.31799999 28
61.821999 0.026000001 1.4859999 25
62.091999 0.071999997 2.5190001 44
33.771 0.061999999 -1.242 3
40.991001 0.107 -0.829 46
41.612 0.14 -0.153 70
45.373001 0.18700001 0.583 19
61.595001 0.30199999 1.8099999 44
61.727001 0.352 2.835 55
37.671001 0.237 -1.181 22
42.379002 0.30000001 -0.62800002 43
42.125999 0.33000001 0.068000004 61
61.759998 0.53399998 1.12 3
61.169998 0.57599998 2.1170001 50
61.987999 0.63700002 3.171 36
38.000999 0.412 -0.98699999 5
42.131001 0.49000001 -0.40200001 68
42.396999 0.52700001 0.29300001 63
61.428001 0.815 1.436 36
61.504002 0.86799997 2.4519999 35
61.863998 0.92400002 3.484 6
42.508999 0.65600002 -0.88200003 61
42.129002 0.68599999 -0.18099999 63
42.556 0.72799999 0.514 3
38.698002 0.69300002 1.102 2
38.443001 0.72299999 1.729 82
38.436001 0.75700003 2.3610001 121
38.493 0.77499998 -0.59899998 34
38.439999 0.80599999 0.029999999 97
38.426998 0.83899999 0.66000003 131
38.505001 0.875 1.293 12
38.362999 0.90499997 1.9170001 24
37.952999 0.93000001 2.5209999 21
38.472 0.95899999 -0.40200001 22
45.312 1.168 0.264 4
47.712002 1.272 1.059 35
61.550999 1.7 2.3759999 38
61.967999 1.7690001 3.4089999 54
111.116 3.277 7.9369998 32
47.782001 1.426 -0.257 39
47.805 1.47 0.52100003 69
47.801998 1.513 1.3 48
62.43 2.0350001 2.7190001 30
62.009998 2.0780001 3.714 25
111.768 3.8599999 8.5319996 24
47.866001 1.665 -0.022 92
48.019001 1.715 0.759 48
59.366001 2.175 1.904 6
62.337002 2.345 3.017 26
111.467 4.3039999 7.217 15
112.342 4.447 9.1120005 29
59.352001 2.3629999 0.25999999 21
47.973 1.954 0.98699999 58
108.956 4.546 4.0149999 25
111.76 4.7750001 5.9400001 30
111.848 4.8940001 7.7719998 28
112.622 5.0489998 9.6730003 30
48.02 2.158 0.43900001 75
48.039001 2.207 1.219 63
110.031 5.1669998 4.5799999 47
112.24 5.382 6.4949999 16
111.144 5.4429998 8.2419996 29
112.643 5.638 10.196 29
48.403 2.428 0.671 70
49.514999 2.5350001 1.488 27
109.932 5.7389998 5.0840001 28
111.874 5.9619999 6.9959998 12
112.167 6.0949998 8.8389997 43
0 0 0 0
49.551998 2.75 0.917 48
93.792 5.2989998 3.2479999 17
110.379 6.3540001 5.6090002 12
111.862 6.5609999 7.5009999 26
113.311 6.7680001 9.4399996 13
74.584 4.5380001 7.4299998 47
49.634998 3.0190001 1.141 42
93.335999 5.776 3.651 19
111.557 7.0209999 6.164 32
113.939 7.2979999 8.1429996 13
0 0 0 0
73.884003 4.9060001 7.691 25
93.863998 6.2220001 2.5780001 16
93.499001 6.2989998 4.072 16
0 0 0 0
0 0 0 0
74.110001 5.2449999 6.8270001 10
72.438004 5.2150002 7.855 5
92.940002 6.677 2.9579999 20
0 0 0 0
0 0 0 0
73.710999 5.5450001 5.9099998 9
0 0 0 0
0 0 0 0
93.681 7.2540002 3.381 44
0 0 0 0
0 0 0 0
0 0 0 0
70.662003 5.8039999 7.1090002 30
71.688004 5.9770002 8.3789997 14
93.453003 7.7680001 3.766 16
0 0 0 0
75.149002 6.4239998 5.441 9
75.822998 6.5749998 6.7140002 10
70.475998 6.2010002 7.3839998 27
70.236 6.27 8.5019999 34
0 0 0 0
74.622002 6.7210002 4.5050001 32
75.801003 6.9219999 5.7969999 32
0 0 0 0
70.611 6.6290002 7.6849999 22
70.142998 6.6799998 8.7770004 44
75.155998 7.1220002 3.6389999 37
75.696999 7.2649999 4.875 4
0 0 0 0
75.025002 7.3940001 7.25 29
70.642998 7.053 7.9699998 17
70.194 7.1059999 9.0629997 56
73.981003 7.4499998 3.8740001 38
73.611 7.5029998 5.0289998 23
72.388 7.4679999 6.1059999 24
75.139999 7.8509998 7.5489998 19
59.042 6.25 6.8889999 43
60.261002 6.4640002 8.0129995 3
0 0 0 0
73.028999 7.8870001 5.2709999 30
72.407997 7.9109998 6.3860002 29
59.226002 6.5539999 6.1789999 18
58.790001 6.585 7.085 45
59.564999 6.756 8.1470003 47
74.846001 8.4420004 4.487 33
73.981003 8.4359999 5.6129999 48
73.882004 8.5229998 6.789 31
59.018002 6.8899999 6.3740001 34
58.567001 6.921 7.2740002 50
38.921001 4.6550002 5.467 37
74.043999 8.8059998 4.71 4
0 0 0 0
0 0 0 0
59.075001 7.2639999 6.5949998 26
38.984001 4.8499999 4.9840002 22
38.764999 4.882 5.5869999 50
72.900002 9.1219997 4.8959999 33
72.350998 9.1490002 6.0100002 14
38.937 4.9759998 3.8570001 2
38.894001 5.027 4.4809999 42
38.706001 5.0609999 5.086 43
38.780998 5.1290002 5.7270002 45
38.993 5.1259999 2.7550001 41
38.948002 5.171 3.3710001 44
59.424999 7.973 6.0939999 10
59.866001 8.1199999 7.1030002 26
39.060001 5.3590002 5.2690001 10
38.973 5.4070001 5.8920002 29
87.009003 11.991 6.4429998 18
86.476997 12.037 7.7789998 15
59.757 8.4029999 6.3309999 7
58.573002 8.3240004 7.1490002 15
57.493999 8.2580004 7.948 39
57.994999 8.4239998 8.9630003 34
83.959 12.108 6.4910002 7
86.531998 12.606 8.0710001 16
63.501999 9.3439999 6.9380002 4
58.979 8.7679996 7.3940001 4
57.157001 8.5860004 8.0909996 40
57.252998 8.6949997 9.0389996 46
73.555 11.091 5.9250002 5
86.039001 13.099 8.302 10
59.694 9.177 6.7140002 4
57.206001 8.8800001 7.355 22
56.785999 8.9069996 8.2220001 35
56.993999 9.0360003 9.1829996 32
82.903999 13.049 6.9380002 16
59.708 9.4840002 5.9450002 10
61.514999 9.8629999 7.1110001 24
56.646 9.1719999 7.46 32
56.672001 9.2700005 8.3830004 44
56.778999 9.3850002 9.3269997 49
72.393997 11.874 6.277 16
63.355 10.487 6.5 22
57.286999 9.5679998 6.7940001 7
56.363998 9.5019999 7.592 23
56.546001 9.6280003 8.5340004 43
57.493999 9.8920002 9.6199999 43
62.527 10.673 5.605 4
56.866001 9.7919998 6.0009999 3
56.867001 9.8809996 6.9109998 20
55.865002 9.7959995 7.6890001 39
56.155998 9.9429998 8.6409998 48
57.424 10.271 9.776 27
72.296997 12.827 6.6820002 14
57.730999 10.33 6.2529998 2
55.932999 10.099 6.9559999 27
55.659 10.145 7.8200002 42
56.335999 10.364 8.8310003 40
59.84 11.115 10.359 8
73.839996 13.607 7.0279999 20
62.603001 11.632 6.9530001 11
55.938999 10.484 7.1090002 35
55.921001 10.577 8.0109997 37
56.487 10.785 9.0109997 42
0 0 0 0
58.603001 11.207 5.7340002 11
60.332001 11.633 6.8649998 2
56.227001 10.931 7.2979999 19
56.368999 11.056 8.2270002 42
56.652 11.214 9.1899996 39
0 0 0 0
84.694 16.788 8.5039997 19
61.254002 12.238 7.1240001 29
56.493999 11.379 7.4749999 10
55.875999 11.352 8.2969999 52
57.171001 11.722 9.4230003 52
0 0 0 0
58.693001 12.04 6.0359998 7
58.323002 12.058 6.9260001 3
56.074001 11.685 7.5580001 27
55.91 11.751 8.4399996 33
57.292999 12.146 9.5830002 36
0 0 0 0
58.948002 12.506 6.1989999 10
58.134998 12.425 7.039 3
56.900002 12.259 7.802 24
56.429001 12.259 8.651 42
56.853001 12.457 9.6440001 41
41.605 9.1990004 7.7420001 4
62.511002 13.7 6.7119999 14
57.852001 12.774 7.1329999 7
57.306 12.755 7.9889998 29
56.993999 12.787 8.8690004 39
38.687 8.7550001 6.652 4
39.838001 9.0970001 7.507 9
60.312 13.649 6.6069999 23
58.390999 13.315 7.3270001 13
57.918999 13.306 8.1990004 28
57.77 13.381 9.118 28
38.554001 9.0059996 6.7150002 41
39.054001 9.2040005 7.447 39
60.192001 14.061 6.7189999 3
58.216999 13.698 7.427 19
57.521999 13.635 8.2639999 35
58.196999 13.906 9.3079996 44
38.652 9.3129997 6.8150001 56
36.681 8.9139996 7.0739999 7
58.202 14.018 6.612 18
58.355999 14.155 7.5609999 24
57.761002 14.112 8.4139996 42
58.374001 14.374 9.4519997 15
38.453999 9.5469999 6.8569999 51
36.419998 9.1199999 7.098 34
58.09 14.413 6.7059999 41
58.205002 14.542 7.6490002 28
58.617001 14.755 8.651 35
0 0 0 0
39.292999 10.046 7.0840001 60
36.414001 9.3909998 7.1690001 42
58.985001 15.075 6.914 32
40.949001 10.536 5.4569998 8
59.332001 15.376 8.8640003 40
38.362 10.017 6.3559999 1
37.710999 9.9239998 6.869 56
37.582001 9.9729996 7.4689999 36
40.726002 10.709 4.842 45
39.771999 10.528 5.3649998 28
39.710999 10.588 6.0009999 25
38.013 10.211 6.3649998 41
38.418999 10.4 7.066 12
0 0 0 0
39.252998 10.615 4.7290001 3
38.929001 10.595 5.3140001 50
39.349998 10.785 6.0089998 14
37.903999 10.463 6.4070001 14
38.279999 10.649 7.1020002 9
36.493 10.233 7.3790002 1
41.117001 11.423 5.013 14
0 0 0 0
0 0 0 0
38.837002 11.015 6.625 45
38.780998 11.082 7.257 2
36.679001 10.566 7.4759998 53
0 0 0 0
41.062 11.791 5.723 12
0 0 0 0
39.418999 11.479 6.7820001 46
36.837002 10.809 6.948 27
36.588001 10.822 7.513 53
0 0 0 0
0 0 0 0
41.133999 12.21 6.4580002 14
39.217999 11.721 6.8010001 6
36.841999 11.094 7 14
37.033001 11.237 7.6570001 55
0 0 0 0
0 0 0 0
0 0 0 0
38.173 11.7 6.6659999 2
38.662998 11.938 7.3940001 24
38.118999 11.862 7.9299998 39
0 0 0 0
0 0 0 0
0 0 0 0
37.547001 11.798 6.6009998 7
37.492001 11.868 7.2160001 56
38.132999 12.162 7.98 28
0 0 0 0
0 0 0 0
0 0 0 0
37.207001 11.977 6.5799999 11
37.59 12.187 7.276 58
40.516998 13.237 8.526 53
0 0 0 0
0 0 0 0
0 0 0 0
37.081001 12.226 6.5939999 55
37.433998 12.429 7.2820001 48
38.249001 12.797 8.0889997 31
0 0 0 0
0 0 0 0
0 0 0 0
37.119999 12.525 6.6339998 32
37.250999 12.658 7.2810001 39
38.337002 13.125 8.1420002 46
0 0 0 0
0 0 0 0
0 0 0 0
37.153999 12.827 6.6669998 1
39.636002 13.778 7.7800002 16
38.539001 13.497 8.2180004 61
0 0 0 0
0 0 0 0
39.198002 13.752 6.4089999 3
39.933998 14.101 7.1939998 65
38.811001 13.797 7.6440001 30
38.081001 13.637 8.1479998 60
0 0 0 0
0 0 0 0
39.185001 14.051 6.4299998 1
40.021 14.443 7.2340002 55
38.425999 13.962 7.5929999 40
37.699001 13.798 8.092 50
0 0 0 0
0 0 0 0
40.856998 14.972 6.723 28
39.25 14.474 7.1139998 28
37.647999 13.978 7.4590001 40
37.332001 13.959 8.0349998 41
0 0 0 0
0 0 0 0
40.483002 15.152 6.6739998 11
39.023998 14.697 7.0869999 22
38.323002 14.53 7.6079998 58
37.506001 14.319 8.0880003 17
0 0 0 0
0 0 0 0
39.637001 15.145 6.5440001 46
39.203999 15.071 7.1329999 45
37.761002 14.612 7.5110002 58
39.167999 15.264 8.4619999 24
0 0 0 0
39.502998 15.32 5.8709998 18
39.908001 15.562 6.5960002 40
36.683998 14.392 6.6799998 2
36.699001 14.49 7.3070002 45
39.057999 15.53 8.448 40
0 0 0 0
38.669998 15.298 5.75 62
38.995998 15.513 6.4489999 4
36.702 14.689 6.6880002 16
36.584999 14.737 7.29 45
37.368 15.155 8.0900002 39
40 16.059 5.2820001 29
39.070999 15.765 5.8049998 61
37.751999 15.314 6.2410002 38
