# .PCD v0.7 - Point Cloud Data file format
VERSION 0.7
FIELDS x y z intensity
SIZE 4 4 4 4
TYPE F F F F
COUNT 1 1 1 1
WIDTH 1858
HEIGHT 1
VIEWPOINT 0 0 0 1 0 0 0
POINTS 1858
DATA ascii
13.2 -7.9710002 -1.808 8
15.337 -9.2040005 -1.791 10
18.059 -10.776 -1.749 16
22.483999 -13.35 -1.735 15
10.505 -6.3860002 -1.817 8
11.855 -7.151 -1.807 7
13.673 -8.191 -1.8049999 9
15.907 -9.4700003 -1.781 9
19.525999 -11.559 -1.799 18
24.372999 -14.356 -1.765 6
10.81 -6.5149999 -1.814 9
12.283 -7.348 -1.8099999 7
14.15 -8.4060001 -1.798 9
16.604 -9.8030005 -1.778 12
20.113001 -11.807 -1.756 19
25.117001 -14.673 -1.702 6
11.141 -6.6560001 -1.813 8
12.689 -7.5240002 -1.807 7
14.708 -8.6619997 -1.7970001 10
17.563999 -10.28 -1.796 33
21.48 -12.503 -1.773 19
27.903999 -16.163 -1.7589999 9
11.496 -6.8060002 -1.812 6
13.113 -7.7049999 -1.801 8
15.248 -8.8990002 -1.789 11
17.898001 -10.382 -1.744 25
21.968 -12.674 -1.711 20
28.525 -16.375999 -1.6670001 8
11.87 -6.961 -1.811 6
13.577 -7.9050002 -1.798 9
15.848 -9.165 -1.783 12
19.302 -11.095 -1.79 18
24.108 -13.78 -1.766 9
0 0 0 0
12.259 -7.1199999 -1.809 7
14.053 -8.1029997 -1.7920001 9
16.451 -9.4219999 -1.771 12
19.846001 -11.298 -1.747 19
24.566999 -13.911 -1.6849999 6
0 0 0 0
12.677 -7.29 -1.808 7
14.582 -8.3240004 -1.789 10
17.177999 -9.7410002 -1.768 14
21.15 -11.923 -1.765 33
27.556 -15.45 -1.765 18
35.453999 -19.784 -1.589 12
13.089 -7.4499998 -1.803 8
15.155 -8.5629997 -1.786 10
17.941 -10.071 -1.762 9
21.372 -11.926 -1.683 22
27.837999 -15.452 -1.656 7
35.269001 -19.482 -1.425 73
13.55 -7.6300001 -1.8 9
15.691 -8.7729998 -1.775 11
18.941 -10.521 -1.772 36
23.014999 -12.709 -1.709 31
30.377001 -16.686001 -1.6720001 1
44.599998 -24.382999 -1.604 11
14.018 -7.809 -1.795 9
16.273001 -9 -1.7640001 12
19.201 -10.551 -1.7079999 30
23.945999 -13.081 -1.669 5
32.379002 -17.594999 -1.6390001 1
44.625 -24.136999 -1.4119999 28
14.533 -8.0050001 -1.791 10
16.909 -9.2480001 -1.7539999 11
20.712999 -11.256 -1.748 40
26.034 -14.066 -1.697 6
35.191002 -18.915001 -1.626 0
44.84 -23.985001 -1.225 45
15.068 -8.2040005 -1.786 10
17.827999 -9.6389999 -1.767 15
21.225 -11.403 -1.696 21
27.101999 -14.477 -1.648 4
40.167 -21.343 -1.682 4
44.946999 -23.775 -1.038 77
15.593 -8.3900003 -1.776 11
18.462999 -9.8660002 -1.7460001 51
22.490999 -11.942 -1.698 23
0 0 0 0
43.252998 -22.716 -1.627 6
52.536999 -27.466999 -0.99400002 35
16.188999 -8.6059999 -1.7690001 12
18.773001 -9.9110003 -1.691 29
23.629 -12.395 -1.679 6
0 0 0 0
44.921001 -23.309 -1.5 16
51.279999 -26.489 -0.75800002 34
16.820999 -8.8299999 -1.762 12
20.122999 -10.492 -1.723 19
0 0 0 0
34.757 -17.908001 -1.665 0
45.133999 -23.136999 -1.321 7
51.061001 -26.056 -0.546 41
17.438 -9.0380001 -1.749 13
21.023001 -10.822 -1.709 22
26.252001 -13.431 -1.641 7
39.081001 -19.882 -1.711 3
51.43 -26.032 -1.295 9
43.198002 -21.767 -0.28999999 1
18.202 -9.3120003 -1.7460001 15
21.84 -11.098 -1.682 21
28.451 -14.369 -1.6569999 3
38.886002 -19.530001 -1.5420001 1
43.285999 -21.628 -0.917 69
51.467999 -25.601999 -0.14399999 25
19.099001 -9.6420002 -1.751 17
23.202 -11.635 -1.691 25
30.278999 -15.091 -1.641 1
41.716999 -20.676001 -1.488 4
50.042 -24.679001 -0.86400002 47
65.105003 -31.962 0.068999998 41
19.601999 -9.7620001 -1.7130001 35
23.548 -11.651 -1.619 25
0 0 0 0
47.890999 -23.421 -1.522 16
49.970001 -24.315001 -0.671 42
61.980999 -30.024 0.29899999 27
20.469999 -10.055 -1.705 26
25.490999 -12.438 -1.649 13
0 0 0 0
47.972 -23.136 -1.34 3
50.098999 -24.042 -0.484 25
41.666 -19.905001 0.35499999 33
21.243999 -10.286 -1.683 29
26.386 -12.692 -1.602 2
37.695 -18.024 -1.598 3
41.682999 -19.820999 -1.005 27
50.313 -23.806 -0.29800001 33
41.84 -19.705999 0.50800002 92
22.444 -10.709 -1.687 23
28.74 -13.623 -1.632 1
40.618999 -19.136999 -1.564 13
41.888 -19.629 -0.85299999 17
50.747002 -23.662001 -0.114 6
100.535 -46.672001 1.581 12
22.813999 -10.724 -1.625 23
31.190001 -14.565 -1.653 8
40.599998 -18.847 -1.415 98
46.478001 -21.458 -0.778 15
40.959 -18.816 0.052000001 36
40.868999 -18.691 0.78600001 49
24.318001 -11.257 -1.6390001 8
32.664001 -15.022 -1.607 1
40.683998 -18.6 -1.267 34
41.004002 -18.643999 -0.54100001 91
41.084 -18.587 0.19400001 16
48.653 -21.914 1.1 2
24.870001 -11.334 -1.5829999 4
34.778999 -15.748 -1.586 1
41.077999 -18.49 -1.1339999 44
46.716999 -20.915001 -0.45300001 44
96.359001 -42.926998 0.78500003 8
49.095001 -21.774 1.274 17
26.552999 -11.909 -1.594 2
36.375999 -16.209 -1.528 1
41.123001 -18.215 -0.991 10
47.027 -20.719 -0.296 6
0 0 0 0
48.814999 -21.305 1.426 47
30.254999 -13.351 -1.707 10
39.051998 -17.122 -1.505 8
52.091999 -22.702999 -1.0779999 23
0 0 0 0
83.605003 -36.060001 1.228 8
49.199001 -21.125999 1.591 55
30.103001 -13.063 -1.5930001 4
0 0 0 0
56.473 -24.207001 -0.98299998 5
124.482 -53.068001 0.032000002 13
49.648998 -21.061001 0.88800001 16
49.664001 -20.973 1.758 52
0 0 0 0
44.825001 -19 -1.427 20
50.726002 -21.377001 -0.72100002 27
0 0 0 0
88.093002 -36.737999 1.8430001 18
49.247002 -20.448 1.891 20
35.212002 -14.764 -1.6289999 5
45.521999 -18.965 -1.303 14
50.556999 -20.940001 -0.56 25
0 0 0 0
49.791 -20.409 1.186 5
48.956001 -19.976 2.02 47
34.960999 -14.402 -1.507 0
46.747002 -19.134001 -1.1950001 2
47.557999 -19.351 -0.384 47
119.818 -48.493999 1.117 12
49.874001 -20.084999 1.3329999 48
49.325001 -19.774 2.175 52
37.633999 -15.223 -1.505 8
47.437 -19.065001 -1.069 31
41.716 -16.666 -0.214 71
119.629 -47.540001 1.4579999 12
49.865002 -19.716999 1.472 50
49.580002 -19.516001 2.3210001 60
0 0 0 0
41.771 -16.481001 -0.81900001 71
41.929001 -16.444 -0.097000003 55
0 0 0 0
50.137001 -19.459 1.614 53
36.724998 -14.191 1.814 19
40.395 -15.74 -1.377 1
47.580002 -18.421 -0.79900002 72
47.926998 -18.445 0.021 30
75.975998 -29.079 1.341 26
36.937 -14.065 1.285 38
46.105 -17.476999 2.3940001 1
37.167999 -14.203 -1.1619999 1
47.814999 -18.153999 -0.67199999 58
48.231998 -18.205999 0.148 2
37.106998 -13.927 0.75099999 55
37.240002 -13.909 1.39 54
44.271999 -16.461 2.4070001 44
37.201 -13.939 -1.062 6
37.182999 -13.844 -0.426 97
37.215 -13.773 0.20900001 55
57.876999 -21.299 1.311 30
44.613998 -16.337 1.77 41
44.605 -16.257999 2.529 25
37.243999 -13.675 -0.96600002 94
49.703999 -18.132999 -0.44299999 53
0 0 0 0
45.716999 -16.488001 1.145 6
45.026001 -16.158001 1.891 59
45.32 -16.188 2.6719999 13
44.821999 -16.125 -1.052 12
49.908001 -17.834 -0.32499999 66
57.911999 -20.572001 0.602 4
45.094002 -15.929 1.232 58
44.881001 -15.775 1.983 69
43.706001 -15.29 2.6700001 2
45 -15.851 -0.949 7
50.490002 -17.669001 -0.212 28
45.485001 -15.821 0.57599998 2
44.963001 -15.552 1.327 41
44.441002 -15.294 2.059 57
43.653999 -14.949 2.756 33
45.493999 -15.68 -0.85399997 3
45.627998 -15.625 -0.090999998 1
45.688999 -15.551 0.676 42
44.952999 -15.214 1.419 58
44.558998 -15.004 2.1530001 49
49.307999 -16.521 3.211 28
45.666 -15.397 -0.75700003 44
52.061001 -17.436001 0.0060000001 49
59.366001 -19.76 1 4
45.310001 -14.997 1.52 61
44.669998 -14.708 2.2449999 15
49.516998 -16.224001 3.316 48
32.289001 -10.641 -0.46700001 76
52.154999 -17.075001 0.113 52
49.452999 -16.087999 0.93000001 33
45.173 -14.614 1.6 17
49.757999 -16.011 2.5910001 37
49.923 -15.985 3.431 89
32.279999 -10.395 -0.40400001 97
52.452999 -16.778999 0.213 44
50.164001 -15.946 1.036 33
49.573002 -15.67 1.845 25
49.903 -15.689 2.6849999 79
49.689999 -15.545 3.4979999 51
49.926998 -15.701 -0.53200001 71
50.085999 -15.645 0.29300001 9
50.083 -15.546 1.1210001 48
49.419998 -15.252 1.921 61
50.164001 -15.398 2.779 54
49.164001 -15.017 3.5350001 50
64.621002 -19.837 -0.574 3
56.931 -17.358 0.43099999 37
50.917 -15.426 1.223 55
49.890999 -15.026 2.017 44
49.854 -14.932 2.8369999 50
49.551998 -14.766 3.6359999 22
66.653 -19.958 -0.48300001 9
56.527 -16.809999 0.51700002 29
51.348999 -15.175 1.3099999 36
50.013 -14.692 2.096 25
49.944 -14.589 2.9130001 4
49.497002 -14.382 3.698 95
70.712997 -20.639999 -0.40400001 9
56.923 -16.500999 0.60399997 56
51.356998 -14.791 1.3839999 16
52.328999 -14.982 2.2639999 16
53.431 -15.211 3.1849999 30
46.395 -13.138 3.5250001 6
71.653 -20.374001 -0.303 10
132.10899 -37.310001 1.586 14
50.183998 -14.075 1.418 5
52.766998 -14.711 2.3499999 3
46.450001 -12.875 2.825 23
33.986 -9.3699999 2.6210001 34
0 0 0 0
65.055 -17.881001 0.86400002 3
63.619999 -17.371 1.876 35
44.400002 -12.045 2.0280001 19
33.832001 -9.1260004 2.0940001 18
33.456001 -8.9770002 2.6140001 15
33.68 -9.0690002 -0.057 7
33.653999 -8.9980001 0.48500001 57
33.660999 -8.941 1.028 57
33.610001 -8.8710003 1.5700001 39
33.535999 -8.7989998 2.1099999 30
58.412998 -15.244 4.6209998 49
33.661999 -8.8129997 -0.02 69
33.755001 -8.7740002 0.52200001 35
45.653 -11.788 1.441 33
44.584 -11.436 2.125 36
34.330002 -8.7539997 2.1889999 26
34.679001 -8.7930002 2.7720001 1
129.517 -32.945 0.048 18
47.026001 -11.872 0.77200001 4
45.167999 -11.324 1.466 50
44.744999 -11.147 2.1700001 40
58.083 -14.38 3.7520001 64
34.827 -8.5740004 2.8099999 5
45.581001 -11.252 0.057999998 5
45.654999 -11.187 0.78600001 43
45.134998 -10.984 1.5 56
44.948002 -10.866 2.2119999 2
57.937 -13.918 3.78 58
58.424999 -13.956 4.7490001 48
65.362 -15.65 0.133 62
45.834 -10.892 0.82300001 11
45.415001 -10.715 1.54 39
44.994999 -10.544 2.244 55
44.890999 -10.45 2.9549999 1
44.618 -10.328 3.651 5
0 0 0 0
71.644997 -16.493 1.33 11
46.092999 -10.533 1.5880001 32
45.115002 -10.238 2.2720001 22
44.848 -10.111 2.973 41
44.757 -10.028 3.6819999 28
79.044998 -17.747999 0.259 39
71.467003 -15.925 1.364 13
46.134998 -10.203 1.6109999 69
45.459999 -9.9809999 2.3080001 3
45.243999 -9.8669996 3.016 41
44.875 -9.7250004 3.7049999 20
37.005001 -8.0340004 0.13699999 8
31.915001 -6.8730001 0.62099999 50
46.472 -9.9350004 1.6390001 63
46.450001 -9.8579998 2.3729999 5
59.928001 -12.632 4.0110002 34
73.025002 -15.296 6.046 19
36.855 -7.73 0.149 30
31.695999 -6.5949998 0.62599999 51
46.396999 -9.5769997 1.647 2
46.731998 -9.5749998 2.3959999 18
60.278999 -12.267 4.0419998 45
73.633003 -14.884 6.1030002 13
0 0 0 0
31.492001 -6.3210001 0.62699997 64
84.209999 -16.768 3.0009999 26
47.167 -9.3210001 2.4230001 13
74.043999 -14.526 4.9699998 13
75.835999 -14.772 6.2859998 10
0 0 0 0
0 0 0 0
84.300003 -16.164 3.006 33
84.758003 -16.125 4.3520002 14
74.091003 -13.995 4.9679999 10
0 0 0 0
0 0 0 0
0 0 0 0
85.225998 -15.719 3.03 14
0 0 0 0
0 0 0 0
66.959999 -12.072 5.5300002 3
0 0 0 0
0 0 0 0
0 0 0 0
0 0 0 0
0 0 0 0
67.417999 -11.663 5.546 14
0 0 0 0
0 0 0 0
88.858002 -15.101 3.115 15
67.572998 -11.386 3.421 40
0 0 0 0
68.558998 -11.372 5.612 20
123.965 -20.555 0.45300001 11
89.426003 -14.68 1.71 6
67.711998 -11.017 2.3440001 30
68.011002 -10.969 3.4119999 25
68.297997 -10.926 4.4889998 7
0 0 0 0
67.972 -10.777 0.21699999 87
88.778 -13.94 1.655 30
67.713997 -10.532 2.3099999 14
67.57 -10.412 3.3510001 34
67.516998 -10.313 4.3969998 26
56.480999 -8.5570002 4.5570002 34
83.621002 -12.651 0.21799999 9
88.497002 -13.254 1.595 22
75.939003 -11.267 2.5409999 39
76.512001 -11.245 3.744 42
56.728001 -8.2609997 3.655 34
0 0 0 0
57.284 -8.257 0.111 3
88.490997 -12.619 1.531 17
75.087997 -10.6 2.4560001 32
56.800999 -7.9419999 2.7349999 36
76.314003 -10.57 4.855 38
67.294998 -9.2390003 5.3239999 18
57.145 -7.8270001 0.064999998 94
57.125 -7.7399998 0.94199997 107
57.134998 -7.6630001 1.821 43
57.242001 -7.5999999 2.7060001 46
57.061001 -7.5040002 3.579 56
68.429001 -8.9130001 5.3499999 7
57.304001 -7.4450002 0.014 9
76.925003 -9.8830004 1.198 17
77.065002 -9.7969999 2.3829999 6
57.451 -7.223 2.6589999 10
76.222 -9.4849997 4.7020001 31
76.547997 -9.4329996 5.9039998 28
0 0 0 0
0 0 0 0
75.400002 -9.0489998 2.25 25
76.337997 -9.0570002 3.448 39
57.757999 -6.7779999 3.497 15
30.295 -3.5190001 2.3010001 5
73.485001 -8.5030003 -0.141 7
99.727997 -11.404 1.331 26
76.098 -8.5979996 2.1800001 31
79.467003 -8.8780003 3.4949999 31
30.431999 -3.3610001 1.8049999 27
30.395 -3.319 2.2709999 40
74.142998 -8.0609999 -0.234 5
30.271 -3.25 0.366 0
30.370001 -3.22 0.83099997 56
30.249001 -3.1659999 1.29 73
30.382 -3.1440001 1.762 46
111.359 -11.392 8.1689997 12
30.287001 -3.082 -0.13600001 111
30.326 -3.0439999 0.324 76
30.413 -3.0139999 0.78899997 65
41.598 -4.0689998 1.716 58
30.378 -2.934 1.7180001 1
41.382999 -3.947 2.9749999 2
30.422001 -2.885 -0.18099999 6
0 0 0 0
42.429001 -3.9089999 1.0369999 3
41.727001 -3.7920001 1.6569999 62
41.388 -3.7119999 2.276 51
41.438999 -3.6659999 2.9130001 48
50.691002 -4.454 -0.38299999 2
83.834999 -7.2519999 0.63599998 16
42.112999 -3.5880001 0.95999998 44
41.810001 -3.51 1.591 48
41.587002 -3.4419999 2.2179999 53
41.393002 -3.3770001 2.8399999 61
42.138 -3.4119999 -0.38999999 100
79.941002 -6.369 0.47099999 4
106.85 -8.382 2.2550001 8
42.143002 -3.253 1.531 42
41.567001 -3.1589999 2.1440001 62
41.577 -3.1070001 2.7780001 43
0 0 0 0
74.304001 -5.4089999 0.301 4
0 0 0 0
103.628 -7.2909999 3.572 29
41.550999 -2.8740001 2.0650001 56
42.105 -2.865 2.7349999 44
41.924999 -2.822 -0.54500002 6
73.723 -4.8660002 0.156 14
112.539 -7.2940001 1.947 23
106.493 -6.7740002 3.461 11
41.491001 -2.5910001 1.98 34
42.612 -2.612 2.6830001 5
39.727001 -2.405 -0.597 1
71.939003 -4.2659998 0.0070000002 12
114.212 -6.6339998 1.742 17
102.562 -5.8299999 3.1199999 14
82.546997 -4.599 3.767 27
79.258003 -4.3249998 4.823 20
32.631001 -1.755 -0.56099999 150
61.808998 -3.2509999 -0.127 5
81.482002 -4.1869998 1.066 102
81.514 -4.0929999 2.3039999 60
82.792999 -4.0650001 3.598 5
81.722 -3.9189999 4.7950001 17
32.652 -1.54 -0.634 150
32.66 -1.5 -0.141 17
0 0 0 0
86.415001 -3.766 2.2449999 5
81.324997 -3.451 3.3469999 12
79.952003 -3.302 4.5050001 14
32.661999 -1.322 -0.71200001 125
32.737 -1.285 -0.219 150
37.007999 -1.41 0.31099999 24
85.004997 -3.141 2.0039999 36
54.847 -1.966 2.1259999 10
54.845001 -1.905 2.9579999 15
32.681 -1.1059999 -0.79400003 68
33.398998 -1.091 -0.30599999 51
34.306999 -1.082 0.20299999 35
53.505001 -1.624 1.127 5
53.299999 -1.561 1.932 49
53.676998 -1.515 2.7609999 48
34.605 -0.94400001 -0.93000001 40
33.838001 -0.88499999 -0.398 59
34.054001 -0.852 0.114 54
85.987999 -2.0550001 1.59 28
52.93 -1.204 1.78 50
53.513 -1.161 2.612 53
34.269001 -0.71100003 -1.015 42
33.845001 -0.66399997 -0.49000001 72
33.979 -0.63 0.022 57
54.518002 -0.95099998 0.861 38
52.967999 -0.86699998 1.6390001 59
53.501999 -0.81699997 2.4660001 47
33.812 -0.484 -1.095 42
34.011002 -0.44999999 -0.58700001 61
33.973999 -0.41100001 -0.072999999 61
37.023998 -0.40900001 0.47999999 2
30.445 -0.303 0.85600001 57
30.179001 -0.26800001 1.306 109
30.211 -0.23800001 -1.067 27
30.176001 -0.206 -0.60900003 60
30.167999 -0.17399999 -0.152 135
30.174 -0.141 0.30399999 73
39.433998 -0.141 0.99400002 48
53.102001 -0.13699999 2.1440001 46
30.031 -0.045000002 -1.152 11
34.666 -0.016000001 -0.80500001 42
39.532001 0.021 -0.31900001 2
39.547001 0.063000001 0.27900001 11
39.485001 0.103 0.87800002 5
53.776001 0.198 2.0090001 33
29.718 0.141 -1.233 20
34.804001 0.20200001 -0.917 44
39.584999 0.271 -0.44400001 27
39.604 0.31099999 0.156 91
39.660999 0.352 0.75700003 29
51.27 0.50599998 1.757 5
29.32 0.322 -1.311 30
34.327999 0.41100001 -1.0140001 45
36.138 0.46900001 -0.51999998 4
51.127998 0.71600002 0.037999999 33
0 0 0 0
39.703999 0.63599998 1.234 32
27.983999 0.47999999 -1.345 27
33.125999 0.60000002 -1.089 39
0 0 0 0
53.507999 1.079 -0.13699999 9
39.777 0.83999997 0.50199997 99
39.778999 0.87900001 1.105 82
0 0 0 0
32.551998 0.79000002 -1.182 38
34.716 0.875 -0.73299998 42
39.264999 1.026 -0.23199999 1
0 0 0 0
41.382999 1.164 1.01 2
25.166 0.74000001 -1.386 5
29.855 0.90600002 -1.1900001 21
34.992001 1.094 -0.86199999 45
39.826 1.283 -0.37599999 57
39.966999 1.327 0.228 71
41.341999 1.411 0.86400002 22
23.905001 0.84600002 -1.403 7
0 0 0 0
34.283001 1.276 -0.96799999 46
0 0 0 0
54.127998 2.118 0.115 5
41.439999 1.6619999 0.71700001 28
22.808001 0.94400001 -1.425 11
27.988001 1.183 -1.321 24
31.514 1.3609999 -1.008 2
0 0 0 0
49.938999 2.2460001 -0.075000003 3
41.542 1.908 0.56699997 2
21.757 1.028 -1.443 16
26.181 1.2589999 -1.336 6
31.011 1.521 -1.11 13
35.578999 1.776 -0.73000002 49
39.049999 1.983 -0.206 5
41.623001 2.1530001 0.412 2
20.83 1.107 -1.464 15
24.761 1.336 -1.3609999 5
30.056999 1.648 -1.193 29
34.615002 1.929 -0.84600002 58
37.578999 2.128 -0.34599999 1
41.631001 2.3959999 0.249 14
19.957001 1.176 -1.484 14
23.427 1.401 -1.3839999 7
0 0 0 0
34.109001 2.099 -0.972 44
37.845001 2.3610001 -0.5 42
40.069 2.5350001 0.079999998 11
19.084 1.235 -1.5 13
22.239 1.459 -1.4069999 12
27.971001 1.858 -1.34 22
31.531 2.1210001 -1.029 7
35.636002 2.428 -0.61799997 51
40.046001 2.7639999 -0.083999999 40
18.297001 1.29 -1.518 12
21.205999 1.512 -1.432 16
25.721001 1.855 -1.342 5
30.437 2.2190001 -1.1210001 16
34.660999 2.5580001 -0.74699998 48
37.243999 2.78 -0.234 1
17.568001 1.3380001 -1.535 11
20.275 1.559 -1.4579999 15
24.181999 1.878 -1.3660001 6
30.014999 2.3559999 -1.235 26
34.008999 2.6989999 -0.87900001 42
36.563 2.9319999 -0.38600001 1
16.863001 1.3789999 -1.549 10
19.344 1.596 -1.478 13
22.83 1.9 -1.391 10
28.243 2.372 -1.286 23
33.539001 2.8429999 -1.011 41
36.693001 3.141 -0.54500002 52
16.237 1.4170001 -1.566 10
18.496 1.626 -1.4960001 12
21.665001 1.921 -1.418 15
26.188999 2.3429999 -1.3099999 5
30.774 2.776 -1.0650001 5
35.787998 3.2579999 -0.69 47
15.63 1.449 -1.581 12
17.700001 1.653 -1.515 11
20.598 1.938 -1.443 15
24.725 2.3440001 -1.35 7
30.194 2.885 -1.182 22
34.986 3.369 -0.83099997 46
15.088 1.479 -1.598 12
16.975 1.676 -1.533 10
19.629999 1.952 -1.4680001 14
23.159 2.3180001 -1.372 6
0 0 0 0
33.756001 3.431 -0.95899999 41
14.572 1.507 -1.614 12
16.268999 1.693 -1.548 9
18.700001 1.957 -1.488 13
21.84 2.302 -1.398 12
0 0 0 0
31.271 3.3410001 -1.035 7
14.044 1.527 -1.627 12
15.649 1.711 -1.567 12
17.857 1.964 -1.5089999 12
20.712 2.2909999 -1.427 15
24.833 2.7650001 -1.326 5
30.327999 3.3989999 -1.151 25
13.529 1.5420001 -1.637 13
15.063 1.726 -1.585 12
17.084 1.967 -1.529 10
19.709 2.2820001 -1.456 14
23.343 2.7179999 -1.362 6
0 0 0 0
13.03 1.553 -1.645 12
14.533 1.739 -1.604 11
16.343 1.965 -1.546 10
18.698 2.2590001 -1.476 13
21.858 2.655 -1.3839999 9
0 0 0 0
12.574 1.562 -1.653 11
13.999 1.745 -1.618 12
15.707 1.967 -1.567 11
17.816999 2.2409999 -1.497 12
20.756001 2.625 -1.42 15
24.886999 3.1630001 -1.314 5
12.145 1.569 -1.6619999 12
13.476 1.748 -1.63 12
15.088 1.964 -1.585 10
17.046 2.2279999 -1.522 11
19.711 2.589 -1.451 14
23.298 3.075 -1.351 6
11.704 1.571 -1.6670001 11
12.963 1.745 -1.638 12
14.491 1.957 -1.6 12
16.289 2.2090001 -1.541 10
18.659 2.54 -1.471 12
21.704 2.9679999 -1.3710001 10
11.297 1.5700001 -1.671 11
12.484 1.7410001 -1.646 12
13.955 1.952 -1.617 12
15.605 2.1900001 -1.5599999 9
17.777 2.5050001 -1.4960001 11
20.632999 2.9189999 -1.4119999 15
10.961 1.576 -1.684 13
12.031 1.735 -1.654 11
13.423 1.941 -1.63 12
15.005 2.1760001 -1.582 10
16.954 2.4679999 -1.518 10
19.576 2.8599999 -1.444 14
10.616 1.577 -1.692 12
11.615 1.729 -1.6619999 12
12.906 1.927 -1.6390001 12
14.418 2.158 -1.6 11
16.228001 2.437 -1.5420001 9
18.555 2.796 -1.47 13
10.295 1.577 -1.701 11
11.21 1.72 -1.669 13
12.428 1.9119999 -1.649 11
13.85 2.1359999 -1.614 11
15.559 2.4059999 -1.5650001 9
17.639 2.737 -1.494 11
9.9700003 1.573 -1.706 11
10.855 1.715 -1.679 13
11.972 1.895 -1.6569999 12
13.318 2.1129999 -1.628 12
14.888 2.368 -1.58 11
16.816999 2.684 -1.518 10
9.6660004 1.568 -1.712 11
10.512 1.7079999 -1.688 11
11.537 1.877 -1.664 11
12.793 2.086 -1.638 11
14.268 2.332 -1.596 10
16.066999 2.6340001 -1.541 9
9.3769999 1.563 -1.7180001 11
10.179 1.698 -1.696 11
11.136 1.8609999 -1.6720001 12
12.303 2.059 -1.647 11
13.738 2.3050001 -1.617 12
15.367 2.585 -1.562 10
9.1040001 1.558 -1.724 11
9.8500004 1.687 -1.702 11
10.774 1.847 -1.683 12
11.837 2.0320001 -1.655 11
13.169 2.2650001 -1.627 11
14.73 2.539 -1.5829999 11
8.8439999 1.551 -1.7309999 10
9.5509996 1.676 -1.709 10
10.409 1.829 -1.6900001 11
11.406 2.006 -1.665 11
12.644 2.2279999 -1.6390001 11
14.119 2.493 -1.602 11
8.5939999 1.543 -1.737 11
9.2589998 1.664 -1.715 10
10.077 1.812 -1.698 11
11.007 1.9809999 -1.673 13
12.153 2.1900001 -1.648 12
13.553 2.448 -1.618 11
8.3509998 1.535 -1.742 10
8.9770002 1.65 -1.72 11
9.75 1.793 -1.704 11
10.64 1.9579999 -1.683 11
11.692 2.154 -1.6569999 10
12.995 2.398 -1.63 11
8.1210003 1.525 -1.747 11
8.7270002 1.6390001 -1.728 11
9.4370003 1.773 -1.71 11
10.271 1.931 -1.689 11
11.283 2.1229999 -1.668 10
12.481 2.352 -1.641 11
7.908 1.517 -1.753 10
8.4750004 1.625 -1.733 11
9.1669998 1.758 -1.719 11
9.9449997 1.908 -1.698 11
10.869 2.0869999 -1.675 11
11.991 2.3050001 -1.65 11
7.6999998 1.507 -1.758 11
8.2299995 1.61 -1.738 11
8.8730001 1.7359999 -1.722 11
9.625 1.883 -1.705 11
10.481 2.052 -1.682 11
11.534 2.2609999 -1.66 10
7.4949999 1.4960001 -1.763 10
8.0080004 1.598 -1.745 11
8.625 1.72 -1.7309999 11
9.3260002 1.86 -1.7130001 11
10.153 2.026 -1.694 11
11.099 2.2160001 -1.668 11
7.3060002 1.4859999 -1.7690001 9
7.7859998 1.582 -1.749 10
8.3699999 1.7 -1.735 11
9.026 1.8329999 -1.717 10
9.8079996 1.992 -1.7 11
10.699 2.174 -1.675 12
7.1290002 1.476 -1.776 10
7.5890002 1.5700001 -1.756 10
8.132 1.681 -1.74 10
8.7629995 1.811 -1.724 11
9.5030003 1.964 -1.709 11
10.342 2.138 -1.686 10
6.9130001 1.457 -1.771 12
7.3889999 1.5549999 -1.761 10
7.9000001 1.661 -1.745 10
8.5019999 1.7869999 -1.73 10
9.1949997 1.932 -1.715 11
9.9910002 2.0999999 -1.694 11
6.743 1.4450001 -1.776 11
7.1760001 1.535 -1.761 11
7.7059999 1.647 -1.755 11
8.2469997 1.761 -1.734 10
8.9139996 1.903 -1.721 10
9.6560001 2.0610001 -1.7 12
6.579 1.433 -1.779 11
6.9819999 1.518 -1.762 11
7.4860001 1.625 -1.756 10
8.0200005 1.739 -1.7410001 10
8.6420002 1.873 -1.727 11
9.3540001 2.027 -1.709 11
6.4200001 1.42 -1.783 11
6.8099999 1.503 -1.767 11
7.2880001 1.6059999 -1.761 11
7.8049998 1.7180001 -1.749 10
8.3889999 1.845 -1.733 10
9.0620003 1.993 -1.716 11
6.2719998 1.408 -1.789 10
6.652 1.49 -1.775 10
7.0910001 1.586 -1.7640001 12
7.598 1.696 -1.7539999 10
8.1450005 1.817 -1.738 10
8.7919998 1.96 -1.724 10
6.1290002 1.396 -1.7920001 10
6.494 1.475 -1.779 10
6.9130001 1.567 -1.768 11
7.4120002 1.678 -1.763 10
7.9070001 1.788 -1.7410001 10
8.5179996 1.924 -1.727 10
5.9790001 1.381 -1.794 10
6.3379998 1.46 -1.783 10
6.7420001 1.549 -1.773 10
7.1929998 1.65 -1.762 11
7.7030001 1.7640001 -1.75 10
8.2600002 1.89 -1.732 10
5.849 1.369 -1.799 9
6.1900001 1.444 -1.7869999 10
6.5799999 1.531 -1.778 11
7.013 1.6289999 -1.767 11
7.4879999 1.7359999 -1.753 11
8.0310001 1.86 -1.739 10
5.7129998 1.354 -1.801 10
6.0380001 1.426 -1.788 10
6.4190001 1.512 -1.781 11
6.8260002 1.605 -1.7690001 10
7.3210001 1.7180001 -1.765 10
7.8119998 1.831 -1.745 10
5.585 1.34 -1.803 10
5.9089999 1.413 -1.794 10
6.2740002 1.495 -1.7869999 10
6.664 1.584 -1.775 10
7.1139998 1.688 -1.765 12
7.6110001 1.803 -1.753 10
5.4590001 1.325 -1.804 9
5.7659998 1.3940001 -1.794 9
6.1240001 1.476 -1.789 10
6.506 1.564 -1.78 10
6.9219999 1.66 -1.767 10
7.3899999 1.77 -1.7539999 11
5.3330002 1.309 -1.804 9
5.6389999 1.3789999 -1.798 9
5.9790001 1.457 -1.7920001 11
6.3530002 1.544 -1.785 11
6.743 1.635 -1.77 11
7.1929998 1.74 -1.757 10
5.2160001 1.294 -1.806 9
5.5050001 1.36 -1.7970001 9
5.8400002 1.438 -1.794 10
6.211 1.525 -1.79 11
6.5799999 1.6109999 -1.774 10
7.0019999 1.711 -1.76 11
5.1079998 1.28 -1.809 10
5.3930001 1.346 -1.802 9
5.7160001 1.421 -1.799 10
6.0510001 1.499 -1.789 10
6.4310002 1.589 -1.781 11
6.8169999 1.681 -1.762 10
5.0009999 1.266 -1.811 9
5.277 1.33 -1.8049999 10
5.5879998 1.403 -1.801 10
5.9169998 1.48 -1.793 10
6.2880001 1.568 -1.7869999 10
6.6589999 1.656 -1.7690001 10
4.8930001 1.25 -1.811 10
5.1560001 1.311 -1.803 10
5.4650002 1.3839999 -1.803 9
5.7859998 1.46 -1.796 10
6.1290002 1.5420001 -1.786 10
6.506 1.632 -1.775 10
4.7859998 1.234 -1.809 9
5.0500002 1.296 -1.806 10
5.3460002 1.365 -1.8049999 10
5.6620002 1.4400001 -1.8 10
5.993 1.5190001 -1.79 10
6.3649998 1.609 -1.7819999 11
4.6919999 1.22 -1.812 9
4.9510002 1.281 -1.809 11
5.2319999 1.347 -1.806 9
5.533 1.419 -1.801 11
5.8590002 1.497 -1.793 10
6.2150002 1.5829999 -1.785 10
4.6040001 1.207 -1.816 10
4.8429999 1.263 -1.809 11
5.1209998 1.329 -1.808 11
5.4089999 1.398 -1.801 11
5.7249999 1.473 -1.795 10
6.059 1.554 -1.784 10
4.513 1.193 -1.817 9
4.7480001 1.247 -1.811 11
5.02 1.312 -1.811 10
5.2909999 1.377 -1.802 11
5.6079998 1.4529999 -1.8 10
5.9310002 1.531 -1.789 10
4.421 1.177 -1.816 9
4.6539998 1.232 -1.812 10
4.9159999 1.294 -1.811 10
5.1760001 1.3559999 -1.802 10
5.4819999 1.4299999 -1.8 10
5.803 1.508 -1.7920001 11
4.3449998 1.164 -1.8200001 9
4.5689998 1.217 -1.816 10
4.8060002 1.273 -1.808 11
5.085 1.34 -1.809 10
5.3559999 1.405 -1.798 10
5.6739998 1.483 -1.794 10
4.2639999 1.15 -1.822 9
4.48 1.201 -1.816 10
4.7150002 1.256 -1.811 11
4.973 1.318 -1.807 10
5.25 1.385 -1.801 10
5.553 1.459 -1.796 9
4.1880002 1.137 -1.824 9
4.3930001 1.1849999 -1.817 10
4.625 1.24 -1.813 11
4.8779998 1.3 -1.8099999 11
5.1490002 1.3660001 -1.8049999 11
5.4130001 1.4299999 -1.791 10
4.1100001 1.123 -1.825 9
4.316 1.17 -1.8200001 10
4.5359998 1.222 -1.814 11
4.7779999 1.28 -1.8099999 11
5.026 1.339 -1.8 9
5.3140001 1.41 -1.7970001 10
4.0359998 1.108 -1.826 9
4.244 1.1569999 -1.824 10
4.4549999 1.206 -1.817 10
4.6880002 1.262 -1.811 11
4.941 1.323 -1.806 10
5.1929998 1.383 -1.793 10
3.964 1.094 -1.827 9
4.1599998 1.14 -1.822 11
4.375 1.1900001 -1.818 10
4.5970001 1.243 -1.812 10
4.8470001 1.303 -1.808 11
5.1149998 1.368 -1.803 10
3.901 1.082 -1.83 9
4.092 1.126 -1.825 10
4.2979999 1.174 -1.8200001 11
4.5159998 1.225 -1.814 10
4.75 1.281 -1.807 11
5.0170002 1.346 -1.8049999 10
3.8340001 1.068 -1.831 9
4.0209999 1.1109999 -1.826 10
4.2309999 1.16 -1.825 11
4.4320002 1.207 -1.814 10
4.6570001 1.26 -1.806 10
4.921 1.324 -1.807 10
3.7820001 1.057 -1.8380001 8
3.95 1.095 -1.826 10
4.1500001 1.142 -1.823 10
4.3579998 1.1900001 -1.817 9
4.5710001 1.2410001 -1.807 10
4.8210001 1.301 -1.804 11
3.717 1.043 -1.837 9
3.8870001 1.081 -1.8279999 10
4.0780001 1.125 -1.823 10
4.2859998 1.174 -1.8200001 10
4.5019999 1.225 -1.813 10
4.7360001 1.281 -1.807 11
3.658 1.03 -1.84 9
3.8329999 1.069 -1.834 9
4.0159998 1.1109999 -1.827 10
4.2119999 1.1569999 -1.821 10
4.4229999 1.206 -1.814 10
4.6440001 1.258 -1.806 10
3.6010001 1.017 -1.841 8
3.7650001 1.053 -1.832 9
3.9419999 1.0930001 -1.825 10
4.1440001 1.14 -1.823 10
4.3460002 1.187 -1.8150001 10
4.5650001 1.239 -1.808 10
3.5450001 1.003 -1.842 8
3.711 1.04 -1.836 10
3.882 1.079 -1.827 10
4.0749998 1.123 -1.823 10
4.276 1.17 -1.817 10
4.4949999 1.221 -1.811 10
3.487 0.98900002 -1.841 8
3.6559999 1.027 -1.8380001 9
3.8239999 1.064 -1.829 9
4.0100002 1.1059999 -1.824 10
4.21 1.152 -1.819 11
4.4219999 1.202 -1.813 9
3.437 0.977 -1.8430001 8
3.602 1.013 -1.839 9
3.7679999 1.05 -1.831 10
3.948 1.09 -1.824 10
4.1479998 1.136 -1.822 10
4.355 1.184 -1.816 10
3.3870001 0.96399999 -1.844 8
3.549 0.99900001 -1.84 9
3.7179999 1.0369999 -1.835 9
3.8940001 1.076 -1.8279999 10
4.079 1.118 -1.821 10
4.2849998 1.165 -1.816 9
3.342 0.95200002 -1.847 8
3.4979999 0.986 -1.841 9
3.6619999 1.021 -1.835 9
3.8329999 1.059 -1.8279999 9
4.0219998 1.102 -1.824 9
4.2179999 1.146 -1.817 10
3.289 0.93699998 -1.844 8
3.45 0.972 -1.8430001 9
3.6159999 1.008 -1.84 9
3.776 1.043 -1.8279999 9
3.9619999 1.085 -1.825 9
4.151 1.127 -1.817 9
3.2449999 0.92500001 -1.846 7
3.402 0.95899999 -1.844 9
3.5680001 0.99400002 -1.842 8
3.723 1.028 -1.83 9
3.895 1.0650001 -1.821 9
4.0960002 1.1109999 -1.821 9
3.1949999 0.91100001 -1.844 7
3.3529999 0.94400001 -1.844 8
3.5139999 0.97899997 -1.84 9
3.6760001 1.013 -1.8329999 8
3.8440001 1.05 -1.824 9
4.0370002 1.0930001 -1.822 9
3.151 0.898 -1.844 7
3.3050001 0.93000001 -1.8430001 8
3.47 0.96600002 -1.8430001 9
3.6270001 0.99800003 -1.835 8
3.793 1.034 -1.826 9
3.9779999 1.075 -1.822 9
3.1129999 0.88599998 -1.846 7
3.263 0.917 -1.845 8
3.421 0.94999999 -1.8430001 8
3.582 0.98400003 -1.837 8
3.7420001 1.018 -1.827 8
3.921 1.057 -1.822 9
3.0769999 0.875 -1.85 7
3.2260001 0.90499997 -1.848 7
3.3829999 0.93800002 -1.846 8
3.5380001 0.97000003 -1.839 8
3.694 1.002 -1.8279999 8
3.872 1.041 -1.824 8
3.0350001 0.86199999 -1.848 6
3.175 0.889 -1.842 8
3.3369999 0.92299998 -1.845 8
3.494 0.95499998 -1.84 9
3.655 0.98900002 -1.8329999 8
3.8239999 1.024 -1.825 9
3.0020001 0.85000002 -1.85 7
3.145 0.87900001 -1.848 8
3.2920001 0.90799999 -1.8430001 9
3.447 0.94 -1.8380001 9
3.6059999 0.972 -1.831 9
3.7820001 1.0089999 -1.829 9
2.964 0.838 -1.849 6
3.0999999 0.86400002 -1.844 8
3.2539999 0.89499998 -1.844 8
3.4119999 0.92699999 -1.842 9
3.569 0.95899999 -1.836 9
3.7309999 0.99199998 -1.827 8
0 0 0 0
3.0710001 0.85299999 -1.848 7
3.2160001 0.88099998 -1.845 8
3.3699999 0.912 -1.842 8
3.5309999 0.94400001 -1.8380001 8
3.6949999 0.977 -1.832 8
1.559 0.43799999 -0.99599999 4
3.0350001 0.83999997 -1.848 7
3.1800001 0.86799997 -1.845 7
3.3340001 0.898 -1.844 8
3.49 0.92900002 -1.839 8
3.658 0.963 -1.836 8
1.524 0.42699999 -0.98500001 3
3.0090001 0.829 -1.853 7
3.145 0.85500002 -1.846 8
3.2939999 0.88300002 -1.842 8
3.4460001 0.91299999 -1.837 9
3.6129999 0.94599998 -1.835 8
1.48 0.412 -0.96700001 3
2.973 0.81599998 -1.851 7
3.1099999 0.84100002 -1.846 7
3.2609999 0.87 -1.844 8
3.414 0.89899999 -1.84 8
3.5699999 0.92900002 -1.8329999 8
0 0 0 0
0 0 0 0
3.0799999 0.82800001 -1.847 8
3.2309999 0.85699999 -1.847 8
3.382 0.88499999 -1.842 9
3.543 0.91600001 -1.839 8
0 0 0 0
1.599 0.43399999 -1.016 4
3.043 0.81400001 -1.844 7
3.1949999 0.84200001 -1.845 8
3.3399999 0.86900002 -1.8380001 8
3.4990001 0.89899999 -1.836 8
0 0 0 0
1.548 0.41800001 -0.99400002 2
3.0220001 0.80299997 -1.849 7
3.1659999 0.829 -1.847 7
3.3069999 0.85399997 -1.839 8
3.4649999 0.884 -1.836 8
0 0 0 0
1.5140001 0.40599999 -0.98100001 2
2.994 0.79000002 -1.85 6
3.132 0.81400001 -1.844 7
3.28 0.84100002 -1.841 8
3.4400001 0.87099999 -1.84 8
0 0 0 0
0 0 0 0
1.536 0.40200001 -0.95700002 0
3.102 0.80000001 -1.8430001 8
3.25 0.82700002 -1.841 8
3.4059999 0.85500002 -1.839 8
0 0 0 0
0 0 0 0
0 0 0 0
3.079 0.78799999 -1.846 6
3.2260001 0.81400001 -1.8430001 8
3.3710001 0.83899999 -1.837 8
0 0 0 0
0 0 0 0
1.617 0.417 -1.025 2
3.053 0.77499998 -1.846 7
3.198 0.79900002 -1.8430001 8
3.349 0.82599998 -1.84 8
0 0 0 0
0 0 0 0
1.5599999 0.39899999 -0.99699998 2
3.027 0.76099998 -1.845 6
3.1700001 0.78500003 -1.842 7
3.3210001 0.81099999 -1.84 7
0 0 0 0
0 0 0 0
1.52 0.38499999 -0.98000002 2
3.0050001 0.74900001 -1.846 6
3.148 0.77200001 -1.8430001 7
3.302 0.79799998 -1.844 8
0 0 0 0
0 0 0 0
1.499 0.37599999 -0.97299999 2
2.984 0.736 -1.846 7
3.1240001 0.75800002 -1.8430001 7
3.273 0.78200001 -1.841 7
0 0 0 0
0 0 0 0
1.475 0.366 -0.96399999 2
1.577 0.384 -0.98199999 0
3.1010001 0.74400002 -1.842 7
3.2539999 0.76899999 -1.8430001 7
0 0 0 0
0 0 0 0
1.4529999 0.35699999 -0.95599997 2
0 0 0 0
3.089 0.73299998 -1.847 7
3.2349999 0.755 -1.844 7
0 0 0 0
0 0 0 0
0 0 0 0
0 0 0 0
3.0710001 0.72000003 -1.847 6
3.2130001 0.741 -1.8430001 7
0 0 0 0
0 0 0 0
0 0 0 0
1.577 0.37099999 -1.001 1
3.052 0.70599997 -1.846 7
3.1949999 0.727 -1.8430001 7
0 0 0 0
0 0 0 0
0 0 0 0
1.55 0.36000001 -0.98900002 1
3.0339999 0.69300002 -1.846 7
3.178 0.71399999 -1.844 7
1.194 0.292 -0.88599998 10
0 0 0 0
0 0 0 0
1.528 0.34999999 -0.97899997 2
3.02 0.68000001 -1.846 7
3.161 0.69999999 -1.8430001 7
0 0 0 0
0 0 0 0
0 0 0 0
1.512 0.34200001 -0.97399998 2
3.006 0.667 -1.846 7
3.148 0.68599999 -1.844 7
0 0 0 0
0 0 0 0
0 0 0 0
1.499 0.33399999 -0.97000003 2
2.9920001 0.65399998 -1.845 6
3.1329999 0.67299998 -1.8430001 7
0 0 0 0
0 0 0 0
0 0 0 0
1.49 0.32699999 -0.96700001 2
2.987 0.64300001 -1.849 6
3.1240001 0.66000003 -1.845 7
0 0 0 0
0 0 0 0
0 0 0 0
1.478 0.31900001 -0.963 2
0 0 0 0
3.1110001 0.64600003 -1.8430001 7
0 0 0 0
0 0 0 0
0 0 0 0
1.462 0.31 -0.95599997 2
2.9489999 0.61400002 -1.8380001 8
3.0999999 0.63300002 -1.8430001 7
0 0 0 0
0 0 0 0
0 0 0 0
1.457 0.30399999 -0.95499998 2
0 0 0 0
3.0969999 0.62099999 -1.846 7
0 0 0 0
0 0 0 0
0 0 0 0
1.444 0.296 -0.949 2
0 0 0 0
3.0899999 0.60799998 -1.846 6
0 0 0 0
0 0 0 0
0 0 0 0
0 0 0 0
0 0 0 0
3.0840001 0.59500003 -1.846 6
0 0 0 0
0 0 0 0
0 0 0 0
0 0 0 0
0 0 0 0
3.0780001 0.58200002 -1.846 6
0 0 0 0
0 0 0 0
0 0 0 0
1.4299999 0.27599999 -0.94400001 2
1.732 0.32699999 -1.09 2
3.072 0.56800002 -1.844 7
0 0 0 0
0 0 0 0
0 0 0 0
0 0 0 0
1.637 0.30199999 -1.031 1
3.073 0.55599999 -1.846 7
0 0 0 0
0 0 0 0
0 0 0 0
0 0 0 0
1.618 0.292 -1.0190001 1
3.0699999 0.54299998 -1.845 7
0 0 0 0
0 0 0 0
0 0 0 0
0 0 0 0
1.604 0.28299999 -1.011 1
3.0710001 0.52999997 -1.846 6
0 0 0 0
0 0 0 0
0 0 0 0
0 0 0 0
1.6059999 0.27700001 -1.012 1
3.073 0.51800001 -1.846 6
0 0 0 0
0 0 0 0
0 0 0 0
0 0 0 0
1.6109999 0.271 -1.0140001 1
3.0739999 0.505 -1.846 7
0 0 0 0
0 0 0 0
0 0 0 0
1.433 0.241 -0.94499999 2
1.649 0.27000001 -1.0369999 1
3.076 0.49200001 -1.845 7
0 0 0 0
0 0 0 0
0 0 0 0
1.434 0.234 -0.94400001 2
1.7309999 0.27599999 -1.087 2
3.085 0.47999999 -1.848 6
0 0 0 0
0 0 0 0
0 0 0 0
1.4400001 0.229 -0.94599998 2
0 0 0 0
3.089 0.46700001 -1.847 6
0 0 0 0
0 0 0 0
0 0 0 0
1.448 0.22400001 -0.94999999 2
0 0 0 0
3.098 0.454 -1.847 6
0 0 0 0
0 0 0 0
0 0 0 0
1.454 0.21799999 -0.95099998 2
0 0 0 0
3.1059999 0.442 -1.848 6
0 0 0 0
0 0 0 0
0 0 0 0
1.459 0.212 -0.95099998 2
0 0 0 0
3.1140001 0.42899999 -1.847 6
0 0 0 0
0 0 0 0
0 0 0 0
1.473 0.207 -0.95700002 2
2.97 0.40700001 -1.84 10
3.1229999 0.41600001 -1.846 7
0 0 0 0
0 0 0 0
0 0 0 0
1.488 0.20299999 -0.963 2
2.9920001 0.396 -1.847 6
3.1359999 0.40400001 -1.847 7
0 0 0 0
0 0 0 0
0 0 0 0
1.501 0.198 -0.96799999 2
3.017 0.38600001 -1.855 6
3.145 0.391 -1.845 7
0 0 0 0
0 0 0 0
0 0 0 0
1.505 0.191 -0.96600002 2
3.017 0.37200001 -1.847 6
3.1630001 0.37900001 -1.847 7
0 0 0 0
0 0 0 0
0 0 0 0
1.523 0.186 -0.97299999 2
3.0369999 0.361 -1.85 6
3.177 0.366 -1.847 7
1.21 0.15800001 -0.889 10
0 0 0 0
1.402 0.171 -0.935 5
1.544 0.182 -0.98100001 1
3.0469999 0.34799999 -1.847 6
3.1989999 0.354 -1.85 7
0 0 0 0
0 0 0 0
1.418 0.16599999 -0.94 5
1.562 0.177 -0.98799998 1
3.0639999 0.336 -1.848 7
3.211 0.34099999 -1.847 7
0 0 0 0
0 0 0 0
1.428 0.161 -0.94199997 5
1.612 0.175 -1.0140001 1
3.085 0.324 -1.849 7
3.2309999 0.329 -1.847 7
0 0 0 0
0 0 0 0
1.444 0.156 -0.94599998 4
0 0 0 0
3.1129999 0.31299999 -1.855 6
3.257 0.317 -1.851 7
0 0 0 0
0 0 0 0
1.466 0.15099999 -0.95499998 3
2.974 0.296 -1.847 8
3.1240001 0.30000001 -1.849 7
3.2809999 0.30399999 -1.852 7
0 0 0 0
0 0 0 0
1.49 0.147 -0.96399999 2
3.0090001 0.28600001 -1.855 6
3.151 0.28799999 -1.853 7
3.296 0.29100001 -1.848 7
0 0 0 0
0 0 0 0
1.511 0.142 -0.97000003 2
3.0280001 0.27399999 -1.854 7
3.1659999 0.27500001 -1.848 7
3.3210001 0.278 -1.849 8
0 0 0 0
0 0 0 0
1.5420001 0.138 -0.98299998 2
3.0539999 0.26199999 -1.8559999 7
3.1930001 0.26300001 -1.85 8
3.3529999 0.266 -1.852 8
0 0 0 0
1.418 0.126 -0.94099998 6
1.564 0.133 -0.98900002 2
3.076 0.25 -1.855 7
3.2119999 0.25 -1.847 7
3.368 0.252 -1.846 7
0 0 0 0
1.441 0.121 -0.949 5
1.666 0.134 -1.045 1
3.098 0.23800001 -1.854 7
3.244 0.23899999 -1.85 8
3.4030001 0.23999999 -1.85 7
0 0 0 0
1.464 0.116 -0.95599997 4
2.951 0.22400001 -1.837 6
3.1289999 0.227 -1.8559999 7
3.2720001 0.226 -1.851 8
3.4319999 0.227 -1.85 8
0 0 0 0
1.489 0.111 -0.96399999 4
3.0120001 0.215 -1.858 7
3.1489999 0.214 -1.852 7
3.3039999 0.214 -1.852 7
3.4619999 0.214 -1.85 8
0 0 0 0
1.5190001 0.107 -0.97500002 3
3.0350001 0.20299999 -1.8559999 7
3.1819999 0.20200001 -1.854 7
3.3299999 0.20100001 -1.85 8
3.4990001 0.20100001 -1.852 8
1.401 0.097000003 -0.93400002 5
1.5599999 0.103 -0.99199998 2
3.0669999 0.192 -1.858 7
3.2119999 0.19 -1.855 7
3.368 0.189 -1.853 8
3.533 0.18799999 -1.852 8
1.4299999 0.093000002 -0.94499999 4
1.6210001 0.098999999 -1.021 2
3.0969999 0.18000001 -1.858 8
3.2409999 0.178 -1.853 8
3.395 0.176 -1.85 8
3.5599999 0.175 -1.848 8
1.455 0.088 -0.95200002 4
0 0 0 0
3.128 0.168 -1.858 7
3.2750001 0.16599999 -1.854 8
3.4360001 0.164 -1.853 8
3.598 0.161 -1.849 8
1.487 0.082999997 -0.963 3
3.02 0.15899999 -1.863 7
3.1570001 0.156 -1.8559999 8
3.3110001 0.154 -1.855 8
3.47 0.15099999 -1.852 8
3.645 0.149 -1.853 8
1.525 0.078000002 -0.977 2
3.0480001 0.147 -1.8609999 7
3.191 0.14399999 -1.8559999 7
3.349 0.141 -1.8559999 8
3.5090001 0.138 -1.853 9
3.6760001 0.13500001 -1.849 8
1.562 0.074000001 -0.99000001 2
3.079 0.13600001 -1.86 7
3.2260001 0.132 -1.857 8
3.388 0.12899999 -1.858 8
3.546 0.125 -1.852 8
3.721 0.122 -1.85 8
0 0 0 0
3.1159999 0.124 -1.8609999 7
3.2579999 0.12 -1.855 7
3.4260001 0.117 -1.858 8
3.586 0.112 -1.852 8
3.7590001 0.108 -1.848 8
0 0 0 0
3.152 0.113 -1.8609999 8
3.2969999 0.108 -1.855 8
3.4619999 0.104 -1.855 8
3.6329999 0.098999999 -1.854 8
3.803 0.093999997 -1.847 9
3.0369999 0.105 -1.8609999 7
3.1819999 0.101 -1.858 8
3.339 0.096000001 -1.857 8
3.5090001 0.092 -1.858 8
3.677 0.086000003 -1.854 8
3.8429999 0.081 -1.844 8
3.073 0.093999997 -1.86 7
3.223 0.089000002 -1.86 8
3.3789999 0.083999999 -1.857 8
3.546 0.079000004 -1.8559999 9
3.717 0.072999999 -1.851 8
3.8959999 0.067000002 -1.846 9
3.1140001 0.082999997 -1.863 6
3.2609999 0.078000002 -1.858 8
3.421 0.071999997 -1.857 8
3.586 0.066 -1.853 9
3.7620001 0.059999999 -1.85 8
3.941 0.052999999 -1.8430001 9
3.148 0.071999997 -1.86 7
3.3050001 0.066 -1.86 9
3.4690001 0.059999999 -1.859 8
3.632 0.052999999 -1.852 8
3.8080001 0.046999998 -1.848 9
3.9879999 0.039999999 -1.84 9
3.187 0.059999999 -1.859 8
3.346 0.054000001 -1.859 8
3.5090001 0.048 -1.8559999 8
3.6830001 0.041000001 -1.854 9
3.8570001 0.033 -1.847 8
4.0409999 0.026000001 -1.839 9
3.233 0.048999999 -1.862 8
3.392 0.041999999 -1.86 9
3.559 0.035 -1.858 9
3.7309999 0.028000001 -1.853 8
3.901 0.02 -1.842 9
4.1059999 0.012 -1.8430001 9
3.273 0.037 -1.86 8
3.437 0.029999999 -1.859 8
3.6059999 0.023 -1.857 8
3.783 0.015 -1.853 9
3.961 0.0070000002 -1.844 9
4.1680002 -0.001 -1.8430001 9
3.3139999 0.026000001 -1.858 8
3.4809999 0.017999999 -1.858 8
3.652 0.0099999998 -1.855 9
3.8299999 0.0020000001 -1.85 9
4.0159998 -0.0060000001 -1.8430001 10
4.2319999 -0.016000001 -1.844 9
3.362 0.014 -1.858 8
3.5309999 0.0060000001 -1.858 9
3.711 -0.001 -1.858 9
3.8840001 -0.0099999998 -1.849 9
4.0799999 -0.02 -1.845 9
4.2930002 -0.029999999 -1.842 10
3.4119999 0.003 -1.86 8
3.5899999 -0.0049999999 -1.862 9
3.7579999 -0.014 -1.854 8
3.9349999 -0.023 -1.845 9
4.1469998 -0.033 -1.847 10
4.3569999 -0.044 -1.841 10
3.4619999 -0.0080000004 -1.859 8
3.631 -0.017000001 -1.8559999 9
3.8139999 -0.026000001 -1.854 9
3.9960001 -0.035999998 -1.846 9
4.2030001 -0.046999998 -1.8430001 9
4.4239998 -0.057999998 -1.84 10
3.5139999 -0.02 -1.8609999 8
3.687 -0.028999999 -1.857 9
3.8740001 -0.039000001 -1.855 9
4.0580001 -0.050000001 -1.846 10
4.2709999 -0.061000001 -1.8430001 10
4.5029998 -0.072999999 -1.842 10
3.563 -0.030999999 -1.858 9
3.7460001 -0.041000001 -1.858 9
3.9200001 -0.050999999 -1.848 10
4.1240001 -0.063000001 -1.847 10
4.3439999 -0.075000003 -1.845 10
4.5739999 -0.088 -1.841 10
3.6270001 -0.043000001 -1.863 9
3.802 -0.052999999 -1.857 9
3.98 -0.064000003 -1.847 10
4.1900001 -0.075999998 -1.846 10
4.4089999 -0.089000002 -1.842 10
4.6469998 -0.102 -1.8380001 11
3.6719999 -0.055 -1.857 8
3.855 -0.066 -1.854 9
4.0419998 -0.077 -1.846 10
4.2589998 -0.089000002 -1.845 9
4.4899998 -0.103 -1.844 10
4.717 -0.117 -1.8329999 10
3.734 -0.067000002 -1.859 8
3.911 -0.078000002 -1.85 9
4.112 -0.090000004 -1.847 10
4.3319998 -0.103 -1.845 10
4.5599999 -0.117 -1.84 10
4.803 -0.132 -1.8329999 11
3.7909999 -0.079000004 -1.857 9
3.9719999 -0.090000004 -1.849 10
4.1820002 -0.103 -1.847 10
4.4070001 -0.117 -1.845 10
4.6360002 -0.131 -1.837 11
4.888 -0.147 -1.832 11
3.855 -0.090000004 -1.858 9
4.0339999 -0.102 -1.846 10
4.2610002 -0.116 -1.85 10
4.4809999 -0.13 -1.8430001 11
4.7210002 -0.146 -1.8380001 11
4.9860001 -0.162 -1.8329999 12
3.921 -0.102 -1.858 9
4.1009998 -0.115 -1.845 9
4.3330002 -0.12899999 -1.848 11
4.5619998 -0.14399999 -1.8430001 11
4.8060002 -0.16 -1.836 11
5.0809999 -0.177 -1.8329999 12
3.974 -0.114 -1.851 9
4.177 -0.127 -1.847 10
4.4099998 -0.142 -1.848 10
4.6420002 -0.15700001 -1.841 10
4.8969998 -0.17399999 -1.836 11
5.1719999 -0.192 -1.829 11
4.04 -0.125 -1.85 9
4.2579999 -0.14 -1.849 11
4.4910002 -0.155 -1.848 11
4.724 -0.171 -1.839 11
4.9879999 -0.189 -1.834 11
5.2690001 -0.208 -1.826 12
4.1100001 -0.138 -1.849 10
4.342 -0.153 -1.852 10
4.572 -0.168 -1.846 10
4.8060002 -0.185 -1.835 11
5.0939999 -0.204 -1.835 11
5.3759999 -0.223 -1.825 12
4.1869998 -0.15000001 -1.85 10
4.4099998 -0.16500001 -1.846 11
4.6500001 -0.18099999 -1.8430001 11
4.9000001 -0.199 -1.835 11
5.1929998 -0.219 -1.8329999 13
5.4770002 -0.23899999 -1.8200001 11
4.27 -0.162 -1.852 10
4.493 -0.177 -1.846 11
4.7379999 -0.19400001 -1.841 11
5.0100002 -0.213 -1.8380001 11
5.2979999 -0.233 -1.832 12
5.6009998 -0.255 -1.821 11
4.348 -0.17399999 -1.851 10
4.5840001 -0.19 -1.848 12
4.8299999 -0.208 -1.84 11
5.1110001 -0.227 -1.837 11
5.3979998 -0.248 -1.827 12
5.7199998 -0.271 -1.819 11
4.4299998 -0.186 -1.85 11
4.6620002 -0.20200001 -1.8430001 11
4.9289999 -0.221 -1.84 11
5.2080002 -0.241 -1.8329999 11
5.5089998 -0.26300001 -1.824 12
5.8379998 -0.28600001 -1.814 11
4.5170002 -0.198 -1.85 10
4.7459998 -0.215 -1.8380001 11
5.0320001 -0.235 -1.84 12
5.3260002 -0.25600001 -1.834 12
5.6100001 -0.27700001 -1.816 11
5.9720001 -0.303 -1.812 12
4.6040001 -0.20999999 -1.849 11
4.848 -0.227 -1.84 11
5.1389999 -0.248 -1.839 12
5.428 -0.26899999 -1.829 12
5.756 -0.29300001 -1.821 12
6.1009998 -0.31900001 -1.807 12
4.6960001 -0.222 -1.848 11
4.947 -0.23999999 -1.8380001 12
5.2449999 -0.26100001 -1.837 11
5.5450001 -0.28299999 -1.826 12
5.8920002 -0.30899999 -1.8200001 12
6.2589998 -0.336 -1.808 12
4.7800002 -0.233 -1.842 11
5.0560002 -0.25299999 -1.839 12
5.3530002 -0.27500001 -1.834 12
5.6630001 -0.29800001 -1.822 11
6.0219998 -0.324 -1.816 12
6.4239998 -0.35299999 -1.809 11
4.8790002 -0.245 -1.841 11
5.1669998 -0.266 -1.839 12
5.46 -0.28799999 -1.8279999 11
5.8000002 -0.31200001 -1.823 11
6.1409998 -0.338 -1.806 13
6.5869999 -0.37099999 -1.808 12
4.9809999 -0.257 -1.84 11
5.2659998 -0.278 -1.8329999 12
5.5830002 -0.301 -1.827 12
5.941 -0.32699999 -1.822 12
6.3280001 -0.35600001 -1.8150001 12
6.757 -0.38800001 -1.8049999 11
5.0929999 -0.26899999 -1.841 11
5.3839998 -0.28999999 -1.832 12
5.7140002 -0.315 -1.826 11
6.0830002 -0.34200001 -1.8200001 13
6.4910002 -0.37200001 -1.814 11
6.934 -0.405 -1.802 12
5.2020001 -0.28 -1.839 11
5.493 -0.30199999 -1.826 12
5.8470001 -0.32800001 -1.824 12
6.2350001 -0.35699999 -1.819 12
6.658 -0.38800001 -1.811 11
7.132 -0.42300001 -1.802 11
5.3119998 -0.292 -1.835 11
5.6149998 -0.31400001 -1.822 12
5.994 -0.34200001 -1.824 11
6.3940001 -0.37099999 -1.817 11
6.8309999 -0.40400001 -1.807 12
7.3410001 -0.442 -1.801 12
5.4260001 -0.303 -1.831 11
5.7529998 -0.32699999 -1.823 12
6.1389999 -0.35600001 -1.821 13
6.5510001 -0.38600001 -1.813 11
7.0149999 -0.41999999 -1.804 12
7.5349998 -0.45899999 -1.794 12
5.546 -0.31400001 -1.8279999 11
5.881 -0.33899999 -1.818 13
6.2820001 -0.368 -1.8150001 12
6.7150002 -0.40000001 -1.808 11
7.2259998 -0.43799999 -1.8049999 12
7.7470002 -0.47600001 -1.788 12
5.6750002 -0.32600001 -1.825 11
6.039 -0.352 -1.8200001 12
6.4629998 -0.38299999 -1.818 11
6.9050002 -0.41600001 -1.807 13
7.4159999 -0.45300001 -1.798 12
7.9910002 -0.49599999 -1.786 13
5.802 -0.33700001 -1.821 12
6.1869998 -0.36399999 -1.816 12
6.625 -0.396 -1.814 11
7.0879998 -0.43000001 -1.802 12
7.6300001 -0.47 -1.794 13
8.2399998 -0.514 -1.7819999 13
5.961 -0.34900001 -1.824 12
6.342 -0.37599999 -1.813 11
6.7979999 -0.40900001 -1.8099999 12
7.3039999 -0.44600001 -1.803 12
7.8740001 -0.48699999 -1.794 11
8.4960003 -0.53299999 -1.777 12
6.1100001 -0.36000001 -1.822 12
6.5100002 -0.389 -1.811 11
6.9780002 -0.42199999 -1.8049999 13
7.5029998 -0.46000001 -1.796 13
8.0939999 -0.50300002 -1.785 13
8.7810001 -0.55199999 -1.772 12
6.27 -0.37099999 -1.8200001 11
6.6859999 -0.40099999 -1.809 12
7.184 -0.43599999 -1.804 12
7.7309999 -0.47499999 -1.793 11
8.3719997 -0.52100003 -1.784 12
9.0640001 -0.57099998 -1.7640001 13
6.4380002 -0.382 -1.819 11
6.8709998 -0.41299999 -1.807 13
7.3920002 -0.44999999 -1.801 12
7.9879999 -0.49200001 -1.794 11
8.6129999 -0.53600001 -1.773 12
9.3690004 -0.58999997 -1.756 12
6.6100001 -0.39300001 -1.817 11
7.0560002 -0.42399999 -1.802 12
7.6059999 -0.463 -1.7970001 12
8.2110004 -0.505 -1.784 12
8.9060001 -0.55400002 -1.7690001 13
9.6969995 -0.60900003 -1.748 13
6.7800002 -0.403 -1.812 11
7.2649999 -0.43599999 -1.801 11
7.836 -0.47600001 -1.7920001 11
8.467 -0.51899999 -1.778 12
9.1940002 -0.56999999 -1.76 13
10.05 -0.62900001 -1.74 13
6.9640002 -0.41299999 -1.808 12
7.4699998 -0.447 -1.795 12
8.0860004 -0.48899999 -1.79 11
8.7580004 -0.53500003 -1.774 13
9.5249996 -0.588 -1.7539999 12
10.437 -0.64999998 -1.732 12
7.1680002 -0.42300001 -1.806 10
7.7270002 -0.461 -1.799 11
8.3319998 -0.50099999 -1.783 12
9.0340004 -0.54900002 -1.765 13
9.8570004 -0.60399997 -1.745 13
10.843 -0.671 -1.723 12
7.402 -0.435 -1.809 10
7.947 -0.47099999 -1.791 11
8.585 -0.51300001 -1.774 12
9.3360004 -0.56199998 -1.757 13
10.228 -0.62199998 -1.737 11
11.311 -0.69300002 -1.717 13
7.5910001 -0.442 -1.798 12
8.1870003 -0.48100001 -1.784 11
8.8830004 -0.52600002 -1.771 13
9.6719999 -0.57700002 -1.75 13
10.621 -0.639 -1.728 12
11.8 -0.71600002 -1.7079999 12
7.848 -0.45300001 -1.799 11
8.4469995 -0.491 -1.778 12
9.1800003 -0.537 -1.762 13
10.024 -0.59100002 -1.7410001 12
11.059 -0.65700001 -1.721 13
12.325 -0.73799998 -1.697 12
8.0749998 -0.46000001 -1.7920001 11
8.7220001 -0.50099999 -1.772 12
9.4969997 -0.54900002 -1.7539999 12
10.428 -0.60699999 -1.7359999 12
11.526 -0.676 -1.711 13
12.927 -0.76300001 -1.689 14
8.3240004 -0.46799999 -1.784 12
9.0080004 -0.50999999 -1.7640001 12
9.8409996 -0.56 -1.7460001 13
10.827 -0.62099999 -1.725 12
12.06 -0.69499999 -1.704 13
13.54 -0.78600001 -1.674 14
8.5760002 -0.47400001 -1.775 12
9.316 -0.51800001 -1.756 13
10.216 -0.57200003 -1.739 12
11.277 -0.63499999 -1.716 13
12.615 -0.71499997 -1.694 13
14.261 -0.81300002 -1.664 14
8.8760004 -0.48199999 -1.772 12
9.6569996 -0.528 -1.75 13
10.617 -0.583 -1.7309999 12
11.765 -0.64899999 -1.706 13
13.194 -0.73199999 -1.679 15
15.093 -0.84200001 -1.655 15
9.1759996 -0.48800001 -1.7640001 12
9.9989996 -0.53500003 -1.74 12
11.049 -0.59399998 -1.723 13
12.3 -0.66399997 -1.698 14
13.87 -0.75199997 -1.669 15
16.007 -0.87300003 -1.645 14
9.4989996 -0.49399999 -1.756 12
10.383 -0.542 -1.732 12
11.503 -0.60299999 -1.712 13
12.875 -0.67799997 -1.686 15
14.648 -0.77499998 -1.661 13
16.851999 -0.89499998 -1.6160001 15
9.8389997 -0.49900001 -1.749 12
10.805 -0.55000001 -1.725 13
12.019 -0.61400002 -1.704 13
13.503 -0.69199997 -1.674 14
15.512 -0.79699999 -1.65 15
17.843 -0.921 -1.587 14
10.2 -0.50300002 -1.739 12
11.249 -0.55599999 -1.715 13
12.574 -0.62300003 -1.694 14
14.222 -0.70700002 -1.664 14
16.403 -0.81699997 -1.631 15
19.046 -0.95200002 -1.563 13
10.61 -0.50700003 -1.732 12
11.746 -0.56199998 -1.7079999 13
13.167 -0.63099998 -1.681 14
15.012 -0.72100002 -1.653 14
17.297001 -0.833 -1.602 14
20.410999 -0.98500001 -1.5369999 15
11.04 -0.509 -1.724 13
12.251 -0.56599998 -1.6950001 13
13.848 -0.63999999 -1.6720001 14
15.937 -0.73799998 -1.6440001 14
18.398001 -0.85299999 -1.5779999 12
21.976 -1.02 -1.505 17
11.499 -0.50999999 -1.715 13
12.829 -0.56999999 -1.6849999 14
14.594 -0.64899999 -1.661 15
16.796 -0.74599999 -1.618 15
19.625999 -0.87300003 -1.55 14
23.871 -1.062 -1.475 10
11.994 -0.50999999 -1.704 12
13.456 -0.57200003 -1.674 16
15.435 -0.65600002 -1.65 15
17.764 -0.755 -1.59 11
21.058001 -0.89399999 -1.52 16
25.855 -1.098 -1.423 6
12.531 -0.509 -1.693 14
14.153 -0.574 -1.664 15
16.329 -0.66100001 -1.635 15
18.898001 -0.764 -1.564 13
22.75 -0.91900003 -1.492 11
0 0 0 0
13.139 -0.50599998 -1.684 14
14.937 -0.574 -1.654 15
17.208 -0.66000003 -1.6059999 14
20.208 -0.773 -1.536 15
24.583 -0.93800002 -1.447 7
29.604 -1.127 -1.237 15
13.8 -0.50199997 -1.674 14
15.812 -0.57300001 -1.643 14
18.233 -0.65799999 -1.5779999 12
21.722 -0.78200001 -1.507 17
27.481001 -0.986 -1.437 26
32.654999 -1.1670001 -1.151 77
14.502 -0.495 -1.6619999 14
16.688 -0.56599998 -1.622 21
19.431999 -0.65600002 -1.553 14
23.52 -0.79100001 -1.477 11
29.441999 -0.98500001 -1.346 23
32.655998 -1.087 -0.93800002 58
