# .PCD v0.7 - Point Cloud Data file format
VERSION 0.7
FIELDS x y z intensity
SIZE 4 4 4 4
TYPE F F F F
COUNT 1 1 1 1
WIDTH 1794
HEIGHT 1
VIEWPOINT 0 0 0 1 0 0 0
POINTS 1794
DATA ascii
3.8169999 -0.28 -1.847 9
4.006 -0.29899999 -1.84 9
4.2189999 -0.31999999 -1.8380001 10
4.448 -0.34200001 -1.834 9
3.51 -0.25799999 -1.852 8
3.6949999 -0.27500001 -1.853 8
3.872 -0.29300001 -1.844 9
4.0749998 -0.31299999 -1.841 9
4.296 -0.33500001 -1.84 10
4.5279999 -0.35800001 -1.836 10
3.566 -0.26899999 -1.852 8
3.7449999 -0.287 -1.848 9
3.9289999 -0.30500001 -1.841 9
4.151 -0.32699999 -1.844 10
4.3660002 -0.34900001 -1.837 10
4.599 -0.373 -1.831 10
3.6159999 -0.28 -1.848 8
3.8099999 -0.29899999 -1.85 10
3.9990001 -0.31900001 -1.842 9
4.2090001 -0.34 -1.8380001 10
4.4419999 -0.36300001 -1.837 10
4.6859999 -0.38800001 -1.832 10
3.678 -0.292 -1.85 9
3.869 -0.31200001 -1.848 9
4.0650001 -0.33199999 -1.841 10
4.2969999 -0.35499999 -1.844 10
4.52 -0.37799999 -1.836 10
4.7659998 -0.40400001 -1.829 11
3.7460001 -0.30500001 -1.853 8
3.9260001 -0.32300001 -1.8430001 10
4.1399999 -0.345 -1.8430001 10
4.3629999 -0.368 -1.839 10
4.5970001 -0.39199999 -1.8329999 10
4.8509998 -0.419 -1.827 11
3.806 -0.31600001 -1.851 8
3.9920001 -0.336 -1.842 9
4.2129998 -0.35800001 -1.842 10
4.4349999 -0.382 -1.836 10
4.6750002 -0.40700001 -1.829 10
4.9429998 -0.435 -1.825 11
3.8699999 -0.32800001 -1.849 8
4.0669999 -0.34799999 -1.8430001 11
4.29 -0.37200001 -1.842 10
4.52 -0.396 -1.836 11
4.7620001 -0.42199999 -1.8279999 10
5.0440001 -0.45100001 -1.826 11
3.937 -0.34 -1.849 8
4.1389999 -0.361 -1.842 10
4.368 -0.38499999 -1.841 10
4.5999999 -0.41 -1.834 10
4.8569999 -0.43700001 -1.8279999 11
5.1360002 -0.46700001 -1.821 11
4 -0.35100001 -1.845 9
4.2220001 -0.37400001 -1.845 10
4.454 -0.39899999 -1.842 10
4.6890001 -0.42399999 -1.8329999 10
4.9569998 -0.45199999 -1.8279999 12
5.237 -0.48300001 -1.819 12
4.0710001 -0.36300001 -1.8430001 9
4.2979999 -0.38699999 -1.8430001 10
4.5289998 -0.41100001 -1.8380001 11
4.776 -0.43799999 -1.83 11
5.0599999 -0.46799999 -1.829 12
5.3520002 -0.5 -1.8200001 12
4.1420002 -0.37400001 -1.841 9
4.3769999 -0.39899999 -1.842 10
4.6240001 -0.42500001 -1.84 11
4.8759999 -0.45300001 -1.831 11
5.1500001 -0.48199999 -1.823 13
5.4569998 -0.51599997 -1.816 12
4.2340002 -0.38699999 -1.847 9
4.4549999 -0.41100001 -1.839 10
4.7049999 -0.43799999 -1.836 11
4.9749999 -0.46700001 -1.831 12
5.2620001 -0.49900001 -1.823 12
5.585 -0.53399998 -1.817 12
4.3109999 -0.39899999 -1.845 9
4.5450001 -0.42399999 -1.84 11
4.7940001 -0.45100001 -1.8329999 11
5.0799999 -0.48199999 -1.831 12
5.3670001 -0.51300001 -1.819 12
5.711 -0.551 -1.816 12
4.3940001 -0.41100001 -1.844 10
4.6370001 -0.43700001 -1.84 11
4.8930001 -0.465 -1.832 12
5.178 -0.49599999 -1.826 13
5.4819999 -0.52899998 -1.816 12
5.829 -0.56699997 -1.811 12
4.48 -0.42300001 -1.844 10
4.7220001 -0.449 -1.836 11
5.007 -0.47999999 -1.835 13
5.289 -0.51099998 -1.824 13
5.6269999 -0.54699999 -1.822 12
5.9829998 -0.58700001 -1.814 11
4.5650001 -0.435 -1.84 10
4.8169999 -0.46200001 -1.8329999 11
5.1059999 -0.493 -1.831 13
5.395 -0.52399999 -1.819 12
5.7620001 -0.56400001 -1.822 11
6.1149998 -0.60299999 -1.809 13
4.6570001 -0.44600001 -1.839 10
4.915 -0.47400001 -1.831 12
5.2069998 -0.50599998 -1.827 13
5.5190001 -0.54000002 -1.819 12
5.901 -0.58099997 -1.822 12
6.2779999 -0.62300003 -1.811 12
4.75 -0.458 -1.837 10
5.0250001 -0.48800001 -1.832 13
5.322 -0.51999998 -1.826 14
5.6609998 -0.55599999 -1.822 11
6.0159998 -0.59500003 -1.812 12
6.441 -0.64200002 -1.8099999 13
4.849 -0.47 -1.835 11
5.1269999 -0.5 -1.8279999 12
5.4439998 -0.53399998 -1.825 11
5.8070002 -0.57300001 -1.824 12
6.1420002 -0.61000001 -1.804 13
6.6100001 -0.66000003 -1.809 13
4.9499998 -0.48100001 -1.8329999 11
5.243 -0.51300001 -1.8279999 12
5.5630002 -0.54699999 -1.821 12
5.9510002 -0.58899999 -1.825 12
6.3569999 -0.63300002 -1.8200001 13
6.7950001 -0.68099999 -1.8099999 13
5.0489998 -0.49200001 -1.829 11
5.3509998 -0.52499998 -1.823 14
5.7080002 -0.56300002 -1.825 12
6.0970001 -0.60399997 -1.823 13
6.5159998 -0.64999998 -1.817 14
6.9809999 -0.69999999 -1.808 13
5.1719999 -0.505 -1.832 11
5.473 -0.537 -1.822 11
5.855 -0.57800001 -1.826 12
6.2309999 -0.61799997 -1.816 13
6.677 -0.66600001 -1.812 13
7.1869998 -0.72100002 -1.809 12
5.2800002 -0.51599997 -1.827 12
5.6030002 -0.55000001 -1.8200001 11
5.994 -0.59100002 -1.823 12
6.4039998 -0.63499999 -1.818 12
6.8699999 -0.685 -1.813 13
7.3959999 -0.741 -1.807 13
5.3899999 -0.52600002 -1.822 11
5.7540002 -0.56400001 -1.824 11
6.1420002 -0.60500002 -1.821 13
6.572 -0.65100002 -1.8150001 13
7.0560002 -0.70200002 -1.809 13
7.598 -0.75999999 -1.801 12
5.5289998 -0.53899997 -1.825 11
5.8860002 -0.57599998 -1.8200001 12
6.3010001 -0.62 -1.819 13
6.75 -0.667 -1.814 12
7.2789998 -0.722 -1.812 13
7.8390002 -0.78200001 -1.801 14
5.665 -0.551 -1.824 11
6.04 -0.58999997 -1.8200001 11
6.473 -0.63499999 -1.8200001 12
6.9400001 -0.68300003 -1.813 13
7.4790001 -0.74000001 -1.807 14
8.0869999 -0.80299997 -1.799 14
5.8169999 -0.56400001 -1.827 11
6.1939998 -0.602 -1.818 13
6.6440001 -0.64899999 -1.817 12
7.1430001 -0.69999999 -1.812 12
7.7069998 -0.759 -1.8049999 14
8.3360004 -0.824 -1.793 14
5.9569998 -0.57499999 -1.824 12
6.3600001 -0.61500001 -1.818 13
6.823 -0.66299999 -1.814 12
7.3579998 -0.71700001 -1.812 13
7.9580002 -0.77899998 -1.806 14
8.6120005 -0.84600002 -1.791 12
6.1100001 -0.58600003 -1.823 12
6.5279999 -0.62800002 -1.8150001 13
7.0100002 -0.676 -1.811 12
7.573 -0.73299998 -1.808 12
8.2080002 -0.79799998 -1.802 14
8.8830004 -0.86699998 -1.7819999 13
6.27 -0.597 -1.821 11
6.7020001 -0.63999999 -1.813 12
7.2319999 -0.69300002 -1.814 13
7.8060002 -0.75 -1.806 13
8.467 -0.81699997 -1.798 12
9.1709995 -0.88700002 -1.775 13
6.4390001 -0.60799998 -1.821 12
6.8839998 -0.65200001 -1.8099999 13
7.4390001 -0.70599997 -1.8099999 14
8.0530005 -0.76700002 -1.804 13
8.7119999 -0.833 -1.7869999 12
9.4700003 -0.90799999 -1.766 13
6.6170001 -0.61900002 -1.8200001 12
7.0879998 -0.66500002 -1.8099999 13
7.6560001 -0.72000003 -1.806 12
8.3140001 -0.78399998 -1.801 12
8.9980001 -0.85100001 -1.78 12
9.802 -0.93000001 -1.757 14
6.7940001 -0.62900001 -1.816 12
7.3060002 -0.67799997 -1.8099999 13
7.908 -0.736 -1.807 13
8.5699997 -0.79900002 -1.795 13
9.283 -0.86799997 -1.77 13
10.153 -0.95200002 -1.748 14
6.9829998 -0.639 -1.814 12
7.5139999 -0.68900001 -1.8049999 13
8.1599998 -0.75 -1.804 13
8.816 -0.81199998 -1.7819999 12
9.6070004 -0.88700002 -1.762 13
10.527 -0.97500002 -1.737 14
7.1950002 -0.65100002 -1.814 13
7.7480001 -0.70099998 -1.803 14
8.415 -0.76300001 -1.798 12
9.1120005 -0.82800001 -1.775 13
9.9429998 -0.90499997 -1.753 13
10.945 -0.99900001 -1.729 14
7.4070001 -0.66000003 -1.812 13
8.0139999 -0.71499997 -1.806 12
8.6610003 -0.77399999 -1.788 13
9.4200001 -0.84299999 -1.768 13
10.316 -0.92500001 -1.7460001 13
11.379 -1.023 -1.7180001 14
7.6339998 -0.67000002 -1.8099999 13
8.2449999 -0.72399998 -1.798 14
8.948 -0.787 -1.7819999 13
9.7510004 -0.85900003 -1.761 13
10.696 -0.94300002 -1.735 13
11.871 -1.049 -1.71 14
7.8670001 -0.67900002 -1.807 13
8.5229998 -0.736 -1.796 13
9.2329998 -0.79799998 -1.772 13
10.097 -0.87400001 -1.751 13
11.125 -0.963 -1.726 13
12.404 -1.076 -1.701 14
8.1269999 -0.68800002 -1.806 13
8.7609997 -0.74199998 -1.7819999 12
9.5539999 -0.81 -1.765 14
10.471 -0.88800001 -1.742 14
11.605 -0.98500001 -1.7180001 14
12.974 -1.103 -1.688 13
8.3850002 -0.69599998 -1.801 13
9.0579996 -0.75199997 -1.776 12
9.8830004 -0.82099998 -1.756 14
10.861 -0.90200001 -1.7309999 13
12.075 -1.0039999 -1.705 15
13.604 -1.132 -1.678 13
8.625 -0.70099998 -1.79 12
9.3559999 -0.75999999 -1.7690001 13
10.243 -0.83200002 -1.747 14
11.302 -0.91799998 -1.722 14
12.606 -1.024 -1.694 13
14.282 -1.161 -1.664 12
8.8970003 -0.70599997 -1.783 12
9.6780005 -0.76800001 -1.76 13
10.608 -0.84100002 -1.7359999 15
11.757 -0.93199998 -1.711 15
13.208 -1.0470001 -1.6849999 13
15.02 -1.191 -1.65 13
9.1949997 -0.71200001 -1.777 12
10.017 -0.77499998 -1.751 14
11.034 -0.85299999 -1.728 13
12.285 -0.949 -1.702 14
13.866 -1.0700001 -1.673 12
15.856 -1.223 -1.633 12
9.4940004 -0.71499997 -1.767 13
10.384 -0.78100002 -1.742 13
11.479 -0.86199999 -1.7180001 14
12.828 -0.963 -1.6900001 14
14.567 -1.092 -1.661 13
16.771999 -1.257 -1.6160001 10
9.8280001 -0.71899998 -1.76 13
10.769 -0.78600001 -1.732 14
11.967 -0.87199998 -1.709 15
13.457 -0.97899997 -1.681 13
15.325 -1.114 -1.643 12
17.9 -1.3 -1.605 12
10.169 -0.72100002 -1.749 13
11.192 -0.79100001 -1.723 14
12.479 -0.88099998 -1.697 13
14.086 -0.99199998 -1.665 12
16.16 -1.136 -1.625 9
19.143999 -1.344 -1.59 13
10.559 -0.72299999 -1.742 13
11.642 -0.79500002 -1.712 15
13.058 -0.889 -1.687 14
14.841 -1.0089999 -1.655 13
17.202 -1.166 -1.6160001 10
20.507999 -1.388 -1.569 15
10.938 -0.722 -1.73 13
12.142 -0.79799998 -1.702 14
13.676 -0.89700001 -1.675 13
15.592 -1.0190001 -1.635 11
18.336 -1.1950001 -1.601 12
22.541 -1.466 -1.5779999 22
11.388 -0.722 -1.723 14
12.674 -0.801 -1.692 14
14.342 -0.903 -1.6619999 13
16.429001 -1.031 -1.615 9
19.621 -1.226 -1.586 14
24.129999 -1.5039999 -1.533 22
11.85 -0.72000003 -1.7130001 14
13.247 -0.801 -1.6799999 13
15.073 -0.90799999 -1.646 13
17.563999 -1.053 -1.6109999 11
21.212 -1.266 -1.577 16
24.9 -1.482 -1.423 34
12.354 -0.71600002 -1.702 14
13.861 -0.79900002 -1.665 12
15.879 -0.91100001 -1.63 9
18.702 -1.068 -1.595 13
22.954 -1.304 -1.5599999 20
25.277 -1.4299999 -1.284 54
12.897 -0.71100003 -1.692 13
14.544 -0.79699999 -1.653 12
16.796 -0.91500002 -1.6160001 10
19.995001 -1.0829999 -1.577 14
24.672001 -1.329 -1.522 22
25.521 -1.367 -1.135 2
13.475 -0.70300001 -1.6799999 12
15.271 -0.79100001 -1.637 12
17.868 -0.91900003 -1.605 11
21.620001 -1.1059999 -1.5700001 16
24.968 -1.268 -1.383 19
28.834999 -1.456 -1.105 47
14.102 -0.69300002 -1.6670001 12
16.061001 -0.78299999 -1.619 9
19.013 -0.91900003 -1.5880001 13
23.222 -1.114 -1.539 20
27.936001 -1.33 -1.372 33
29.028999 -1.372 -0.93099999 7
14.806 -0.68000001 -1.654 12
17.042999 -0.77600002 -1.609 10
20.368999 -0.91900003 -1.572 15
24.872999 -1.112 -1.493 25
28.829 -1.279 -1.239 54
28.884001 -1.27 -0.75 1
15.525 -0.66299999 -1.636 11
18.059999 -0.76300001 -1.592 12
22.09 -0.92400002 -1.568 18
0 0 0 0
29.48 -1.2079999 -1.086 32
35.313999 -1.432 -0.70300001 46
16.343 -0.64200002 -1.618 9
19.264 -0.74900001 -1.5779999 13
23.396 -0.89899999 -1.516 20
28.312 -1.075 -1.352 36
28.92 -1.084 -0.889 3
35.456001 -1.314 -0.49200001 44
17.405001 -0.62400001 -1.615 11
20.645 -0.73000002 -1.562 15
25.028999 -0.87300003 -1.467 26
29.297001 -1.008 -1.221 45
0 0 0 0
30.990999 -1.0369999 -0.245 27
18.379999 -0.59399998 -1.5930001 12
22.462999 -0.71399999 -1.563 20
26.433001 -0.82700002 -1.39 25
30.649 -0.94300002 -1.0930001 36
31.046 -0.93900001 -0.583 1
31.478001 -0.93699998 -0.063000001 35
19.622999 -0.56199998 -1.58 13
23.538 -0.662 -1.495 20
28.471001 -0.78399998 -1.326 46
31.594999 -0.85399997 -0.93900001 38
31.132 -0.82499999 -0.40099999 12
30.635 -0.796 0.117 45
21.021 -0.52399999 -1.566 15
25.149 -0.61199999 -1.448 22
29.379 -0.699 -1.1950001 43
31.349001 -0.72799999 -0.74900001 59
31.318001 -0.70999998 -0.223 21
30.372 -0.67199999 0.29100001 51
22.825001 -0.48100001 -1.563 20
26.666 -0.546 -1.378 25
0 0 0 0
31.285999 -0.60399997 -0.56599998 24
31.969999 -0.59799999 -0.043000001 6
30.672001 -0.55599999 0.47 50
24.101 -0.414 -1.5089999 23
28.610001 -0.47299999 -1.3099999 40
32.365002 -0.514 -0.93900001 44
35.228001 -0.53799999 -0.43399999 53
31.070999 -0.45500001 0.13500001 37
30.978001 -0.43399999 0.65100002 45
25.309 -0.333 -1.438 23
29.018999 -0.36300001 -1.163 59
34.195 -0.405 -0.79900002 48
35.542 -0.398 -0.237 45
30.811001 -0.32300001 0.308 55
31.013 -0.30599999 0.82499999 17
26.862 -0.242 -1.3710001 26
29.121 -0.243 -1 30
34.890999 -0.26800001 -0.61799997 46
31.469999 -0.22 -0.034000002 3
31.041 -0.19599999 0.48199999 40
31.271999 -0.17399999 1.006 24
28.827 -0.138 -1.307 33
29.278999 -0.12 -0.84200001 1
35.097 -0.119 -0.42500001 46
30.722 -0.082999997 0.13600001 17
31.367001 -0.061999999 0.65899998 6
31.194 -0.039000001 1.173 1
29.676001 -0.016000001 -1.182 32
33.903 0.0049999999 -0.78799999 46
35.192001 0.032000002 -0.233 45
30.639999 0.050999999 0.30399999 50
30.961 0.075000003 0.81900001 22
31.582001 0.101 1.359 2
30.242001 0.116 -1.0369999 40
34.571999 0.15800001 -0.61400002 46
31.145 0.167 -0.037999999 2
30.847 0.18799999 0.47099999 39
31.143 0.214 0.99000001 16
86.084 0.66500002 4.1630001 45
32.162998 0.26800001 -0.92699999 45
34.623001 0.31400001 -0.428 45
30.879999 0.30500001 0.127 34
30.878 0.33000001 0.63599998 50
30.603001 0.35100001 1.1339999 6
81.581001 1.0039999 4.3709998 6
31.198999 0.40099999 -0.73400003 60
31.148001 0.426 -0.219 9
30.926001 0.449 0.29100001 41
31.013 0.47600001 0.80199999 13
81.110001 1.312 3.4319999 59
82.528999 1.4069999 4.8520002 56
34.519001 0.60399997 -0.63 62
31.165001 0.57099998 -0.057 2
30.804001 0.58999997 0.447 40
31.375999 0.62800002 0.97100002 4
81.221001 1.696 3.848 65
82.528 1.7970001 5.2680001 38
34.328999 0.76300001 -0.44800001 55
30.914 0.713 0.101 2
30.931999 0.741 0.60799998 35
31.080999 0.77100003 1.119 8
81.970001 2.109 4.2989998 37
82.403999 2.1960001 5.6760001 42
34.648998 0.935 -0.27700001 45
30.745001 0.85699999 0.255 29
31.094 0.89499998 0.76700002 25
30.947001 0.92000002 1.271 6
81.753998 2.506 4.6950002 32
83.072998 2.6270001 6.1350002 32
36.061001 1.151 -0.106 48
31.347 1.029 0.41800001 34
30.974001 1.046 0.91799998 16
84.592003 2.9360001 3.8889999 12
82.027 2.927 5.1139998 42
83.475998 3.0610001 6.573 15
36.98 1.3660001 0.075000003 7
31.548 1.1950001 0.57700002 6
30.914 1.2 1.068 1
82.504997 3.2850001 4.1960001 28
87.014 3.552 5.848 19
83.978996 3.5109999 7.0180001 9
84.453003 3.5469999 0.579 33
31.587999 1.357 0.72899997 2
82.726997 3.6389999 3.2579999 46
82.578003 3.7130001 4.5949998 20
86.915001 3.9979999 6.256 46
87.343002 4.1079998 7.7140002 31
57.681999 2.72 0.67199999 46
57.554001 2.7690001 1.6 56
82.420998 4.0500002 3.6300001 42
86.396004 4.3319998 5.2080002 32
85.228996 4.3649998 6.5279999 22
86.078003 4.5019999 8.0010004 36
70.374001 3.6830001 1.146 12
70.172997 3.744 2.277 42
81.995003 4.4619999 3.9920001 29
83.973 4.6599998 5.4530001 47
84.977997 4.809 6.9029999 47
48.879002 2.8210001 4.7690001 4
59.293999 3.4200001 1.2410001 4
69.629997 4.0890002 2.5810001 66
70.301003 4.204 3.743 10
83.866997 5.1069999 5.8280001 30
84.921997 5.2680001 7.2839999 50
48.591 3.069 4.96 30
69.372002 4.3740001 1.765 43
69.636002 4.4650002 2.8929999 77
84.025002 5.48 4.849 43
84.016998 5.5749998 6.21 49
85.224998 5.7509999 7.684 48
48.507 3.3310001 5.165 13
69.408997 4.757 2.0739999 82
69.821999 4.862 3.2090001 63
84.185997 5.954 5.2259998 48
85.406998 6.1420002 6.6880002 30
86.036003 6.2870002 8.1330004 52
0 0 0 0
69.439003 5.145 2.378 69
70.060997 5.2670002 3.5220001 56
83.778999 6.395 5.5619998 47
85.661003 6.638 7.0710001 30
85.805 6.7540002 8.4770002 35
47.908001 3.8299999 5.513 4
69.796997 5.5630002 2.6860001 51
70.070999 5.6630001 3.8180001 5
84.931999 6.961 5.994 39
85.383003 7.1040001 7.4089999 34
87.066002 7.3540001 8.9689999 7
48.484001 4.1560001 5.7839999 10
60.398998 5.1570001 2.576 2
83.462997 7.2210002 4.8940001 48
84.049004 7.3730001 6.2810001 43
86.613998 7.7059999 7.8720002 20
0 0 0 0
48.754002 4.461 6.0139999 4
60.175999 5.4819999 2.8099999 7
60.012001 5.539 3.7620001 11
83.709999 7.8270001 6.5910001 59
0 0 0 0
0 0 0 0
0 0 0 0
59.900002 5.8039999 3.0339999 10
59.98 5.8870001 3.9990001 2
84.167999 8.368 6.9629998 40
0 0 0 0
0 0 0 0
0 0 0 0
60.186001 6.1919999 3.286 7
60.056999 6.2550001 4.2399998 6
27.315001 2.8800001 2.3659999 1
0 0 0 0
0 0 0 0
0 0 0 0
59.304001 6.4580002 3.4649999 3
84.281998 9.2849998 6.27 31
27.341 3.0480001 2.4719999 33
0 0 0 0
0 0 0 0
28.475 3.2950001 3.96 22
27.617001 3.1760001 1.7180001 39
27.415001 3.187 2.141 46
27.299 3.2090001 2.569 80
0 0 0 0
28.462999 3.427 3.599 4
27.202999 3.3169999 3.8829999 21
27.608999 3.3440001 1.817 39
83.328003 10.202 6.8109999 21
27.316999 3.381 2.6700001 14
27.205999 3.4059999 3.0969999 1
27.187 3.444 3.5369999 47
26.986 3.46 3.95 15
28.006001 3.566 1.943 43
28.099001 3.6159999 2.3959999 45
28.224001 3.671 2.859 45
28.089001 3.6930001 3.2969999 15
0 0 0 0
26.927 3.6240001 4.0370002 1
82.610001 11.038 6.0149999 36
83.380997 11.255 7.3979998 50
85.087997 11.603 8.9099998 41
0 0 0 0
0 0 0 0
0 0 0 0
82.875 11.601 6.3150001 39
83.276001 11.773 7.6700001 36
84.653999 12.091 9.1520004 48
0 0 0 0
0 0 0 0
0 0 0 0
80.478996 11.787 6.3990002 14
82.887001 12.257 7.908 44
84.961998 12.694 9.4680004 41
0 0 0 0
0 0 0 0
0 0 0 0
82.896004 12.684 6.8579998 39
84.862 13.107 8.3699999 31
0 0 0 0
0 0 0 0
0 0 0 0
0 0 0 0
80.43 12.836 6.902 15
85.185997 13.716 8.6630001 17
0 0 0 0
0 0 0 0
0 0 0 0
0 0 0 0
79.964996 13.292 7.1030002 14
0 0 0 0
0 0 0 0
0 0 0 0
0 0 0 0
0 0 0 0
81.890999 14.155 7.5089998 39
80.622002 14.053 8.6730003 39
0 0 0 0
0 0 0 0
0 0 0 0
0 0 0 0
80.375 14.436 7.598 13
80.378998 14.564 8.8769999 52
0 0 0 0
0 0 0 0
0 0 0 0
0 0 0 0
79.786003 14.878 7.7610002 40
80.941002 15.219 9.1599998 44
0 0 0 0
0 0 0 0
0 0 0 0
0 0 0 0
79.583 15.385 7.948 39
80.133003 15.614 9.2770004 17
0 0 0 0
0 0 0 0
0 0 0 0
0 0 0 0
79.887001 15.994 8.1809998 32
52 10.494 6.1529999 4
0 0 0 0
0 0 0 0
0 0 0 0
0 0 0 0
79.628998 16.503 8.3509998 12
51.638 10.785 6.237 24
0 0 0 0
0 0 0 0
0 0 0 0
0 0 0 0
52.356998 11.218 5.612 16
50.998001 11.011 6.2779999 2
0 0 0 0
0 0 0 0
0 0 0 0
0 0 0 0
51.978001 11.506 5.6890001 51
51.083 11.39 6.4050002 20
0 0 0 0
0 0 0 0
0 0 0 0
0 0 0 0
33.950001 7.7550001 3.7869999 16
50.910999 11.716 6.4920001 36
0 0 0 0
0 0 0 0
0 0 0 0
0 0 0 0
34.071999 8.0279999 3.8710001 41
50.643002 12.02 6.5630002 27
0 0 0 0
0 0 0 0
0 0 0 0
0 0 0 0
41.900002 10.176 4.842 13
52.341999 12.803 6.8850002 23
0 0 0 0
0 0 0 0
0 0 0 0
0 0 0 0
51.259998 12.826 6.02 38
52.219002 13.158 6.967 5
0 0 0 0
0 0 0 0
0 0 0 0
28.266001 7.3509998 5.6240001 7
51.428001 13.249 6.131 49
0 0 0 0
0 0 0 0
0 0 0 0
0 0 0 0
28.509001 7.6269999 5.7259998 1
51.062 13.532 6.1729999 21
0 0 0 0
0 0 0 0
0 0 0 0
0 0 0 0
28.382999 7.809 5.7519999 25
33.174 9.0369997 4.0609999 16
0 0 0 0
0 0 0 0
0 0 0 0
28.579 8.0120001 5.362 29
28.308001 8.0019999 5.783 33
0 0 0 0
0 0 0 0
0 0 0 0
0 0 0 0
27.805 8.007 5.2610002 31
27.83 8.0799999 5.7309999 16
0 0 0 0
0 0 0 0
0 0 0 0
29.320999 8.6009998 5.1040001 34
27.941 8.2589998 5.3270001 24
27.693001 8.2519999 5.7449999 7
37.717999 11.129 4.7750001 25
29.546 8.7709999 4.2160001 1
28.82 8.6129999 4.5819998 43
28.298 8.5179996 4.9640002 27
26.961 8.1750002 5.178 33
27.368 8.3640003 5.7150002 32
29.99 9.0760002 3.8310001 8
28.959 8.8170004 4.1669998 45
28.962 8.8760004 4.6389999 17
28.521999 8.8009996 5.0380001 32
27.385 8.5139999 5.2950001 34
0 0 0 0
29.087 9.0229998 3.747 41
29.034 9.0609999 4.21 26
28.778 9.0380001 4.6430001 34
28.610001 9.0480003 5.0879998 35
26.806999 8.54 5.2140002 47
26.528 8.5170002 5.6069999 28
39.817001 12.658 5.1690001 40
39.23 12.544 5.7290001 1
0 0 0 0
28.732 9.3100004 5.1399999 33
0 0 0 0
26.541 8.7279997 5.6399999 26
0 0 0 0
0 0 0 0
0 0 0 0
28.635 9.5 5.151 16
31.697001 10.592 6.2329998 39
26.719 8.9949999 5.7059999 6
29.364 9.7860003 3.8610001 40
29.349001 9.8380003 4.335 55
29.343 9.8979998 4.816 28
29.443001 9.9960003 5.3210001 28
31.725 10.848 6.2659998 40
26.507 9.1309996 5.6849999 0
0 0 0 0
29.145 9.9960003 4.3270001 20
32.708 11.287 5.3940001 17
34.284 11.907 6.224 4
29.544001 10.333 5.8600001 22
25.934 9.1370001 5.585 11
0 0 0 0
0 0 0 0
32.676998 11.53 5.4089999 43
31.943001 11.346 5.8210001 31
29.482 10.543 5.8699999 5
26.224001 9.4469995 5.6669998 18
0 0 0 0
32.841 11.776 4.9120002 9
28.728001 10.363 4.7709999 25
31.659 11.492 5.7870002 15
27.011 9.8719997 5.3930001 1
26.535 9.7679996 5.7509999 40
0 0 0 0
32.282001 11.828 4.8429999 8
32.557999 11.997 5.4229999 40
28.368999 10.52 5.1999998 21
26.518 9.901 5.309 51
26.145 9.8330002 5.6820002 32
0 0 0 0
35.092999 13.132 5.276 48
0 0 0 0
28.264999 10.706 5.1919999 26
26.445999 10.084 5.3060002 45
25.958 9.9700003 5.6539998 29
0 0 0 0
34.799 13.293 5.2389998 22
34.686001 13.327 5.7989998 51
31.514999 12.185 5.7989998 14
26.360001 10.258 5.2989998 39
26.702999 10.466 5.8270001 42
0 0 0 0
36.542 14.248 5.506 2
34.755001 13.629 5.816 53
26.407 10.419 4.8649998 5
26.400999 10.486 5.3140001 30
26.709 10.684 5.836 30
0 0 0 0
0 0 0 0
35.125 14.052 5.8800001 36
31.441999 12.655 5.7950001 42
27.872999 11.293 5.6139998 9
26.417 10.776 5.777 30
0 0 0 0
0 0 0 0
34.055 13.892 5.7010002 10
27.747 11.386 5.1139998 10
27.466 11.344 5.533 0
26.197001 10.894 5.7309999 45
0 0 0 0
33.801998 13.977 5.086 7
31.495001 13.094 5.2680001 4
27.407 11.463 5.0500002 12
25.971001 10.931 5.2309999 0
25.961 11.002 5.6799998 47
0 0 0 0
31.440001 13.247 4.723 11
31.615 13.393 5.2810001 28
27.653999 11.783 5.0900002 1
27.334 11.72 5.5009999 2
25.906 11.184 5.665 42
0 0 0 0
31.409 13.48 4.7080002 21
31.719 13.686 5.289 2
27.614 11.984 5.0749998 18
32.852001 14.347 6.6040001 10
25.836 11.359 5.6440001 40
31.816999 13.839 4.2220001 25
31.714001 13.86 4.7379999 52
27.506001 12.084 4.5739999 0
27.136 11.991 4.9770002 32
27.122 12.058 5.4439998 26
27.075001 12.118 5.908 33
32.479 14.381 4.2909999 19
31.763 14.13 4.7280002 45
31.652 14.154 5.2480001 44
27.070999 12.172 4.9520001 32
27.115 12.266 5.4310002 20
27.965 12.735 6.0910001 35
32.279999 14.543 4.2420001 15
31.482 14.25 4.665 43
31.52 14.338 5.2069998 39
27.103001 12.398 4.9439998 19
27.129999 12.485 5.4200001 32
28.041 12.99 6.0949998 24
32.535999 14.912 4.25 16
30.613001 14.094 4.5139999 36
31.43 14.542 5.1700001 11
30.662001 14.265 5.572 39
0 0 0 0
27.989 13.183 6.0669999 16
31.718 14.78 4.1149998 34
31.764 14.868 4.6570001 23
31.575001 14.854 5.1700001 24
30.225 14.296 5.4699998 33
27.917999 13.283 5.5409999 24
27.283001 13.063 5.8969998 43
30.950001 14.661 3.9860001 26
31.77 15.115 4.6290002 4
31.183001 14.909 5.0770001 22
29.957001 14.399 5.3959999 22
28.556 13.807 5.6430001 24
27.533001 13.396 5.9289999 14
0 0 0 0
30.697001 14.843 4.441 17
30.861 14.992 4.9949999 42
30.947001 15.115 5.5450001 27
28.489 13.996 5.6040001 37
28.299 13.991 6.0689998 36
0 0 0 0
0 0 0 0
33.838001 16.697001 5.4390001 5
30.656 15.207 5.4619999 39
28.537001 14.236 5.5869999 38
27.905001 14.009 5.96 28
0 0 0 0
0 0 0 0
33.570999 16.822001 5.3569999 4
36.703999 18.489 6.4980001 48
27.919001 14.143 5.4359999 6
26.719 13.62 5.6789999 36
0 0 0 0
0 0 0 0
33.259998 16.919001 5.2639999 11
36.799999 18.816 6.4679999 56
27.843 14.316 5.388 24
26.674 13.8 5.6389999 33
0 0 0 0
0 0 0 0
33.011002 17.042 5.1799998 4
36.912998 19.153 6.4390001 55
27.825001 14.519 5.348 15
26.657 13.994 5.6020002 33
32.904999 17.089001 3.9779999 86
0 0 0 0
32.652 17.099001 5.0770001 25
32.618999 17.167999 5.6440001 21
27.125999 14.356 5.1760001 29
26.577999 14.151 5.5479999 19
32.612 17.177 3.888 87
0 0 0 0
37.280998 19.799999 5.7389998 11
35.958 19.190001 6.1690001 46
26.863001 14.415 5.0869999 34
32.051998 17.302999 6.6469998 11
32.255001 17.226999 3.79 5
0 0 0 0
37.120998 19.987 5.6539998 38
35.847 19.393999 6.0900002 51
27.101999 14.741 5.0910001 34
26.813999 14.672 5.5209999 5
32.018002 17.332001 3.7049999 21
0 0 0 0
46.388 25.309999 6.9840002 27
35.995998 19.733999 6.0560002 26
27.216 15 5.066 21
26.608999 14.751 5.4349999 22
55.924 30.673 6.362 30
47.233002 26.002001 6.1960001 18
46.084999 25.476 6.8540001 29
35.608002 19.778 5.927 12
27.195999 15.183 5.0149999 32
27.049999 15.19 5.4790001 1
55.311001 30.731001 6.1810002 10
46.997002 26.202999 6.072 4
47.056999 26.346001 6.9099998 30
34.562 19.440001 5.6890001 20
34.758999 19.650999 6.348 22
27.048 15.38 5.4310002 0
57.597 32.403999 6.3179998 27
54.716999 30.888 6.9590001 26
46.995998 26.636999 6.8049998 3
34.592999 19.697001 5.625 17
35.028999 20.046 6.3280001 17
31.733999 18.264999 6.3109999 17
57.59 32.798 6.1929998 25
54.59 31.195 6.8260002 29
35.094002 20.134001 5.0079999 1
34.604 19.941999 5.5560002 9
0 0 0 0
33.266998 19.377001 6.5500002 2
57.863998 33.348 6.0869999 26
54.766998 31.67 6.7259998 14
34.472 20.011 4.8439999 29
44.673 26.046 7.079 19
35.576 20.846001 6.2810001 56
35.07 20.665001 6.8330002 50
57.644001 33.610001 5.928 5
54.988998 32.167 6.625 3
54.880001 32.223 7.5890002 19
44.403999 26.184999 6.9369998 6
35.986 21.325001 6.276 26
32.673 19.468 6.2969999 9
73.638 43.418999 7.3959999 25
34.258999 20.261999 4.046 25
40.155998 23.837999 5.4569998 9
45.547001 27.155001 7.0089998 7
43.692001 26.177 7.52 43
32.567001 19.618 6.2030001 8
71.512001 42.626999 7.0040002 24
34.130001 20.407 3.9460001 5
40.041 24.028 5.3439999 23
32.936001 19.848 4.9889998 3
32.787998 19.853001 5.5630002 25
32.395 19.721001 6.0929999 5
34.056999 20.517 3.2460001 18
33.834 20.444 3.825 18
39.912998 24.202999 5.2249999 42
32.894001 20.028 4.902 6
42.703999 26.122 7.1440001 36
35.604 21.893999 6.6129999 22
54.749001 33.319 5.073 21
34.014999 20.761999 3.7539999 31
39.830002 24.396 5.1100001 51
40.223999 24.736 5.8920002 1
42.469002 26.238001 6.9970002 34
35.710999 22.177999 6.5430002 3
33.313999 20.478001 2.993 18
50.722 31.264999 5.4619999 19
33.900002 20.966 4.2589998 2
39.546001 24.556 5.6880002 40
33.573002 20.940001 5.4419999 1
34.598 21.691999 6.2509999 14
73.710999 45.744999 6.415 23
33.252998 20.693001 3.487 1
33.879002 21.150999 4.164 9
39.407001 24.697001 5.559 52
33.632 21.171 5.3629999 4
32.310001 20.443001 5.7509999 15
49.761002 31.167 4.184 30
33.006001 20.726999 3.3670001 31
49.623001 31.261 5.96 12
33.719002 21.323 4.6630001 19
33.583 21.33 5.2610002 13
32.229 20.572001 5.6490002 31
49.625999 31.358999 4.026 52
0 0 0 0
32.755001 20.815001 3.836 1
38.945999 24.841999 5.2729998 42
40.393002 25.875 6.2140002 36
32.835999 21.138 5.6620002 25
49.561001 31.587999 3.868 49
49.431 31.58 4.7480001 62
32.719002 20.966999 3.7349999 20
38.886002 25.009001 5.1490002 15
39.955002 25.806 6.027 40
31.896999 20.700001 5.4060001 32
50.386002 32.377998 3.776 23
49.323002 31.77 4.5840001 77
45.740002 29.548 5.0799999 7
32.507 21.073 4.2059999 17
39.681999 25.83 5.8670001 20
32.047001 20.959 5.3369999 9
49.348 31.959999 3.539 48
159.23801 103.364 14.301 27
45.375 29.537001 4.8959999 19
39.331001 25.690001 4.9689999 19
32.283001 21.173 4.6729999 9
32.298 21.281 5.2800002 35
49.296001 32.167999 3.3729999 53
45.653 29.853001 3.95 15
0 0 0 0
39.355 25.892 4.8439999 13
32.292999 21.330999 4.572 2
32.057999 21.271999 5.1409998 29
44.813 29.452 2.918 32
44.686001 29.429001 3.7190001 31
44.532001 29.405001 4.5170002 12
44.407001 29.417999 5.3200002 36
39.398998 26.202 5.4499998 29
32.203999 21.514 5.059 27
49.141998 32.52 3.03 45
45.308998 30.041 3.6170001 5
44.478001 29.565001 4.3629999 6
44.215 29.482 5.1529999 4
40.889999 27.368 5.5240002 24
32.083 21.568001 4.934 20
144.464 96.209999 8.4119997 31
144.771 96.593002 11.058 17
45.966999 30.745001 4.3509998 9
40.942001 27.466999 4.631 38
40.34 27.163 5.3150001 3
32.030998 21.662001 4.8200002 32
144.444 96.786003 7.901 22
0 0 0 0
40.886002 27.507999 3.7279999 35
40.805 27.535 4.4749999 1
39.935001 27.045 5.1240001 4
32.014999 21.773001 4.7080002 2
0 0 0 0
40.794998 27.537001 2.8280001 1
40.783001 27.591 3.5739999 13
154.438 104.784 16.386999 36
8.4370003 5.744 1.053 8
8.3369999 5.6989999 1.197 1
154.69099 104.806 7.3509998 26
40.712002 27.625999 2.677 36
145.01601 98.610001 12.204 18
8.4899998 5.789 0.87099999 11
8.3730001 5.7290001 1.015 5
8.2650003 5.678 1.1569999 5
145.10201 98.797997 6.3579998 18
40.605 27.687 2.52 16
8.4720001 5.7880001 0.68199998 0
8.4139996 5.7639999 0.83200002 7
8.2939997 5.6999998 0.97500002 5
8.1960001 5.6550002 1.118 7
40.658001 27.809999 1.631 18
40.629002 27.826 2.3740001 23
8.4289999 5.7839999 0.648 3
8.3360004 5.7350001 0.79500002 8
8.2320004 5.6810002 0.93900001 5
8.1289997 5.632 1.08 11
40.604 27.891001 1.477 38
40.561001 27.893999 2.22 44
8.3809996 5.7740002 0.61299998 5
8.2700005 5.7119999 0.75800002 5
8.1660004 5.6570001 0.90100002 5
8.073 5.6139998 1.0420001 12
40.558998 27.966999 1.322 37
40.553001 27.993999 2.0669999 26
8.3100004 5.7459998 0.57599998 4
8.2119999 5.6919999 0.722 4
8.1300001 5.652 0.866 5
8.0319996 5.6040001 1.007 13
40.540001 28.052 1.165 20
142.752 98.875 6.7280002 22
8.2510004 5.724 0.54000002 4
8.1610003 5.6739998 0.68599999 4
8.0780001 5.632 0.82999998 5
7.98 5.5840001 0.97100002 6
0 0 0 0
142.66701 99.112999 6.177 17
8.2030001 5.7069998 0.50599998 4
8.1219997 5.6630001 0.65200001 5
8.0290003 5.6129999 0.79400003 5
7.954 5.5799999 0.93699998 6
0 0 0 0
146.099 101.762 5.7600002 18
8.1569996 5.6890001 0.472 4
8.0810003 5.6479998 0.61799997 7
8.0010004 5.6069999 0.76099998 5
7.9250002 5.572 0.903 8
0 0 0 0
153.528 107.179 5.4460001 20
8.118 5.6739998 0.43799999 1
8.0579996 5.6430001 0.58399999 6
7.974 5.599 0.727 10
7.9099998 5.5710001 0.87 8
98.106003 68.578003 1.291 10
0 0 0 0
8.1110001 5.6799998 0.40599999 1
8.0349998 5.6360002 0.551 4
7.9569998 5.5949998 0.69400001 7
7.8790002 5.5570002 0.83499998 6
0 0 0 0
146.864 102.87 4.052 18
8.1190004 5.6929998 0.373 6
8.0179996 5.631 0.51700002 5
7.947 5.5949998 0.66100001 5
7.8790002 5.5630002 0.80400002 5
0 0 0 0
0 0 0 0
8.1190004 5.6989999 0.34099999 11
8.0310001 5.645 0.48699999 9
7.9400001 5.5939999 0.62900001 5
7.8629999 5.5549998 0.77100003 5
0 0 0 0
8.1379995 5.711 0.15899999 0
8.1129999 5.698 0.30899999 13
8.1040001 5.6999998 0.45899999 19
7.9330001 5.592 0.597 5
7.8660002 5.559 0.73799998 6
0 0 0 0
98.482002 69.133003 1.522 8
8.1140003 5.6999998 0.27500001 9
8.0970001 5.6950002 0.42500001 41
7.9439998 5.599 0.565 5
7.8610001 5.5549998 0.70599997 5
40.276001 28.273001 -0.28299999 7
0 0 0 0
8.1210003 5.7030001 0.242 2
8.0939999 5.6919999 0.391 44
7.9460001 5.598 0.53200001 8
7.8800001 5.5650001 0.67500001 5
40.258999 28.252001 -0.449 15
0 0 0 0
8.1219997 5.7010002 0.20900001 0
8.1099997 5.6999998 0.359 34
7.993 5.6269999 0.50199997 11
7.9109998 5.5819998 0.64499998 5
0 0 0 0
0 0 0 0
0 0 0 0
8.1210003 5.7010002 0.32600001 10
8.0539999 5.6630001 0.47299999 11
7.934 5.5910001 0.61400002 5
11.006 7.71 -0.211 9
10.905 7.6360002 -0.0080000004 0
0 0 0 0
8.1289997 5.6989999 0.29300001 0
8.1149998 5.697 0.44299999 16
7.9689999 5.6069999 0.58399999 5
10.997 7.6919999 -0.25600001 61
11.013 7.6999998 -0.052999999 41
98.376999 68.792999 1.336 10
0 0 0 0
8.1190004 5.6890001 0.41 3
8.0299997 5.638 0.55500001 5
11 7.6799998 -0.30000001 70
10.995 7.6719999 -0.097999997 69
11.03 7.697 0.104 3
146.129 102.036 4.0900002 23
143.02499 99.997002 6.6539998 17
8.0699997 5.652 0.52399999 5
10.955 7.632 -0.34299999 37
11.014 7.6680002 -0.14300001 49
10.998 7.6560001 0.059 21
0 0 0 0
0 0 0 0
8.132 5.6799998 0.49399999 5
10.561 7.3379998 -0.37400001 47
10.995 7.6329999 -0.18700001 70
11.011 7.6430001 0.014 48
0 0 0 0
0 0 0 0
8.1870003 5.6999998 0.46399999 1
6.9120002 4.789 -0.27200001 0
10.88 7.5310001 -0.229 68
10.874 7.5240002 -0.028999999 66
10.944 7.5739999 0.171 0
40.591 28.118999 1.386 1
142.61301 98.945999 7.4970002 31
6.9250002 4.7810001 -0.30000001 32
6.9229999 4.7750001 -0.17299999 42
6.9549999 4.7950001 -0.046 0
10.76 7.4200001 0.125 7
40.557999 27.990999 1.2180001 41
40.535 28.014999 1.965 18
6.9159999 4.7579999 -0.32699999 35
6.9200001 4.7550001 -0.20100001 52
6.9219999 4.7540002 -0.074000001 70
6.9229999 4.7540002 0.052000001 17
10.768 7.4000001 0.28 0
40.568001 27.917 1.799 43
6.967 4.7729998 -0.35699999 30
6.8709998 4.7010002 -0.226 42
6.8800001 4.7049999 -0.1 44
6.927 4.7360001 0.025 40
40.674 27.827999 0.89200002 1
40.651001 27.843 1.636 33
7.0749998 4.8260002 -0.38999999 22
7.0489998 4.8010001 -0.25999999 9
7.0900002 4.8249998 -0.132 19
6.9320002 4.717 -0.0020000001 39
6.9050002 4.7010002 0.123 0
154.69 105.429 5.6020002 20
7.1700001 4.8670001 -0.42300001 4
7.1409998 4.8410001 -0.29100001 9
7.2119999 4.8839998 -0.162 39
7.105 4.8099999 -0.029999999 0
7.0960002 4.8060002 0.097999997 0
154.72501 104.888 4.9850001 26
7.375 4.9809999 -0.463 4
7.3610001 4.9629998 -0.32800001 7
7.3449998 4.948 -0.19400001 26
7.4520001 5.0180001 -0.061000001 54
7.2490001 4.882 0.071999997 0
0 0 0 0
7.6220002 5.119 -0.509 1
7.5780001 5.0809999 -0.36700001 27
7.566 5.0669999 -0.228 11
8.2060003 5.493 -0.098999999 57
7.4949999 5.0180001 0.045000002 21
43.183998 28.931999 1.046 46
8.1569996 5.4460001 -0.57499999 37
8.2729998 5.5139999 -0.43200001 53
8.349 5.5580001 -0.28400001 59
8.302 5.5229998 -0.132 61
7.6999998 5.1230001 0.016000001 2
9.6420002 6.4180002 0.19499999 29
8.1940002 5.4369998 -0.60799998 0
21.948999 14.537 -1.228 5
27.049999 17.892 -1.023 3
34.115002 22.548 -0.67299998 3
8.4209995 5.5650001 -0.013 0
9.1140003 6.026 0.149 0
11.251 7.4169998 -0.87599999 32
21.195 13.944 -1.266 6
25.521 16.764999 -1.063 3
31.572001 20.723 -0.74299997 2
45.042 29.556999 -0.248 33
45.109001 29.611 0.56300002 56
10.759 7.0430002 -0.87699997 37
20.500999 13.392 -1.3 9
24.551001 16.013 -1.113 4
31.504999 20.531 -0.85900003 9
45.136002 29.402 -0.417 8
38.077 24.809 0.331 41
10.522 6.8379998 -0.89499998 33
12.322 7.9899998 -0.82499999 6
23.736 15.366 -1.1619999 5
0 0 0 0
38.070999 24.608 -0.49599999 31
38.060001 24.603001 0.18700001 76
10.292 6.6370001 -0.91100001 37
19.231001 12.373 -1.3559999 13
22.823999 14.659 -1.199 5
28.202999 18.094 -0.97600001 6
38.402 24.624001 -0.63999999 1
38.195999 24.493 0.046 60
10.041 6.4239998 -0.92400002 37
11.653 7.4369998 -0.86199999 9
22.181999 14.131 -1.243 5
26.974001 17.162001 -1.029 3
33.549 21.333 -0.67900002 4
50.362 32.02 -0.123 38
10.016 6.355 -0.95599997 34
11.14 7.0510001 -0.86299998 26
21.393999 13.515 -1.274 5
26.033001 16.423 -1.084 4
33.458 21.091999 -0.796 10
50.491001 31.823 -0.30500001 7
10.144 6.381 -1.001 33
10.993 6.8969998 -0.88800001 36
20.702999 12.963 -1.302 8
24.759001 15.481 -1.1160001 3
31.07 19.410999 -0.847 6
42.445 26.507999 -0.40599999 4
0 0 0 0
10.702 6.6550002 -0.89899999 30
20.107 12.477 -1.331 11
23.934 14.829 -1.159 5
30.862 19.101 -0.94599998 8
33.623001 20.801001 -0.43799999 6
9.2209997 5.6960001 -0.97000003 48
10.469 6.4489999 -0.91399997 45
19.594 12.043 -1.362 17
23.204 14.239 -1.201 6
28.523001 17.483 -0.97299999 1
33.568001 20.565001 -0.55299997 33
8.9329996 5.4650002 -0.96799999 34
10.289 6.276 -0.93099999 36
19.098 11.623 -1.3890001 18
22.427 13.626 -1.234 6
27.77 16.851999 -1.039 6
33.540001 20.341 -0.66399997 31
8.8430004 5.3559999 -0.98500001 40
10.123 6.1139998 -0.94800001 39
18.634001 11.227 -1.415 17
21.874001 13.156 -1.274 7
26.443001 15.883 -1.076 4
33.333 20.006001 -0.77100003 31
8.5340004 5.1170001 -0.977 41
10.019 5.9889998 -0.96799999 42
18.158001 10.827 -1.433 16
21.136 12.578 -1.296 6
25.320999 15.049 -1.108 4
32.868999 19.517 -0.866 14
8.3380003 4.9460001 -0.97899997 46
9.5959997 5.6750002 -0.95599997 26
17.684999 10.431 -1.45 15
20.523001 12.08 -1.322 10
24.48 14.388 -1.149 4
30.475 17.893 -0.90100002 7
8.1210003 4.7649999 -0.977 35
9.3540001 5.4710002 -0.95899999 42
17.268 10.072 -1.466 14
20.02 11.654 -1.35 15
23.77 13.813 -1.187 5
30.291 17.584999 -0.986 8
8.0830002 4.6900001 -0.99400002 34
8.9560003 5.1789999 -0.94300002 5
16.903 9.7480001 -1.484 13
19.589001 11.272 -1.377 18
23.176001 13.314 -1.226 6
28.403999 16.298 -1.011 3
8.7989998 5.0469999 -1.1059999 3
14.443 8.2559996 -1.561 10
16.531 9.4239998 -1.497 13
19.136 10.883 -1.399 17
22.405001 12.72 -1.25 7
27.389 15.528 -1.0549999 4
12.658 7.1739998 -1.625 9
14.174 8.0059996 -1.5700001 9
16.202 9.125 -1.511 12
18.709 10.511 -1.42 16
21.941 12.304 -1.285 8
26.288 14.722 -1.0880001 3
12.482 6.9889998 -1.6339999 9
13.943 7.7800002 -1.581 10
15.881 8.8339996 -1.523 12
18.305 10.158 -1.437 15
21.341999 11.819 -1.308 8
25.486 14.095 -1.124 4
12.306 6.8049998 -1.641 9
13.751 7.5770001 -1.5930001 9
15.578 8.5570002 -1.534 11
17.955999 9.8369999 -1.4579999 15
20.902 11.429 -1.337 10
24.844999 13.563 -1.165 4
12.138 6.6269999 -1.648 9
13.525 7.3569999 -1.6 8
15.295 8.2930002 -1.543 11
17.563999 9.4980001 -1.469 14
20.375999 10.996 -1.354 10
24.162001 13.017 -1.194 5
11.974 6.4520001 -1.653 10
13.319 7.1490002 -1.607 8
15.043 8.0480003 -1.554 10
17.243999 9.2010002 -1.484 14
20.011999 10.654 -1.38 12
23.454 12.465 -1.2180001 6
11.822 6.2849998 -1.658 9
13.111 6.9429998 -1.6109999 8
14.801 7.8130002 -1.563 10
16.902 8.8959999 -1.495 13
19.561001 10.271 -1.396 13
22.958 12.031 -1.249 8
11.668 6.118 -1.661 10
12.946 6.7610002 -1.619 7
14.573 7.585 -1.571 9
16.587 8.6079998 -1.5039999 12
19.184999 9.9320002 -1.413 16
22.482 11.618 -1.276 9
11.534 5.9629998 -1.666 9
12.79 6.5869999 -1.626 7
14.38 7.3790002 -1.581 9
16.358999 8.3710003 -1.5190001 12
18.882999 9.6370001 -1.433 16
21.986 11.199 -1.2970001 11
11.403 5.8109999 -1.669 9
12.618 6.4050002 -1.6289999 8
14.216 7.1900001 -1.591 9
16.042999 8.0889997 -1.523 11
18.549999 9.3290005 -1.447 15
21.551001 10.815 -1.318 11
11.286 5.6680002 -1.673 9
12.464 6.2340002 -1.633 6
14.04 6.9970002 -1.599 9
15.82 7.8579998 -1.534 11
18.211 9.0209999 -1.457 15
21.167999 10.462 -1.339 15
11.157 5.5190001 -1.674 8
12.324 6.0710001 -1.637 9
13.846 6.7950001 -1.603 8
15.617 7.6389999 -1.543 11
17.964001 8.7620001 -1.474 14
20.790001 10.118 -1.358 16
11.061 5.3870001 -1.678 8
12.194 5.914 -1.641 8
13.679 6.6090002 -1.608 8
15.427 7.428 -1.553 10
17.683001 8.4899998 -1.483 14
20.524 9.8299999 -1.38 17
10.966 5.2579999 -1.682 9
12.068 5.7600002 -1.6440001 9
13.51 6.4239998 -1.6109999 8
15.224 7.2129998 -1.559 10
17.445 8.2419996 -1.494 13
20.23 9.533 -1.397 16
10.866 5.1259999 -1.683 8
11.974 5.6240001 -1.651 9
13.365 6.2519999 -1.6160001 8
15.063 7.0219998 -1.568 10
17.198 7.993 -1.503 13
19.940001 9.2440004 -1.411 12
10.788 5.007 -1.686 8
11.853 5.4759998 -1.651 8
13.211 6.0780001 -1.617 7
14.918 6.8390002 -1.575 11
17 7.7690001 -1.512 12
19.676001 8.9700003 -1.424 16
10.697 4.882 -1.687 9
11.76 5.3429999 -1.654 8
13.087 5.921 -1.62 7
14.789 6.6669998 -1.5829999 11
16.809999 7.552 -1.52 12
19.389999 8.6890001 -1.433 12
10.632 4.77 -1.6900001 8
11.666 5.21 -1.656 9
12.94 5.7540002 -1.619 8
14.647 6.4889998 -1.5880001 12
16.59 7.3260002 -1.523 12
19.171 8.4420004 -1.4450001 14
10.565 4.6589999 -1.691 8
11.589 5.086 -1.659 8
12.827 5.605 -1.6210001 7
14.554 6.3340001 -1.596 10
16.481001 7.1500001 -1.535 12
18.923 8.1850004 -1.452 15
10.514 4.5539999 -1.694 8
11.509 4.961 -1.66 8
12.739 5.467 -1.624 9
14.405 6.158 -1.597 11
16.329 6.9549999 -1.54 11
18.716 7.948 -1.459 14
10.469 4.4520001 -1.697 8
11.46 4.8499999 -1.664 8
12.666 5.336 -1.628 10
14.313 6.006 -1.602 11
16.195 6.7719998 -1.546 11
18.539 7.7290001 -1.467 14
10.419 4.349 -1.698 9
11.393 4.7329998 -1.666 8
12.593 5.2069998 -1.63 9
14.17 5.836 -1.6 8
16.080999 6.599 -1.551 11
18.365999 7.5120001 -1.473 14
10.374 4.25 -1.699 8
11.339 4.6209998 -1.6670001 8
12.545 5.0890002 -1.635 10
14.067 5.6820002 -1.601 8
15.962 6.4239998 -1.5549999 11
18.214001 7.3070002 -1.477 13
10.342 4.1550002 -1.701 8
11.3 4.5170002 -1.669 9
12.507 4.9759998 -1.6390001 9
13.971 5.5349998 -1.601 8
15.903 6.277 -1.562 10
18.125999 7.1300001 -1.4859999 13
10.313 4.0630002 -1.702 8
11.282 4.4219999 -1.673 9
12.455 4.8579998 -1.64 10
13.878 5.3899999 -1.599 8
15.833 6.125 -1.566 11
18.023001 6.948 -1.4910001 13
10.295 3.9749999 -1.704 8
11.245 4.3179998 -1.673 8
12.41 4.7420001 -1.642 9
13.816 5.257 -1.6 8
15.763 5.974 -1.569 13
17.917 6.7659998 -1.494 13
10.277 3.8870001 -1.705 9
11.214 4.2189999 -1.674 9
12.371 4.632 -1.642 9
13.776 5.1339998 -1.603 9
15.7 5.8270001 -1.572 11
17.855 6.6020002 -1.499 13
10.258 3.8 -1.705 9
11.197 4.125 -1.675 9
12.348 4.526 -1.6440001 9
13.754 5.0180001 -1.6059999 10
15.652 5.6869998 -1.573 12
17.804001 6.4439998 -1.503 13
10.243 3.714 -1.705 9
11.19 4.0349998 -1.677 10
12.345 4.428 -1.646 9
13.713 4.8959999 -1.605 9
15.636 5.5570002 -1.577 13
17.75 6.2849998 -1.505 12
10.249 3.635 -1.707 9
11.18 3.9430001 -1.677 10
12.336 4.3280001 -1.648 9
13.7 4.783 -1.6059999 10
15.617 5.4289999 -1.579 13
17.74 6.1420002 -1.5089999 12
10.257 3.5569999 -1.7079999 10
11.185 3.8570001 -1.678 10
12.332 4.23 -1.648 9
13.702 4.677 -1.608 10
15.584 5.296 -1.5779999 13
17.718 5.9959998 -1.5089999 12
10.264 3.48 -1.709 9
11.19 3.7720001 -1.678 10
12.335 4.1360002 -1.648 9
13.718 4.5760002 -1.61 9
15.606 5.1830001 -1.58 13
17.768 5.8769999 -1.515 13
10.279 3.405 -1.709 10
11.207 3.691 -1.679 10
12.356 4.0469999 -1.649 10
13.753 4.4819999 -1.613 10
15.624 5.0689998 -1.581 13
17.736 5.7290001 -1.512 12
10.285 3.3269999 -1.707 10
11.22 3.608 -1.678 9
12.384 3.961 -1.65 10
13.755 4.3759999 -1.61 10
15.629 4.9499998 -1.579 13
17.806 5.6139998 -1.515 12
10.313 3.257 -1.7079999 10
11.258 3.5339999 -1.6799999 9
12.407 3.872 -1.65 10
13.834 4.296 -1.6160001 10
15.651 4.836 -1.576 13
17.870001 5.4959998 -1.515 12
10.343 3.187 -1.7079999 10
11.282 3.4549999 -1.679 9
12.436 3.786 -1.648 10
13.857 4.197 -1.613 10
15.73 4.7399998 -1.579 14
17.934 5.3790002 -1.515 12
10.385 3.1199999 -1.71 9
11.328 3.381 -1.679 9
12.499 3.7079999 -1.65 10
13.912 4.1059999 -1.612 10
15.801 4.6389999 -1.5779999 14
18.061001 5.2789998 -1.517 12
10.417 3.049 -1.7079999 9
11.369 3.306 -1.678 9
12.536 3.625 -1.647 10
13.993 4.0240002 -1.613 10
15.878 4.5419998 -1.577 14
18.181999 5.1760001 -1.517 13
10.465 2.984 -1.7079999 9
11.422 3.2349999 -1.677 9
12.598 3.5469999 -1.646 10
14.058 3.9360001 -1.6109999 11
15.982 4.4499998 -1.576 15
18.318001 5.0749998 -1.516 13
10.509 2.9159999 -1.706 10
11.488 3.1670001 -1.677 9
12.683 3.4749999 -1.647 10
14.132 3.8499999 -1.608 11
16.051001 4.348 -1.5700001 14
18.465 4.9780002 -1.5140001 13
10.565 2.852 -1.705 9
11.546 3.096 -1.675 9
12.76 3.3989999 -1.645 10
14.24 3.7720001 -1.608 10
16.181999 4.2620001 -1.569 12
18.629999 4.881 -1.512 13
10.638 2.7909999 -1.705 10
11.632 3.0320001 -1.676 9
12.852 3.3280001 -1.6440001 10
14.355 3.694 -1.6059999 10
16.355 4.1849999 -1.5700001 12
18.819 4.79 -1.5089999 14
10.708 2.7290001 -1.705 10
11.722 2.967 -1.676 9
12.964 3.2590001 -1.6440001 10
14.489 3.6199999 -1.605 8
16.48 4.0939999 -1.564 12
19.055 4.7080002 -1.508 14
10.785 2.668 -1.7029999 10
11.801 2.898 -1.673 10
13.071 3.1889999 -1.642 11
14.661 3.5550001 -1.607 10
16.674 4.0180001 -1.563 11
19.315001 4.6279998 -1.505 14
10.876 2.609 -1.7029999 9
11.886 2.8310001 -1.669 10
13.18 3.118 -1.638 10
14.818 3.483 -1.605 10
16.848 3.9360001 -1.558 11
19.563 4.5440001 -1.5 14
10.963 2.5480001 -1.701 9
12.021 2.7739999 -1.67 10
13.317 3.052 -1.636 11
14.969 3.408 -1.6 8
17.096001 3.868 -1.557 11
19.82 4.4580002 -1.493 14
11.048 2.4879999 -1.697 10
12.116 2.7079999 -1.666 10
13.456 2.9860001 -1.6339999 11
15.188 3.349 -1.602 10
17.318001 3.7939999 -1.552 11
20.141001 4.3850002 -1.487 15
11.151 2.4300001 -1.6950001 10
12.248 2.6489999 -1.664 10
13.62 2.924 -1.632 11
15.382 3.28 -1.598 10
17.615 3.7320001 -1.55 12
20.488001 4.3130002 -1.4809999 13
11.261 2.372 -1.693 10
12.39 2.5899999 -1.6619999 10
13.794 2.862 -1.6289999 11
15.628 3.22 -1.597 10
17.936001 3.671 -1.549 12
20.843 4.2389998 -1.472 12
11.398 2.3199999 -1.693 10
12.527 2.529 -1.658 10
13.985 2.802 -1.627 11
15.871 3.1570001 -1.594 12
18.247999 3.6040001 -1.543 12
21.278 4.1750002 -1.464 15
11.526 2.2620001 -1.6900001 11
12.682 2.4690001 -1.655 10
14.192 2.7409999 -1.624 11
16.125999 3.092 -1.589 14
18.570999 3.5339999 -1.535 13
21.750999 4.1110001 -1.455 16
11.669 2.2060001 -1.687 11
12.855 2.4089999 -1.651 10
14.397 2.677 -1.618 11
16.382 3.023 -1.581 12
18.950001 3.473 -1.529 13
22.243999 4.0469999 -1.444 13
11.839 2.154 -1.687 11
13.047 2.3529999 -1.648 11
14.641 2.6199999 -1.615 11
16.695 2.964 -1.576 11
19.381001 3.415 -1.523 14
22.851999 3.9979999 -1.436 12
12.003 2.0999999 -1.684 11
13.234 2.2950001 -1.643 11
14.908 2.563 -1.612 10
17.000999 2.9000001 -1.568 11
19.745001 3.342 -1.508 14
23.357 3.924 -1.4170001 10
12.154 2.0420001 -1.677 10
13.467 2.2420001 -1.641 10
15.201 2.5079999 -1.609 10
17.417999 2.8510001 -1.566 11
20.306999 3.2969999 -1.505 15
24.461 3.941 -1.427 23
12.34 1.987 -1.673 11
13.698 2.1860001 -1.637 11
15.496 2.451 -1.604 9
17.841 2.7980001 -1.562 12
20.875999 3.247 -1.498 15
24.972 3.852 -1.397 23
12.553 1.9349999 -1.671 11
13.95 2.1300001 -1.632 11
15.84 2.3970001 -1.6 9
18.219 2.7320001 -1.55 12
21.379 3.1800001 -1.4809999 15
25.245001 3.724 -1.35 23
12.747 1.878 -1.664 11
14.224 2.075 -1.628 11
16.209 2.342 -1.595 9
18.659 2.671 -1.539 13
22.087999 3.1340001 -1.472 15
26.627001 3.7460001 -1.355 25
12.991 1.826 -1.661 11
14.508 2.0179999 -1.6210001 10
16.579 2.2839999 -1.587 10
19.198999 2.6199999 -1.5319999 13
22.832001 3.0869999 -1.46 12
26.733999 3.582 -1.288 32
13.254 1.774 -1.658 12
14.824 1.9630001 -1.6160001 11
16.981001 2.227 -1.579 10
19.738001 2.563 -1.521 14
23.813 3.0639999 -1.4579999 21
26.812 3.418 -1.2180001 36
13.498 1.717 -1.65 11
15.181 1.911 -1.612 11
17.469 2.175 -1.575 11
20.436001 2.5190001 -1.516 15
24.59 3.0020001 -1.434 23
27.204 3.289 -1.1569999 41
13.783 1.663 -1.645 12
15.555 1.855 -1.6059999 9
17.945999 2.1170001 -1.5650001 11
21.139999 2.467 -1.505 15
25.156 2.905 -1.392 23
27.492001 3.1429999 -1.086 41
14.091 1.607 -1.638 12
15.948 1.798 -1.597 9
18.426001 2.0539999 -1.55 12
21.834999 2.4070001 -1.489 14
26.329 2.8710001 -1.376 23
30.245001 3.2639999 -1.102 46
14.441 1.554 -1.6339999 12
16.396 1.743 -1.591 10
18.990999 1.995 -1.538 13
22.718 2.3599999 -1.477 12
26.472 2.7179999 -1.3 25
30.896999 3.1389999 -1.028 36
14.784 1.4960001 -1.626 11
16.846001 1.684 -1.581 10
19.725 1.946 -1.534 14
23.853001 2.325 -1.473 21
27.209 2.6210001 -1.247 26
31.92 3.039 -0.95599997 40
15.196 1.441 -1.62 12
17.421 1.63 -1.577 11
20.483 1.893 -1.525 15
24.517 2.2360001 -1.432 22
28.896999 2.605 -1.228 32
32.631001 2.904 -0.86699998 38
15.626 1.3839999 -1.613 10
17.98 1.5700001 -1.566 12
21.263 1.832 -1.51 14
25.860001 2.1989999 -1.4220001 24
29.802 2.4990001 -1.163 41
32.738998 2.71 -0.755 47
16.077 1.323 -1.603 9
18.572001 1.506 -1.552 12
22.204 1.775 -1.498 14
26.153 2.062 -1.346 24
30.486 2.3699999 -1.081 40
33.046001 2.5339999 -0.64399999 61
16.599001 1.2640001 -1.596 10
19.322001 1.448 -1.545 13
23.496 1.734 -1.5 22
26.625 1.936 -1.272 21
31.615999 2.2639999 -1.0039999 41
33.285999 2.348 -0.52499998 58
17.198999 1.204 -1.59 10
20.108999 1.385 -1.533 14
24.216999 1.641 -1.456 22
28.665001 1.911 -1.262 31
32.530998 2.135 -0.91100001 41
33.744999 2.1789999 -0.405 43
17.822001 1.141 -1.58 12
20.988001 1.321 -1.522 15
25.598 1.5829999 -1.443 24
29.548 1.796 -1.1900001 37
33.240002 1.985 -0.80400002 42
33.907001 1.99 -0.27599999 42
18.475 1.073 -1.567 12
21.851 1.245 -1.499 17
25.934 1.449 -1.36 24
30.393 1.6670001 -1.104 37
33.502998 1.803 -0.67799997 40
34.841999 1.84 -0.145 45
19.285 1.007 -1.5599999 13
23.287001 1.1900001 -1.506 21
26.816999 1.3430001 -1.3 25
31.483999 1.545 -1.018 40
33.587002 1.614 -0.54400003 41
34.771999 1.636 -0.0040000002 15
20.132999 0.93400002 -1.548 14
24.047001 1.092 -1.459 21
28.542 1.266 -1.2690001 32
32.495998 1.408 -0.91799998 42
33.874001 1.4349999 -0.41100001 42
36.660999 1.518 0.146 1
21.112 0.861 -1.538 16
25.559 1.015 -1.4450001 23
29.400999 1.137 -1.1849999 48
33.462002 1.261 -0.80599999 43
34.874001 1.28 -0.27500001 49
31.650999 1.132 0.25999999 5
22.139999 0.77700001 -1.5190001 17
25.816 0.88 -1.351 23
30.486 1.01 -1.101 36
34.029999 1.094 -0.676 51
0 0 0 0
31.125 0.94300002 0.389 43
23.488001 0.69400001 -1.512 21
27.274 0.77899998 -1.311 22
31.495001 0.86900002 -1.001 39
34.231998 0.91299999 -0.53200001 42
36.867001 0.949 0.026000001 11
30.774 0.764 0.52100003 41
24.542999 0.59200001 -1.474 25
28.858 0.66799998 -1.262 35
32.698002 0.72600001 -0.89600003 41
34.355999 0.73100001 -0.382 43
31.066999 0.63200003 0.161 27
30.952999 0.60299999 0.66299999 41
25.537001 0.477 -1.421 24
29.163 0.51800001 -1.145 41
33.973 0.57300001 -0.77999997 43
31.138 0.49599999 -0.206 3
30.903999 0.46599999 0.29899999 34
31.235001 0.44100001 0.81400001 12
26.379 0.35299999 -1.349 25
0 0 0 0
34.452999 0.40000001 -0.634 42
31.139999 0.331 -0.061000001 3
30.704 0.30000001 0.44100001 46
31.207001 0.27700001 0.95899999 7
28.419001 0.23 -1.322 29
31.83 0.229 -0.95899999 41
34.617001 0.219 -0.47400001 58
30.990999 0.168 0.082999997 16
30.921 0.141 0.59100002 38
31.084999 0.116 1.104 12
29.228001 0.086000003 -1.224 43
33.493 0.07 -0.852 43
