# .PCD v0.7 - Point Cloud Data file format
VERSION 0.7
FIELDS x y z intensity
SIZE 4 4 4 4
TYPE F F F F
COUNT 1 1 1 1
WIDTH 1829
HEIGHT 1
VIEWPOINT 0 0 0 1 0 0 0
POINTS 1829
DATA ascii
6.704 -4.1020002 -1.814 10
4.8379998 -3.1059999 -1.845 9
5.1389999 -3.2639999 -1.836 9
5.4889998 -3.4519999 -1.832 10
5.8979998 -3.677 -1.835 9
6.323 -3.9100001 -1.826 9
6.7839999 -4.165 -1.813 10
4.8850002 -3.1459999 -1.845 9
5.1849999 -3.303 -1.8329999 9
5.5500002 -3.5009999 -1.8329999 10
5.9650002 -3.73 -1.834 9
6.3829999 -3.9590001 -1.821 9
6.8740001 -4.2319999 -1.812 10
4.9250002 -3.1800001 -1.842 10
5.2379999 -3.346 -1.8329999 10
5.6160002 -3.553 -1.834 10
6.04 -3.7869999 -1.835 9
6.4640002 -4.02 -1.8200001 9
6.9619999 -4.2989998 -1.8099999 10
4.9759998 -3.22 -1.842 9
5.2859998 -3.385 -1.83 10
5.6700001 -3.595 -1.83 10
6.098 -3.832 -1.83 9
6.5570002 -4.0869999 -1.822 10
7.0630002 -4.3699999 -1.809 10
5.033 -3.263 -1.8430001 9
5.3569999 -3.4360001 -1.8329999 10
5.7379999 -3.645 -1.829 9
6.1830001 -3.8929999 -1.831 10
6.6399999 -4.1469998 -1.819 10
7.1729999 -4.448 -1.8099999 10
5.0780001 -3.2980001 -1.839 9
5.4159999 -3.48 -1.832 10
5.8049998 -3.6930001 -1.8279999 9
6.2529998 -3.9430001 -1.826 9
6.7360001 -4.2140002 -1.818 10
7.2810001 -4.5209999 -1.808 10
5.1389999 -3.3410001 -1.839 10
5.4949999 -3.5339999 -1.835 10
5.902 -3.7590001 -1.8329999 8
6.335 -3.9990001 -1.824 9
6.8210001 -4.2719998 -1.813 10
7.3969998 -4.599 -1.806 10
5.2030001 -3.3840001 -1.839 10
5.5609999 -3.579 -1.8329999 10
5.9819999 -3.812 -1.8329999 9
6.421 -4.0560002 -1.822 9
6.9260001 -4.3410001 -1.812 10
7.5190001 -4.6789999 -1.8049999 10
5.2659998 -3.427 -1.8380001 9
5.632 -3.6259999 -1.832 10
6.0700002 -3.8699999 -1.8329999 9
6.513 -4.1160002 -1.8200001 9
7.0450001 -4.4169998 -1.813 10
7.6490002 -4.7610002 -1.803 10
5.336 -3.4719999 -1.8380001 9
5.7119999 -3.677 -1.832 10
6.1459999 -3.918 -1.829 9
6.6090002 -4.177 -1.817 9
7.1609998 -4.4899998 -1.811 10
7.7820001 -4.8439999 -1.8 10
5.4089999 -3.5179999 -1.8380001 10
5.8140001 -3.7409999 -1.8380001 9
6.2309999 -3.971 -1.826 9
6.717 -4.243 -1.817 10
7.283 -4.5640001 -1.8099999 10
7.9130001 -4.9239998 -1.796 10
5.4819999 -3.5610001 -1.837 10
5.862 -3.7690001 -1.826 10
6.3280001 -4.0289998 -1.825 9
6.8210001 -4.3060002 -1.814 10
7.415 -4.6440001 -1.809 11
8.0690002 -5.0180001 -1.795 10
5.5570002 -3.6059999 -1.835 9
5.9850001 -3.8429999 -1.835 9
6.4330001 -4.092 -1.825 10
6.941 -4.3759999 -1.813 10
7.546 -4.7210002 -1.806 11
8.2299995 -5.112 -1.793 10
5.6440001 -3.6559999 -1.836 9
6.0669999 -3.8889999 -1.831 9
6.5310001 -4.1479998 -1.821 10
7.0619998 -4.4460001 -1.811 10
7.6919999 -4.8049998 -1.8049999 10
8.4090004 -5.2160001 -1.7920001 9
5.7589998 -3.723 -1.844 9
6.1599998 -3.9419999 -1.8279999 9
6.6350002 -4.2059999 -1.817 10
7.1989999 -4.5240002 -1.811 10
7.835 -4.8850002 -1.801 10
8.585 -5.3150001 -1.789 10
5.8460002 -3.77 -1.842 9
6.2579999 -3.9949999 -1.825 9
6.7490001 -4.2680001 -1.8150001 10
7.3299999 -4.5960002 -1.808 11
7.994 -4.974 -1.798 10
8.7880001 -5.4299998 -1.789 10
5.9380002 -3.8180001 -1.84 9
6.3670001 -4.053 -1.825 10
6.8730001 -4.3340001 -1.814 10
7.474 -4.6739998 -1.807 10
8.1599998 -5.0640001 -1.795 10
8.9969997 -5.5450001 -1.788 10
6.0310001 -3.8670001 -1.837 9
6.473 -4.1079998 -1.822 10
7.0120001 -4.4089999 -1.8150001 10
7.6170001 -4.75 -1.804 10
8.3430004 -5.1630001 -1.795 10
9.2299995 -5.6719999 -1.79 10
6.119 -3.9089999 -1.831 9
6.5840001 -4.165 -1.819 10
7.1440001 -4.4770002 -1.812 10
7.7839999 -4.8369999 -1.804 10
8.5279999 -5.2600002 -1.7920001 10
9.4490004 -5.7880001 -1.786 10
6.2259998 -3.9619999 -1.829 9
6.7069998 -4.2259998 -1.817 10
7.2800002 -4.546 -1.809 10
7.9400001 -4.9169998 -1.799 10
8.7390003 -5.3699999 -1.7920001 11
9.6920004 -5.9159999 -1.783 10
6.3280001 -4.0100002 -1.825 9
6.8239999 -4.2820001 -1.812 10
7.4330001 -4.6220002 -1.808 10
8.1090002 -5.0009999 -1.796 10
8.9499998 -5.4790001 -1.79 10
9.9499998 -6.0500002 -1.781 9
6.4460001 -4.066 -1.823 9
6.96 -4.348 -1.811 10
7.5949998 -4.7030001 -1.808 9
8.29 -5.0910001 -1.793 10
9.1739998 -5.592 -1.788 10
10.246 -6.204 -1.7819999 9
6.5689998 -4.1240001 -1.822 10
7.1100001 -4.4200001 -1.811 10
7.756 -4.7789998 -1.8049999 10
8.4910002 -5.1900001 -1.7920001 10
9.4060001 -5.7059999 -1.785 10
10.527 -6.3449998 -1.778 9
6.698 -4.1830001 -1.8200001 10
7.25 -4.4840002 -1.808 10
7.9159999 -4.8530002 -1.799 10
8.7060003 -5.2940001 -1.791 11
9.6739998 -5.8410001 -1.786 10
10.838 -6.5009999 -1.776 9
6.8210001 -4.2360001 -1.816 10
7.4109998 -4.559 -1.807 10
8.0880003 -4.9320002 -1.796 10
8.9219999 -5.3969998 -1.789 11
9.9329996 -5.9650002 -1.783 9
11.152 -6.6539998 -1.77 10
6.9549999 -4.2940001 -1.813 10
7.5689998 -4.6290002 -1.8049999 10
8.2810001 -5.0209999 -1.794 10
9.1549997 -5.507 -1.788 10
10.207 -6.0960002 -1.779 9
11.495 -6.8210001 -1.765 9
7.0999999 -4.3559999 -1.811 10
7.744 -4.7069998 -1.804 10
8.4829998 -5.112 -1.793 10
9.3920002 -5.6160002 -1.785 9
10.517 -6.244 -1.779 9
11.848 -6.9889998 -1.76 10
7.263 -4.427 -1.811 10
7.9089999 -4.777 -1.799 10
8.691 -5.204 -1.79 11
9.6459999 -5.7309999 -1.7819999 10
10.811 -6.3779998 -1.772 9
12.239 -7.1750002 -1.756 10
7.4320002 -4.4990001 -1.812 10
8.0889997 -4.8520002 -1.796 10
8.9259996 -5.309 -1.79 10
9.9230003 -5.8569999 -1.78 9
11.151 -6.5359998 -1.7690001 9
12.619 -7.3499999 -1.745 8
7.592 -4.5630002 -1.808 10
8.2770004 -4.9299998 -1.7920001 10
9.1590004 -5.4099998 -1.7869999 10
10.222 -5.9910002 -1.78 9
11.497 -6.6919999 -1.765 9
13.081 -7.5669999 -1.742 8
7.7670002 -4.6329999 -1.806 9
8.4799995 -5.013 -1.789 10
9.4069996 -5.5149999 -1.785 10
10.495 -6.1069999 -1.772 9
11.861 -6.855 -1.7589999 9
13.547 -7.7810001 -1.735 8
7.9559999 -4.71 -1.806 10
8.71 -5.1100001 -1.789 11
9.6660004 -5.6240001 -1.7819999 9
10.84 -6.2610002 -1.773 10
12.249 -7.027 -1.7539999 9
14.02 -7.993 -1.724 9
8.1210003 -4.7680001 -1.798 10
8.9379997 -5.2010002 -1.7869999 11
9.9329996 -5.7340002 -1.778 10
11.172 -6.401 -1.768 9
12.635 -7.191 -1.742 7
14.568 -8.2410002 -1.717 10
8.3149996 -4.8410001 -1.793 10
9.1700001 -5.2919998 -1.783 11
10.247 -5.8660002 -1.779 9
11.527 -6.5500002 -1.7640001 9
13.123 -7.408 -1.742 8
15.161 -8.5059996 -1.71 10
8.5340004 -4.9250002 -1.793 10
9.427 -5.3940001 -1.7819999 10
10.542 -5.9829998 -1.773 10
11.897 -6.7030001 -1.758 9
13.574 -7.5970001 -1.732 8
15.723 -8.7469997 -1.693 11
8.75 -5.0040002 -1.789 10
9.6920004 -5.4949999 -1.778 10
10.862 -6.1090002 -1.7690001 10
12.271 -6.8520002 -1.748 9
14.062 -7.8000002 -1.721 9
16.415001 -9.052 -1.6849999 12
8.9899998 -5.0929999 -1.788 11
9.96 -5.5939999 -1.773 9
11.189 -6.2360001 -1.762 9
12.679 -7.0159998 -1.7410001 7
14.587 -8.0190001 -1.711 10
17.183001 -9.3909998 -1.678 14
9.2320004 -5.1799998 -1.786 9
10.263 -5.71 -1.773 10
11.545 -6.3730001 -1.7589999 9
13.107 -7.184 -1.732 8
15.168 -8.2609997 -1.704 10
18.054001 -9.7749996 -1.674 20
9.4820004 -5.2670002 -1.7819999 10
10.564 -5.8189998 -1.768 9
11.913 -6.5120001 -1.752 10
13.591 -7.3779998 -1.727 8
15.69 -8.4619999 -1.684 11
18.763 -10.061 -1.646 17
9.7469997 -5.3590002 -1.779 10
10.894 -5.9400001 -1.766 9
12.295 -6.6529999 -1.744 9
14.09 -7.5710001 -1.7180001 9
16.448999 -8.7819996 -1.683 12
19.722 -10.471 -1.635 30
10.024 -5.4530001 -1.776 10
11.222 -6.0549998 -1.76 10
12.696 -6.7989998 -1.737 9
14.624 -7.7779999 -1.711 10
17.334999 -9.1619997 -1.689 15
20.679001 -10.868 -1.615 19
10.315 -5.5510001 -1.773 10
11.559 -6.1700001 -1.753 9
13.128 -6.9559999 -1.729 8
15.198 -7.9980001 -1.702 11
17.898001 -9.3599997 -1.656 48
0 0 0 0
10.63 -5.6570001 -1.771 10
11.927 -6.2969999 -1.748 9
13.59 -7.1220002 -1.722 8
15.758 -8.2030001 -1.689 11
18.691 -9.6689997 -1.64 18
22.961 -11.812 -1.574 13
10.932 -5.7519999 -1.7640001 9
12.272 -6.4060001 -1.735 9
14.08 -7.296 -1.7130001 9
16.375999 -8.4280005 -1.674 12
19.534 -9.9919996 -1.62 18
25.514999 -12.978 -1.6289999 2
11.278 -5.8639998 -1.761 9
12.7 -6.552 -1.732 10
14.612 -7.4840002 -1.707 9
17.080999 -8.6899996 -1.664 13
20.827999 -10.533 -1.63 20
28.722 -14.445 -1.701 11
11.616 -5.9679999 -1.756 9
13.126 -6.691 -1.725 11
15.171 -7.678 -1.699 10
17.853001 -8.9750004 -1.654 14
21.792 -10.89 -1.604 24
28.84 -14.334 -1.577 4
11.971 -6.0749998 -1.749 10
13.562 -6.829 -1.715 8
15.722 -7.8590002 -1.684 11
18.816999 -9.3450003 -1.656 22
22.826 -11.268 -1.574 13
31.284 -15.359 -1.568 14
12.326 -6.1760001 -1.74 10
14.037 -6.98 -1.7079999 9
16.358 -8.0760002 -1.675 12
19.32 -9.4759998 -1.61 17
24.062 -11.732 -1.55 2
0 0 0 0
12.708 -6.2859998 -1.7309999 10
14.538 -7.1370001 -1.699 9
16.951 -8.2609997 -1.656 13
20.551001 -9.9519997 -1.619 46
26.698999 -12.852 -1.6 2
34.081001 -16.316999 -1.406 3
13.121 -6.4039998 -1.723 9
15.063 -7.2969999 -1.689 10
17.677999 -8.5030003 -1.645 14
21.298 -10.177 -1.581 20
28.344999 -13.465 -1.573 46
28.447001 -13.442 -1.051 5
13.56 -6.5289998 -1.717 8
15.622 -7.4650002 -1.6799999 11
18.582001 -8.8179998 -1.646 44
23.186001 -10.933 -1.619 23
30.664 -14.374 -1.569 12
28.374001 -13.23 -0.92699999 77
14.035 -6.664 -1.711 8
16.223 -7.645 -1.67 11
19.006001 -8.8950005 -1.599 22
23.667 -11.006 -1.548 6
28.438999 -13.148 -1.3329999 16
28.447001 -13.082 -0.80900002 69
14.501 -6.7880001 -1.701 9
16.805 -7.8080001 -1.654 12
20.159 -9.302 -1.6059999 27
25.955999 -11.901 -1.587 3
29.405001 -13.404 -1.255 34
29.530001 -13.389 -0.71899998 5
15.009 -6.9229999 -1.692 10
17.450001 -7.9899998 -1.64 13
21.302 -9.6879997 -1.605 20
27.642 -12.492 -1.572 4
29.344 -13.184 -1.13 23
29.608999 -13.233 -0.602 1
15.545 -7.0640001 -1.684 10
18.211 -8.2159996 -1.633 15
22.448 -10.058 -1.597 25
29.48 -13.126 -1.5549999 7
28.871 -12.782 -0.99599999 1
29.662001 -13.063 -0.48500001 0
16.096001 -7.2049999 -1.673 11
19.193001 -8.5279999 -1.6390001 17
23.294001 -10.279 -1.5599999 23
28.919001 -12.683 -1.408 12
28.811001 -12.563 -0.87900001 12
0 0 0 0
16.650999 -7.3379998 -1.66 12
19.733999 -8.6330004 -1.603 29
24.636 -10.705 -1.549 4
28.83 -12.45 -1.289 47
28.933001 -12.423 -0.76999998 65
61.723999 -26.361 -0.53299999 4
17.249001 -7.4819999 -1.647 13
20.679001 -8.9040003 -1.595 20
26.997999 -11.546 -1.591 8
32.558998 -13.838 -1.3279999 0
41.931999 -17.719999 -0.95499998 4
52.393002 -22.024 -0.25400001 2
17.893 -7.6329999 -1.6339999 13
21.714001 -9.1960001 -1.587 22
29.268999 -12.315 -1.61 14
35.459999 -14.828 -1.312 52
45.208 -18.796 -0.86199999 15
52.353001 -21.653 -0.064000003 28
18.773001 -7.8769999 -1.6390001 16
22.598 -9.4139996 -1.563 22
29.382 -12.16 -1.503 23
36.452999 -14.994 -1.212 55
49.589001 -20.281 -0.764 3
111.686 -45.443001 0.25799999 26
19.336 -7.9780002 -1.613 22
23.936001 -9.8050003 -1.567 19
29.475 -11.996 -1.4 35
37.409 -15.13 -1.11 18
62.040001 -24.948 -0.73900002 4
29.881001 -11.954 0.171 20
20.134001 -8.165 -1.604 19
25.509001 -10.271 -1.574 18
29.556 -11.821 -1.296 50
29.802999 -11.847 -0.778 76
29.802999 -11.779 -0.25099999 73
29.844 -11.735 0.27200001 56
20.986 -8.3610001 -1.594 21
28.011 -11.079 -1.627 6
29.677999 -11.662 -1.198 61
29.858999 -11.66 -0.67699999 92
29.923 -11.618 -0.15099999 52
103.472 -39.971001 1.286 12
21.879 -8.5600004 -1.582 31
28.624001 -11.119 -1.561 13
29.919001 -11.542 -1.102 58
41.088001 -15.754 -0.792 5
0 0 0 0
67.834 -25.728001 1.062 5
22.531 -8.6520004 -1.549 25
28.688 -10.937 -1.465 17
30.014999 -11.367 -1.005 0
41.387001 -15.578 -0.662 2
56.660999 -21.205999 0.082000002 53
42.868999 -15.959 0.80400002 11
24.063 -9.066 -1.572 26
29.587999 -11.068 -1.413 20
0 0 0 0
48.993999 -18.094 -0.62900001 8
0 0 0 0
42.259998 -15.437 0.92199999 60
25.285 -9.3439999 -1.567 32
30.023001 -11.017 -1.337 10
0 0 0 0
41.459999 -15.016 -0.405 98
41.551998 -14.963 0.31200001 4
41.449001 -14.846 1.027 32
0 0 0 0
32.682999 -11.755 -1.352 43
33.666 -12.028 -0.80800003 17
69.536003 -24.691 -0.47 32
69.603996 -24.566 0.72799999 30
42.608002 -14.96 1.176 11
27.778 -9.8590002 -1.545 16
33.221001 -11.708 -1.273 46
40.826 -14.291 -0.86000001 45
60.882 -21.179001 -0.235 33
66.862 -23.127001 0.88599998 10
42.179001 -14.511 1.281 32
27.882 -9.6949997 -1.466 14
34.133999 -11.783 -1.207 14
40.637001 -13.933 -0.73900002 13
33.362999 -11.366 -0.035999998 3
28.292999 -9.585 0.45199999 14
42.161999 -14.204 1.391 53
28.188 -9.5939999 -1.4 7
33.317001 -11.258 -1.084 5
33.245998 -11.16 -0.514 3
33.105 -11.042 0.052000001 2
28.093 -9.3149996 0.52200001 29
42.325001 -13.958 1.506 29
0 0 0 0
33.125999 -10.954 -0.986 2
28.112 -9.2309999 -0.359 40
33.219002 -10.839 0.139 28
27.934 -9.0620003 0.58899999 55
42.723 -13.783 1.624 27
28.118 -9.1569996 -1.24 0
39.539001 -12.783 -1.072 62
0 0 0 0
66.901001 -21.347 0.44800001 12
66.688004 -21.149 1.571 5
62.389 -19.676001 2.5209999 3
31.910999 -10.156 -1.324 41
40.082001 -12.665 -0.986 46
65.661003 -20.605 -0.50700003 3
100.688 -31.393 0.917 14
0 0 0 0
70.692001 -21.782 3.017 17
32.307999 -10.044 -1.26 43
40.618 -12.534 -0.89999998 22
83.864998 -25.701 -0.449 5
101.169 -30.806999 1.152 8
117.443 -35.544998 3.3039999 20
70.672997 -21.268999 3.1700001 5
33.283001 -10.101 -1.216 43
0 0 0 0
81.570999 -24.402 -0.25400001 5
0 0 0 0
79.695 -23.542 2.4100001 9
80.264999 -23.575001 3.7650001 28
34.014 -10.073 -1.1670001 46
44.310001 -13.026 -0.78200001 12
78.252998 -22.844 -0.075999998 6
0 0 0 0
0 0 0 0
80.155998 -22.962 3.9159999 13
34.589001 -9.9860001 -1.1109999 43
38.893002 -11.144 -0.602 1
79.07 -22.495001 0.086000003 5
0 0 0 0
0 0 0 0
0 0 0 0
35.535 -9.9960003 -1.068 33
46.979 -13.115 -0.634 15
0 0 0 0
0 0 0 0
111.868 -30.611 4.0250001 31
63.432999 -17.254 3.3280001 24
0 0 0 0
48.351002 -13.146 -0.56199998 15
0 0 0 0
0 0 0 0
63.563 -16.933001 2.3959999 39
63.833 -16.902 3.4549999 42
38.542999 -10.277 -1.011 56
46.783001 -12.375 -0.461 3
63.762001 -16.746 0.41600001 104
63.653999 -16.601 1.4579999 41
63.533001 -16.465 2.4949999 36
63.525002 -16.361 3.5350001 11
38.862 -10.074 -0.95300001 28
52.812 -13.583 -0.43099999 19
94.93 -24.24 0.77399999 26
84.545998 -21.436001 2.0699999 39
70.972 -17.871 2.895 36
63.596001 -15.914 3.632 19
38.862 -9.7849998 -0.889 13
52.743999 -13.175 -0.347 41
95.650002 -23.712 0.926 18
71.791 -17.67 1.864 7
71.719002 -17.530001 3.027 37
53.084999 -12.893 3.1040001 2
36.311001 -8.8719997 -0.77499998 1
52.912998 -12.825 -0.271 53
53.355 -12.836 0.58999997 87
53.324001 -12.732 1.456 62
53.256001 -12.626 2.3169999 43
53.063999 -12.501 3.168 42
38.011002 -9.0050001 -0.75800002 1
47.735001 -11.216 -0.18000001 39
77.338997 -18.035 0.95599997 38
71.658997 -16.59 2.043 17
53.59 -12.317 2.395 7
72.574997 -16.573999 4.4159999 30
37.648998 -8.6429996 -0.70200002 1
53.466999 -12.175 -0.13600001 8
96.369003 -21.77 1.306 17
71.675003 -16.066999 2.125 7
71.272003 -15.862 3.2609999 50
27.16 -6.0029998 1.6799999 4
37.140999 -8.2519999 -0.64899999 1
73.779999 -16.257999 -0.106 7
0 0 0 0
27.108 -5.8800001 0.83099997 35
26.962 -5.8049998 1.26 47
27.082001 -5.789 1.7 45
27.072001 -5.8140001 -0.44400001 19
27.021 -5.7540002 -0.011 84
27.031 -5.7090001 0.421 81
27.068001 -5.6719999 0.85500002 66
27.118999 -5.6420002 1.29 48
27.042 -5.5840001 1.72 6
27.013 -5.6009998 -0.41800001 113
27.086 -5.5679998 0.012 64
61.837002 -12.609 1.015 24
38.68 -7.8239999 1.252 15
38.091 -7.6459999 1.841 54
38.195999 -7.6110001 2.457 2
43.937 -8.7889996 -0.64200002 32
62.108002 -12.317 0.078000002 35
62.040001 -12.198 1.0650001 40
38.737 -7.552 1.281 52
38.060001 -7.3629999 1.864 53
38.035 -7.303 2.4690001 37
44.966 -8.665 -0.625 20
72.644997 -13.872 0.14 5
62.063 -11.75 1.104 2
38.616001 -7.2490001 1.3 24
38.331001 -7.1399999 1.898 53
38.064999 -7.0370002 2.49 37
38.783001 -7.1929998 -0.51599997 26
38.754002 -7.1209998 0.096000001 89
62.123001 -11.309 1.136 23
38.838001 -7.007 1.325 32
38.348 -6.8629999 1.916 54
38.256001 -6.7919998 2.517 53
38.794998 -6.9099998 -0.49700001 2
73.358002 -12.941 0.21600001 7
62.514 -10.926 1.17 3
100.551 -17.414 3.467 28
38.290001 -6.5749998 1.925 54
38.458 -6.5510001 2.5409999 54
0 0 0 0
0 0 0 0
0 0 0 0
99.331001 -16.493999 3.451 53
38.187 -6.2870002 1.928 38
38.907001 -6.3509998 2.5780001 41
45.284 -7.408 -0.551 14
70.647003 -11.443 0.24600001 3
0 0 0 0
99.745003 -15.843 3.4779999 22
38.088001 -5.9959998 1.926 2
75.123001 -11.723 4.9819999 23
29.419001 -4.598 -0.354 23
70.917999 -10.97 0.255 5
103.212 -15.81 1.9859999 22
103.524 -15.698 3.612 6
75.843002 -11.392 3.836 4
75.739998 -11.273 5.02 33
29.461 -4.3899999 -0.354 12
70.928001 -10.46 0.25400001 14
0 0 0 0
77.929001 -11.257 2.714 46
77.964996 -11.156 3.9349999 39
76.073997 -10.782 5.0310001 9
29.563 -4.1919999 -0.35800001 150
33.910999 -4.7579999 0.117 19
0 0 0 0
97.917 -13.448 3.391 44
77.255997 -10.502 3.882 4
76.571999 -10.306 5.0440001 21
30.291 -4.079 -0.37200001 57
31.167 -4.1490002 0.1 33
81.511002 -10.73 1.531 8
51.471001 -6.7010002 1.768 15
51.523998 -6.6370001 2.5710001 33
76.757004 -9.7819996 5.0279999 18
30.416 -3.8759999 -0.384 51
31 -3.9030001 0.089000002 55
81.663002 -10.163 1.502 34
50.146 -6.171 1.701 39
50.265999 -6.1170001 2.487 60
51.467999 -6.1939998 3.3469999 2
30.725 -3.694 -0.40099999 66
30.961 -3.6760001 0.074000001 62
81.762001 -9.5860004 1.4630001 35
49.750999 -5.7649999 1.6619999 55
50.125999 -5.7379999 2.451 53
77.955002 -8.823 5.0240002 35
30.708 -3.47 -0.41800001 83
30.959999 -3.4530001 0.056000002 66
51.285999 -5.6490002 0.88599998 50
49.804001 -5.4190001 1.631 55
27.306 -2.934 1.317 81
27.129999 -2.8800001 1.73 111
27.249001 -2.8870001 -0.38800001 23
27.131001 -2.8340001 0.029999999 113
27.127001 -2.7950001 0.449 116
27.17 -2.763 0.86900002 24
27.159 -2.7260001 1.289 9
26.860001 -2.661 1.691 13
27.216999 -2.6900001 -0.40900001 6
31.393999 -3.0580001 0.0099999998 7
36.389999 -3.493 0.57200003 64
36.383999 -3.4430001 1.133 10
50.235001 -4.6880002 2.3399999 44
50.778 -4.6760001 3.151 54
0 0 0 0
37.889 -3.4219999 -0.022 39
36.501999 -3.247 0.54000002 70
36.514 -3.198 1.102 48
50.612 -4.3699999 2.3069999 36
50.689999 -4.3130002 3.0929999 51
35.602001 -3.016 -0.60399997 12
36.608002 -3.0480001 -0.059 109
36.651001 -3.0039999 0.50300002 47
36.634998 -2.9549999 1.066 48
50.901001 -4.0419998 2.2650001 41
99.485001 -7.777 5.961 23
32.346001 -2.513 -0.58499998 4
48.110001 -3.6719999 -0.133 73
36.748001 -2.756 0.461 74
36.736 -2.7079999 1.025 105
98.115997 -7.1129999 4.2490001 12
100.33 -7.1490002 5.888 24
31.997 -2.2639999 -0.61799997 2
46.071999 -3.198 -0.185 3
36.837002 -2.5090001 0.41600001 88
38.243999 -2.556 1.018 4
98.664001 -6.4759998 4.1440001 18
100.121 -6.4489999 5.744 22
34.370998 -2.1949999 -0.70999998 50
38.305 -2.3970001 -0.206 52
37.022999 -2.2679999 0.36700001 61
38.362999 -2.3010001 0.96799999 48
81.964996 -4.8200002 3.326 17
99.565002 -5.7350001 5.5689998 28
33.354 -1.901 -0.73799998 43
37.067001 -2.0639999 -0.25400001 81
38.438 -2.092 0.324 1
38.490002 -2.0469999 0.91299999 23
38.460999 -1.998 1.501 1
101.125 -5.1339998 5.4990001 28
0 0 0 0
38.505001 -1.88 -0.32600001 25
38.540001 -1.834 0.26199999 11
38.542 -1.7869999 0.852 8
82.251999 -3.7179999 3.0780001 24
102.069 -4.493 5.3829999 22
32.096001 -1.388 -0.81599998 38
36.550999 -1.5369999 -0.37099999 1
67.917 -2.776 0.347 24
38.66 -1.531 0.78799999 10
82.116997 -3.155 2.9289999 15
0 0 0 0
31.934 -1.165 -0.86900002 38
32.227001 -1.136 -0.38600001 3
38.743 -1.321 0.127 43
83.089996 -2.7379999 1.5420001 7
82.329002 -2.6159999 2.7869999 24
0 0 0 0
31.778 -0.94700003 -0.926 54
0 0 0 0
66.310997 -1.8200001 0.090000004 5
0 0 0 0
83.505997 -2.0929999 2.6630001 25
82.362999 -1.97 3.885 23
31.521999 -0.72600001 -0.98199999 38
32.782001 -0.71700001 -0.52200001 1
37.160999 -0.76700002 -0.026000001 72
37.174 -0.72600001 0.54100001 78
83.233002 -1.531 2.4820001 16
82.232002 -1.416 3.707 6
30.910999 -0.50199997 -1.031 52
34.141998 -0.51700002 -0.61799997 45
40.124001 -0.55900002 -0.115 6
73.165001 -0.94 0.90600002 7
37.278 -0.43700001 1.03 71
64.824997 -0.685 2.78 7
30.687 -0.294 -1.0930001 52
31.966999 -0.27000001 -0.65200001 36
37.393002 -0.27500001 -0.192 2
94.998001 -0.59299999 0.95999998 11
37.388 -0.192 0.94800001 49
64.459999 -0.25999999 2.618 11
28.528 -0.083999999 -1.084 1
32.756001 -0.061000001 -0.745 41
37.514 -0.027000001 -0.28200001 63
67.515999 0.024 0.51999998 10
37.509998 0.052000001 0.861 37
37.497002 0.093000002 1.433 22
28.073 0.102 -1.137 5
32.408001 0.15099999 -0.81800002 41
33.272999 0.191 -0.333 3
37.605999 0.257 0.19599999 92
37.636002 0.29800001 0.77100003 46
37.612999 0.338 1.344 37
27.629 0.28099999 -1.191 25
32.174999 0.36199999 -0.89600003 39
33.094002 0.40599999 -0.417 3
41.036999 0.54699999 0.108 1
37.714001 0.542 0.67400002 65
37.705002 0.58099997 1.25 90
27.441 0.45699999 -1.257 22
31.172001 0.551 -0.95300001 50
0 0 0 0
40.703999 0.80500001 -0.0020000001 10
37.814999 0.787 0.574 44
88.150002 1.927 2.6819999 5
0 0 0 0
30.968 0.74800003 -1.034 51
0 0 0 0
37.945999 0.99400002 -0.109 29
37.981998 1.034 0.46900001 1
0 0 0 0
25.694 0.76099998 -1.327 23
28.367001 0.86699998 -1.031 42
32.828999 1.036 -0.69099998 40
40.967999 1.332 -0.237 8
38.014999 1.275 0.36000001 83
44.112 1.522 1.091 19
25.174999 0.90399998 -1.376 22
27.916 1.029 -1.099 40
28.531 1.081 -0.68699998 1
28.479 1.107 -0.25099999 2
28.415001 1.133 0.183 42
28.337 1.158 0.61400002 49
23.503 0.995 -1.36 7
27.688 1.199 -1.179 27
28.288 1.251 -0.77100003 96
28.315001 1.279 -0.338 108
28.318001 1.307 0.093000002 71
28.333 1.335 0.52600002 40
22.518 1.095 -1.377 13
27.546 1.3660001 -1.262 27
28.190001 1.424 -0.86000001 55
28.406 1.461 -0.43200001 46
40.688999 2.1300001 0.003 37
34.681999 1.849 0.53200001 5
21.544001 1.183 -1.391 13
26.059 1.454 -1.2819999 24
28.156 1.597 -0.954 44
32.386002 1.8660001 -0.60000002 0
38.835999 2.2739999 -0.126 3
35.015999 2.0829999 0.421 44
20.736 1.268 -1.411 15
25.357 1.572 -1.336 21
28.15 1.7690001 -1.05 47
31.870001 2.0309999 -0.70099998 37
38.639 2.4990001 -0.25799999 50
34.140999 2.24 0.29300001 34
19.872999 1.337 -1.424 12
23.677999 1.614 -1.3329999 7
27.844999 1.92 -1.1390001 22
32.181999 2.2479999 -0.82200003 38
38.273998 2.7090001 -0.39199999 53
34.535999 2.4749999 0.175 10
18.981001 1.3940001 -1.431 13
22.452999 1.6670001 -1.347 11
27.726999 2.0799999 -1.235 27
31.783001 2.411 -0.92799997 50
31.885 2.4460001 -0.44 4
35.193001 2.7309999 0.052000001 19
18.319 1.455 -1.451 12
21.431 1.719 -1.3660001 15
26.171 2.1210001 -1.265 24
31.374001 2.5680001 -1.033 37
34.82 2.8789999 -0.611 44
33.741001 2.819 -0.075000003 1
17.659 1.5089999 -1.4680001 11
20.514 1.768 -1.388 12
25.403 2.2090001 -1.326 22
29.987 2.6329999 -1.103 21
33.495998 2.9660001 -0.71499997 42
33.912998 3.0320001 -0.204 29
17.042 1.556 -1.485 10
19.575001 1.803 -1.403 13
23.659 2.1960001 -1.3279999 7
28.070999 2.6270001 -1.142 21
32.678001 3.0840001 -0.82599998 44
34.091999 3.2460001 -0.33700001 13
16.458 1.601 -1.503 10
18.747999 1.836 -1.42 13
22.355 2.2049999 -1.346 9
0 0 0 0
31.822001 3.188 -0.93199998 37
36.313 3.6670001 -0.50400001 49
15.848 1.6339999 -1.515 9
18.028 1.8710001 -1.442 12
21.200001 2.214 -1.365 13
26.099001 2.744 -1.276 25
31.108999 3.2939999 -1.04 35
32.063999 3.4200001 -0.57599998 2
15.32 1.668 -1.531 10
17.367001 1.901 -1.4630001 11
20.301001 2.2360001 -1.3940001 14
24.434 2.7079999 -1.298 5
28.556999 3.1849999 -1.073 13
33.374001 3.7479999 -0.73900002 42
14.811 1.697 -1.546 11
16.695 1.923 -1.4809999 10
19.188999 2.2219999 -1.401 12
23.101999 2.6900001 -1.327 8
28.079 3.2909999 -1.177 25
32.084 3.783 -0.847 38
14.314 1.721 -1.559 11
16.066999 1.941 -1.497 9
18.382999 2.2320001 -1.425 12
21.783001 2.6589999 -1.348 10
26.473 3.25 -1.227 25
31.589001 3.901 -0.97299999 36
13.85 1.744 -1.574 11
15.491 1.959 -1.516 11
17.666 2.244 -1.451 11
20.544001 2.622 -1.365 13
25.264 3.2420001 -1.285 10
29.333 3.783 -1.035 11
13.394 1.762 -1.586 12
14.929 1.971 -1.5319999 11
16.959 2.247 -1.472 10
19.593 2.608 -1.393 12
23.422001 3.132 -1.298 6
28.32 3.8050001 -1.128 21
12.969 1.776 -1.598 11
14.411 1.98 -1.5470001 10
16.285999 2.2460001 -1.49 9
18.622 2.5780001 -1.411 12
22.172001 3.0829999 -1.332 7
26.708 3.7320001 -1.188 26
12.556 1.788 -1.61 11
13.905 1.9859999 -1.561 11
15.658 2.244 -1.5089999 10
17.832001 2.5639999 -1.436 11
20.903999 3.0179999 -1.3559999 15
25.805 3.7409999 -1.2690001 16
12.171 1.799 -1.623 11
13.427 1.99 -1.575 11
15.07 2.24 -1.527 11
17.097 2.549 -1.462 11
19.923 2.9809999 -1.388 12
23.754999 3.5680001 -1.2819999 6
11.791 1.8049999 -1.632 12
12.981 1.992 -1.5880001 11
14.514 2.233 -1.544 10
16.415001 2.5320001 -1.484 10
18.847 2.9170001 -1.406 13
22.329 3.4690001 -1.3150001 8
11.421 1.809 -1.642 11
12.555 1.992 -1.602 11
13.966 2.221 -1.557 10
15.722 2.507 -1.502 9
17.992001 2.878 -1.434 12
21.084999 3.3829999 -1.346 14
11.092 1.814 -1.654 12
12.135 1.988 -1.613 11
13.467 2.211 -1.573 11
15.103 2.4860001 -1.522 10
17.164 2.832 -1.455 11
19.979 3.306 -1.377 11
10.749 1.813 -1.661 11
11.747 1.984 -1.624 11
13.009 2.201 -1.5880001 11
14.529 2.4630001 -1.539 10
16.440001 2.7939999 -1.479 10
18.923 3.224 -1.401 13
10.45 1.8150001 -1.6720001 11
11.394 1.9809999 -1.637 11
12.543 2.184 -1.598 12
13.982 2.4389999 -1.5549999 9
15.722 2.7490001 -1.497 9
17.955999 3.148 -1.423 12
10.125 1.8099999 -1.678 11
11.034 1.974 -1.647 11
12.139 2.174 -1.614 11
13.447 2.4119999 -1.5700001 10
15.078 2.711 -1.518 9
17.115999 3.0840001 -1.448 11
9.8310003 1.806 -1.686 11
10.7 1.967 -1.658 12
11.751 2.1619999 -1.628 11
12.936 2.3829999 -1.582 11
14.494 2.675 -1.538 10
16.375 3.0280001 -1.475 10
9.5480003 1.801 -1.693 11
10.375 1.9579999 -1.668 12
11.343 2.142 -1.636 10
12.495 2.362 -1.598 11
13.91 2.6329999 -1.553 10
15.671 2.9719999 -1.497 9
9.2670002 1.7920001 -1.699 11
10.054 1.9450001 -1.675 12
10.985 2.1259999 -1.648 11
12.07 2.3380001 -1.612 11
13.368 2.5929999 -1.568 10
14.988 2.9119999 -1.516 9
8.9940004 1.783 -1.704 11
9.7469997 1.932 -1.682 11
10.635 2.108 -1.658 11
11.648 2.3099999 -1.623 11
12.889 2.5580001 -1.585 10
14.395 2.8610001 -1.535 10
8.7489996 1.775 -1.71 11
9.4610004 1.918 -1.689 11
10.319 2.092 -1.669 12
11.277 2.2880001 -1.637 11
12.425 2.523 -1.6 10
13.793 2.8039999 -1.551 10
8.5030003 1.7640001 -1.715 11
9.1800003 1.903 -1.6950001 11
9.9940004 2.072 -1.677 11
10.895 2.2590001 -1.646 11
11.993 2.4879999 -1.614 10
13.276 2.756 -1.569 10
8.2740002 1.7539999 -1.72 11
8.9200001 1.8890001 -1.702 11
9.691 2.052 -1.6849999 11
10.544 2.233 -1.656 12
11.555 2.447 -1.623 10
12.774 2.707 -1.584 10
8.0570002 1.744 -1.727 11
8.6680002 1.874 -1.7079999 11
9.4040003 2.0320001 -1.693 12
10.223 2.2090001 -1.668 12
11.187 2.4170001 -1.6390001 10
12.315 2.6630001 -1.601 10
7.8449998 1.733 -1.732 10
8.4189997 1.858 -1.7130001 11
9.1149998 2.0090001 -1.698 11
9.915 2.1849999 -1.679 11
10.811 2.382 -1.649 11
11.893 2.6210001 -1.617 9
7.6329999 1.719 -1.735 10
8.1800003 1.84 -1.717 10
8.8450003 1.987 -1.704 11
9.6070004 2.1570001 -1.687 11
10.448 2.345 -1.659 10
11.456 2.572 -1.628 10
7.448 1.71 -1.743 10
7.96 1.824 -1.723 10
8.5819998 1.964 -1.709 11
9.3120003 2.1289999 -1.694 11
10.11 2.3110001 -1.668 12
11.056 2.527 -1.638 10
7.257 1.696 -1.747 9
7.7610002 1.811 -1.7309999 10
8.342 1.943 -1.715 10
9.0159998 2.098 -1.698 11
9.8030005 2.279 -1.679 11
10.693 2.4860001 -1.651 11
7.0840001 1.686 -1.7539999 9
7.5510001 1.793 -1.735 10
8.1110001 1.9220001 -1.721 11
8.7370005 2.0680001 -1.702 10
9.5 2.247 -1.688 11
10.332 2.4419999 -1.66 10
6.9060001 1.671 -1.757 9
7.3590002 1.776 -1.7410001 10
7.8870001 1.9 -1.725 11
8.4890003 2.0420001 -1.709 10
9.2080002 2.2130001 -1.6950001 10
10.007 2.4030001 -1.671 11
6.7030001 1.648 -1.752 9
7.1729999 1.76 -1.745 10
7.6760001 1.8789999 -1.73 10
8.2419996 2.0139999 -1.7130001 11
8.9230003 2.178 -1.7 11
9.6870003 2.362 -1.679 11
6.5450001 1.635 -1.757 10
6.987 1.74 -1.748 9
7.4699998 1.857 -1.735 9
8.0220003 1.99 -1.721 10
8.6459999 2.142 -1.7029999 11
9.3780003 2.3210001 -1.686 11
6.3860002 1.62 -1.76 10
6.8270001 1.726 -1.756 9
7.283 1.837 -1.7410001 9
7.8080001 1.966 -1.728 10
8.4099998 2.1140001 -1.7130001 11
9.0900002 2.2809999 -1.693 11
6.23 1.604 -1.762 9
6.6199999 1.699 -1.749 9
7.0960002 1.816 -1.745 9
7.5999999 1.9400001 -1.733 10
8.1630001 2.0799999 -1.717 10
8.8199997 2.244 -1.701 11
6.0819998 1.589 -1.7640001 10
6.4530001 1.6799999 -1.751 10
6.914 1.794 -1.75 8
7.3860002 1.9119999 -1.735 9
7.9390001 2.0510001 -1.724 10
8.5500002 2.2049999 -1.706 10
5.9390001 1.572 -1.767 10
6.3010001 1.6619999 -1.755 10
6.7319999 1.77 -1.751 10
7.1989999 1.888 -1.7410001 9
7.7220001 2.0209999 -1.729 10
8.3079996 2.1700001 -1.7130001 10
5.8039999 1.557 -1.7690001 10
6.1459999 1.643 -1.757 11
6.559 1.747 -1.752 11
7.0380001 1.869 -1.751 9
7.5120001 1.99 -1.733 10
8.0620003 2.132 -1.717 10
5.6669998 1.54 -1.77 10
6.0040002 1.625 -1.76 10
6.402 1.726 -1.756 11
6.8249998 1.835 -1.7460001 10
7.3119998 1.961 -1.738 9
7.8499999 2.0999999 -1.725 10
5.5440001 1.525 -1.773 10
5.8709998 1.608 -1.765 10
6.2589998 1.7079999 -1.762 10
6.6469998 1.808 -1.747 10
7.1350002 1.9349999 -1.745 9
7.6259999 2.0639999 -1.728 9
5.4200001 1.5089999 -1.775 9
5.7249999 1.587 -1.763 12
6.0960002 1.683 -1.76 10
6.4980001 1.7869999 -1.755 11
6.9590001 1.908 -1.75 9
7.4349999 2.0339999 -1.735 9
5.303 1.493 -1.777 10
5.6079998 1.572 -1.7690001 11
5.967 1.665 -1.767 10
6.3439999 1.7640001 -1.758 11
6.7529998 1.8710001 -1.7460001 10
7.2399998 2.0009999 -1.739 9
5.1989999 1.48 -1.783 10
5.494 1.556 -1.774 10
5.8119998 1.64 -1.7640001 10
6.197 1.7410001 -1.762 11
6.5819998 1.8430001 -1.748 11
7.0320001 1.9630001 -1.738 10
5.0929999 1.466 -1.786 10
5.3699999 1.5369999 -1.775 10
5.6880002 1.6210001 -1.768 11
6.0289998 1.711 -1.758 10
6.434 1.819 -1.7539999 10
6.8530002 1.931 -1.742 10
4.9879999 1.45 -1.788 10
5.2620001 1.521 -1.779 10
5.5700002 1.603 -1.773 10
5.9070001 1.692 -1.765 10
6.2880001 1.794 -1.7589999 11
6.684 1.901 -1.745 11
4.8860002 1.4349999 -1.79 10
5.152 1.5039999 -1.7819999 11
5.4369998 1.579 -1.771 12
5.7600002 1.665 -1.7640001 10
6.131 1.765 -1.7589999 10
6.5250001 1.872 -1.749 11
4.7870002 1.419 -1.791 10
5.046 1.4859999 -1.783 11
5.3260002 1.561 -1.775 12
5.6399999 1.645 -1.768 9
5.9850001 1.738 -1.76 10
6.3730001 1.844 -1.753 10
4.6900001 1.403 -1.7920001 10
4.948 1.471 -1.7869999 12
5.2210002 1.543 -1.779 12
5.52 1.623 -1.771 11
5.8569999 1.715 -1.765 11
6.2270002 1.816 -1.757 10
4.6040001 1.3890001 -1.796 10
4.8400002 1.451 -1.786 11
5.1279998 1.528 -1.7869999 10
5.4050002 1.602 -1.774 11
5.724 1.689 -1.766 10
6.0700002 1.784 -1.756 10
4.5170002 1.374 -1.799 10
4.7509999 1.436 -1.79 12
5.0139999 1.506 -1.785 11
5.289 1.58 -1.775 11
5.6040001 1.666 -1.77 10
5.9289999 1.755 -1.757 10
4.4330001 1.36 -1.801 9
4.6570001 1.418 -1.791 10
4.921 1.489 -1.79 11
5.2030001 1.566 -1.785 11
5.4790001 1.64 -1.77 11
5.8060002 1.73 -1.762 9
4.3509998 1.345 -1.803 9
4.5679998 1.402 -1.793 11
4.8249998 1.471 -1.7920001 11
5.0840001 1.54 -1.7819999 11
5.3649998 1.617 -1.772 11
5.6739998 1.702 -1.762 10
4.2690001 1.329 -1.804 9
4.4899998 1.387 -1.798 10
4.7280002 1.451 -1.7920001 11
4.9850001 1.52 -1.785 10
5.257 1.594 -1.775 11
5.5570002 1.677 -1.765 10
4.1960001 1.3150001 -1.807 10
4.4000001 1.369 -1.7970001 10
4.6389999 1.432 -1.793 10
4.8850002 1.499 -1.785 11
5.152 1.572 -1.777 12
5.441 1.651 -1.767 12
4.119 1.3 -1.808 10
4.329 1.355 -1.802 10
4.5549998 1.415 -1.796 9
4.8000002 1.4809999 -1.79 11
5.0560002 1.551 -1.781 11
5.336 1.628 -1.771 11
4.046 1.285 -1.809 10
4.25 1.3380001 -1.803 11
4.4710002 1.397 -1.798 10
4.7030001 1.459 -1.789 11
4.96 1.529 -1.783 10
5.2290001 1.603 -1.773 11
3.973 1.2690001 -1.809 9
4.1799998 1.324 -1.807 10
4.3969998 1.381 -1.802 11
4.6170001 1.4400001 -1.791 10
4.8610001 1.506 -1.783 10
5.125 1.5779999 -1.775 10
3.902 1.253 -1.809 9
4.099 1.3049999 -1.804 10
4.322 1.365 -1.8049999 11
4.5339999 1.421 -1.794 10
4.7719998 1.485 -1.786 12
5.0339999 1.557 -1.779 11
3.8429999 1.2410001 -1.814 9
4.0320001 1.29 -1.807 11
4.2389998 1.345 -1.803 10
4.4489999 1.401 -1.793 10
4.6859999 1.465 -1.788 11
4.9359999 1.533 -1.779 10
3.7850001 1.228 -1.817 9
3.9679999 1.276 -1.8099999 9
4.1700001 1.329 -1.8049999 10
4.388 1.387 -1.801 11
4.6040001 1.444 -1.79 11
4.848 1.511 -1.7819999 10
3.73 1.216 -1.821 8
3.895 1.257 -1.808 10
4.098 1.311 -1.806 10
4.3140001 1.369 -1.804 11
4.5190001 1.423 -1.789 10
4.7589998 1.488 -1.783 10
3.665 1.2 -1.8200001 8
3.8380001 1.244 -1.812 10
4.0380001 1.2970001 -1.8099999 10
4.2319999 1.347 -1.8 10
4.4439998 1.404 -1.7920001 11
4.6760001 1.466 -1.785 10
3.609 1.186 -1.822 9
3.776 1.228 -1.813 10
3.9630001 1.277 -1.807 9
4.1669998 1.331 -1.804 10
4.3800001 1.387 -1.798 11
4.6030002 1.447 -1.789 11
3.5599999 1.174 -1.827 8
3.721 1.214 -1.816 9
3.895 1.2589999 -1.806 9
4.1059999 1.3150001 -1.808 10
4.3060002 1.367 -1.799 10
4.5229998 1.425 -1.79 10
3.5050001 1.16 -1.827 9
3.6719999 1.202 -1.821 9
3.845 1.245 -1.812 10
4.0370002 1.296 -1.807 9
4.237 1.348 -1.8 10
4.4520001 1.405 -1.7920001 10
3.4530001 1.146 -1.8279999 8
3.6159999 1.187 -1.821 10
3.7839999 1.228 -1.812 10
3.974 1.278 -1.808 9
4.1630001 1.327 -1.798 10
4.3899999 1.387 -1.798 10
3.408 1.1339999 -1.831 8
3.5669999 1.173 -1.824 9
3.7320001 1.214 -1.8150001 9
3.9170001 1.262 -1.8099999 9
4.1139998 1.313 -1.8049999 10
4.3169999 1.3660001 -1.798 10
3.358 1.12 -1.832 8
3.5150001 1.158 -1.825 9
3.6860001 1.201 -1.8200001 9
3.8510001 1.2410001 -1.808 9
4.0469999 1.293 -1.8049999 10
4.2490001 1.345 -1.798 9
3.3099999 1.1059999 -1.832 8
3.4690001 1.145 -1.8279999 9
3.6370001 1.186 -1.823 10
3.7980001 1.226 -1.8099999 10
3.984 1.273 -1.804 10
4.184 1.325 -1.798 9
3.263 1.092 -1.832 7
3.424 1.131 -1.83 9
3.5810001 1.169 -1.821 9
3.7490001 1.211 -1.813 10
3.9330001 1.257 -1.808 10
4.132 1.309 -1.803 10
3.2130001 1.076 -1.83 7
3.3710001 1.115 -1.827 9
3.539 1.156 -1.825 9
3.6949999 1.193 -1.813 10
3.8729999 1.238 -1.806 10
4.066 1.2869999 -1.801 10
3.1719999 1.063 -1.831 7
3.326 1.1 -1.8279999 9
3.4909999 1.14 -1.826 9
3.6530001 1.1799999 -1.817 9
3.8210001 1.221 -1.808 10
4.0159998 1.27 -1.8049999 10
3.1370001 1.052 -1.835 7
3.289 1.0880001 -1.832 9
3.45 1.127 -1.829 9
3.6070001 1.164 -1.819 9
3.766 1.202 -1.806 9
3.9579999 1.251 -1.804 10
3.0929999 1.038 -1.8329999 7
3.243 1.072 -1.83 8
3.4059999 1.112 -1.829 9
3.5580001 1.147 -1.818 9
3.727 1.188 -1.812 9
3.9059999 1.233 -1.8049999 9
3.0639999 1.027 -1.839 7
3.211 1.061 -1.834 8
3.3599999 1.096 -1.8279999 9
3.5220001 1.1339999 -1.823 9
3.678 1.171 -1.812 9
3.8559999 1.214 -1.806 9
3.023 1.013 -1.836 7
3.1689999 1.046 -1.8329999 7
3.323 1.082 -1.83 8
3.4820001 1.119 -1.825 9
3.641 1.1569999 -1.816 9
3.809 1.197 -1.807 9
2.9860001 1 -1.835 7
3.1289999 1.0319999 -1.831 8
3.2839999 1.067 -1.83 8
3.437 1.103 -1.824 8
3.5940001 1.1390001 -1.8150001 9
3.7709999 1.182 -1.811 9
2.954 0.98799998 -1.837 7
3.0969999 1.0190001 -1.834 8
3.2479999 1.053 -1.831 8
3.408 1.091 -1.83 9
3.5599999 1.125 -1.819 9
3.7279999 1.165 -1.813 9
2.9260001 0.97600001 -1.84 6
3.0650001 1.006 -1.835 8
3.2060001 1.0369999 -1.829 8
3.368 1.075 -1.829 8
3.5190001 1.109 -1.819 8
3.687 1.148 -1.814 9
0 0 0 0
3.03 0.99299997 -1.834 7
3.1760001 1.025 -1.831 8
3.335 1.061 -1.831 8
3.4860001 1.095 -1.822 9
3.6489999 1.132 -1.8150001 9
1.524 0.50599998 -0.97899997 3
3 0.98000002 -1.836 7
3.1400001 1.01 -1.83 8
3.2980001 1.045 -1.83 8
3.448 1.0779999 -1.822 9
3.615 1.1160001 -1.818 9
0 0 0 0
2.97 0.96700001 -1.836 7
3.112 0.99699998 -1.832 7
3.2639999 1.03 -1.83 8
3.4159999 1.064 -1.824 8
3.5799999 1.101 -1.8200001 9
0 0 0 0
2.9449999 0.95499998 -1.839 7
3.082 0.98299998 -1.8329999 8
3.2320001 1.015 -1.83 8
3.3789999 1.0470001 -1.822 8
3.543 1.084 -1.819 8
0 0 0 0
2.904 0.93800002 -1.83 11
3.0539999 0.97000003 -1.8329999 7
3.197 1 -1.8279999 8
3.359 1.035 -1.829 8
3.516 1.069 -1.823 8
0 0 0 0
1.701 0.54699999 -1.081 8
3.026 0.95599997 -1.8329999 7
3.1719999 0.98699999 -1.83 7
3.3180001 1.017 -1.823 8
3.4779999 1.052 -1.821 9
0 0 0 0
1.534 0.49000001 -0.98400003 3
3.006 0.94499999 -1.837 8
3.148 0.97299999 -1.8329999 8
3.2939999 1.003 -1.827 8
3.448 1.036 -1.821 8
0 0 0 0
0 0 0 0
2.9790001 0.93099999 -1.836 6
3.115 0.95700002 -1.829 7
3.2609999 0.98699999 -1.824 7
3.425 1.022 -1.825 8
0 0 0 0
0 0 0 0
2.9530001 0.917 -1.834 7
3.0910001 0.94400001 -1.83 8
3.2379999 0.97299999 -1.826 7
3.4000001 1.007 -1.826 8
0 0 0 0
0 0 0 0
2.9330001 0.90399998 -1.836 6
3.069 0.93000001 -1.83 7
3.2160001 0.95899999 -1.827 8
3.3699999 0.991 -1.824 8
0 0 0 0
0 0 0 0
0 0 0 0
3.053 0.91799998 -1.834 6
3.194 0.94499999 -1.829 8
3.3429999 0.97399998 -1.823 7
0 0 0 0
0 0 0 0
1.689 0.51300001 -1.072 3
3.026 0.903 -1.831 6
3.1760001 0.93199998 -1.831 8
3.3269999 0.96100003 -1.827 7
0 0 0 0
0 0 0 0
1.548 0.46599999 -0.98900002 3
3.01 0.88999999 -1.8329999 6
3.1500001 0.91600001 -1.8279999 7
3.303 0.94599998 -1.827 8
0 0 0 0
0 0 0 0
1.535 0.458 -0.98699999 4
2.994 0.87800002 -1.834 7
3.1329999 0.903 -1.829 7
3.2820001 0.93099999 -1.826 7
0 0 0 0
0 0 0 0
1.522 0.44999999 -0.98500001 4
2.9749999 0.86400002 -1.834 6
3.1159999 0.889 -1.83 7
3.263 0.91600001 -1.826 7
0 0 0 0
0 0 0 0
1.5140001 0.44299999 -0.98400003 4
2.951 0.84899998 -1.829 6
3.096 0.87400001 -1.8279999 7
3.247 0.90200001 -1.827 7
0 0 0 0
0 0 0 0
1.497 0.43399999 -0.97799999 2
2.9449999 0.838 -1.834 6
3.082 0.861 -1.829 7
3.233 0.88800001 -1.829 8
0 0 0 0
0 0 0 0
1.476 0.42399999 -0.96899998 2
2.9330001 0.82499999 -1.834 8
3.0680001 0.847 -1.829 7
3.2130001 0.87199998 -1.826 7
0 0 0 0
0 0 0 0
1.46 0.414 -0.96200001 2
0 0 0 0
3.059 0.83499998 -1.831 7
3.204 0.85900003 -1.829 7
0 0 0 0
0 0 0 0
0 0 0 0
1.771 0.486 -1.1160001 11
3.0539999 0.82300001 -1.835 7
3.188 0.84399998 -1.826 7
0 0 0 0
0 0 0 0
0 0 0 0
1.709 0.463 -1.081 4
3.036 0.80800003 -1.831 7
3.1789999 0.82999998 -1.827 7
1.186 0.34 -0.87099999 6
0 0 0 0
0 0 0 0
1.6289999 0.43599999 -1.034 2
3.0250001 0.79400003 -1.83 6
3.1719999 0.81699997 -1.829 7
0 0 0 0
0 0 0 0
0 0 0 0
1.5880001 0.419 -1.01 2
3.016 0.78100002 -1.829 7
3.1659999 0.80400002 -1.83 7
1.178 0.329 -0.86900002 7
0 0 0 0
0 0 0 0
1.572 0.40900001 -1.002 1
3.0109999 0.76800001 -1.83 7
3.154 0.78899997 -1.8279999 7
0 0 0 0
0 0 0 0
0 0 0 0
1.562 0.40000001 -0.99800003 1
3.0050001 0.755 -1.83 6
3.1470001 0.77499998 -1.827 7
0 0 0 0
0 0 0 0
0 0 0 0
1.55 0.391 -0.99199998 1
3.0020001 0.74199998 -1.831 6
3.1429999 0.76200002 -1.8279999 7
0 0 0 0
0 0 0 0
0 0 0 0
1.545 0.384 -0.98900002 1
2.997 0.72899997 -1.83 6
3.1440001 0.74900001 -1.83 7
0 0 0 0
0 0 0 0
0 0 0 0
1.539 0.37599999 -0.986 1
3 0.71700001 -1.8329999 6
3.1389999 0.73500001 -1.829 7
0 0 0 0
0 0 0 0
0 0 0 0
1.54 0.36899999 -0.98699999 1
2.9960001 0.70300001 -1.831 6
3.141 0.722 -1.831 7
0 0 0 0
0 0 0 0
0 0 0 0
1.539 0.36199999 -0.986 2
3.0020001 0.69199997 -1.835 7
3.1400001 0.708 -1.83 7
0 0 0 0
0 0 0 0
0 0 0 0
1.54 0.35600001 -0.98699999 1
3 0.67799997 -1.8329999 7
3.141 0.69499999 -1.83 7
0 0 0 0
0 0 0 0
0 0 0 0
1.54 0.34900001 -0.986 1
3.0020001 0.66500002 -1.8329999 6
3.141 0.68099999 -1.829 7
0 0 0 0
0 0 0 0
0 0 0 0
1.545 0.34299999 -0.98799998 1
3.006 0.653 -1.8329999 7
3.1440001 0.66799998 -1.8279999 7
0 0 0 0
0 0 0 0
0 0 0 0
1.546 0.336 -0.98699999 1
3.006 0.639 -1.83 6
3.148 0.65399998 -1.8279999 7
0 0 0 0
0 0 0 0
0 0 0 0
1.557 0.331 -0.99199998 1
3.0139999 0.62699997 -1.832 6
3.1570001 0.64200002 -1.83 7
1.189 0.26899999 -0.87400001 9
0 0 0 0
0 0 0 0
1.5599999 0.32499999 -0.99199998 1
3.0280001 0.616 -1.836 7
3.164 0.62900001 -1.829 7
0 0 0 0
0 0 0 0
1.418 0.296 -0.94400001 4
1.564 0.31799999 -0.99199998 1
3.0339999 0.60299999 -1.835 7
3.175 0.616 -1.831 7
0 0 0 0
0 0 0 0
1.4220001 0.28999999 -0.94300002 4
1.5880001 0.31600001 -1.0039999 1
3.04 0.58999997 -1.8329999 6
3.1819999 0.60299999 -1.829 7
0 0 0 0
0 0 0 0
1.4299999 0.285 -0.94499999 4
0 0 0 0
3.0550001 0.57800001 -1.836 7
3.191 0.58899999 -1.8279999 7
0 0 0 0
0 0 0 0
1.438 0.27900001 -0.94700003 3
0 0 0 0
3.0639999 0.565 -1.834 6
3.201 0.57599998 -1.8279999 7
0 0 0 0
0 0 0 0
1.455 0.27599999 -0.954 3
0 0 0 0
3.0769999 0.55299997 -1.834 6
3.2190001 0.56400001 -1.831 7
0 0 0 0
0 0 0 0
1.464 0.27000001 -0.95599997 3
2.9430001 0.528 -1.832 7
3.0869999 0.53899997 -1.8329999 7
3.233 0.551 -1.831 7
0 0 0 0
0 0 0 0
1.48 0.266 -0.96200001 2
2.964 0.51700002 -1.837 6
3.099 0.52600002 -1.831 6
3.2490001 0.53799999 -1.831 7
0 0 0 0
0 0 0 0
1.49 0.25999999 -0.963 2
2.9820001 0.505 -1.8380001 6
3.119 0.514 -1.8329999 7
3.273 0.52499998 -1.834 7
0 0 0 0
0 0 0 0
1.515 0.25600001 -0.97399998 2
3 0.49399999 -1.839 6
3.135 0.50199997 -1.8329999 8
3.286 0.51200002 -1.832 8
0 0 0 0
0 0 0 0
1.533 0.252 -0.98000002 2
3.0150001 0.48100001 -1.837 7
3.152 0.48899999 -1.832 7
3.303 0.498 -1.831 8
0 0 0 0
0 0 0 0
1.554 0.24699999 -0.98699999 1
3.0380001 0.46900001 -1.84 7
3.1700001 0.47600001 -1.831 7
3.319 0.48500001 -1.8279999 7
0 0 0 0
1.423 0.226 -0.94199997 6
1.5829999 0.244 -0.99900001 1
3.056 0.45699999 -1.839 7
3.1919999 0.46399999 -1.832 7
3.348 0.47299999 -1.8329999 8
0 0 0 0
1.444 0.222 -0.949 5
0 0 0 0
3.0739999 0.44400001 -1.837 6
3.214 0.45100001 -1.832 7
3.369 0.45899999 -1.831 8
0 0 0 0
1.459 0.21699999 -0.95300001 4
2.908 0.419 -1.8099999 6
3.092 0.43200001 -1.835 6
3.233 0.43799999 -1.83 8
3.391 0.44600001 -1.829 7
0 0 0 0
1.485 0.213 -0.96200001 4
2.9760001 0.414 -1.839 6
3.1099999 0.419 -1.832 7
3.2620001 0.426 -1.832 7
3.4200001 0.433 -1.831 8
0 0 0 0
1.511 0.20900001 -0.97100002 3
3.007 0.403 -1.844 6
3.1359999 0.40700001 -1.8329999 7
3.2880001 0.41299999 -1.8329999 7
3.4389999 0.419 -1.8279999 8
0 0 0 0
1.541 0.206 -0.98299998 2
3.0280001 0.391 -1.841 6
3.164 0.39500001 -1.835 7
3.3180001 0.40099999 -1.834 8
3.474 0.40700001 -1.831 8
1.415 0.18799999 -0.93900001 5
1.573 0.20200001 -0.995 2
3.05 0.37900001 -1.84 6
3.1900001 0.382 -1.834 8
3.3340001 0.38699999 -1.8279999 8
3.507 0.39399999 -1.832 8
1.434 0.184 -0.94300002 4
1.77 0.21799999 -1.11 2
3.082 0.36700001 -1.842 6
3.217 0.37 -1.834 7
3.3740001 0.375 -1.8329999 8
3.5339999 0.38 -1.83 8
1.46 0.18000001 -0.95200002 3
2.928 0.347 -1.8200001 6
3.1070001 0.35499999 -1.841 6
3.25 0.35800001 -1.835 8
3.3989999 0.361 -1.83 8
3.5610001 0.366 -1.827 8
1.49 0.176 -0.96200001 3
2.9909999 0.34 -1.842 7
3.132 0.34200001 -1.839 7
3.2750001 0.345 -1.832 8
3.4400001 0.34900001 -1.835 9
3.599 0.35299999 -1.829 8
1.522 0.17200001 -0.97399998 2
3.023 0.32800001 -1.844 7
3.164 0.33000001 -1.839 7
3.309 0.333 -1.834 8
3.46 0.33500001 -1.827 8
3.631 0.33899999 -1.827 8
1.562 0.168 -0.98900002 2
3.053 0.317 -1.8430001 7
3.1860001 0.317 -1.834 8
3.3429999 0.31999999 -1.834 7
3.506 0.32300001 -1.8329999 8
3.6670001 0.32600001 -1.826 8
1.7410001 0.17900001 -1.091 3
3.0780001 0.30399999 -1.84 7
3.224 0.30599999 -1.837 8
3.382 0.308 -1.836 8
3.546 0.31099999 -1.835 9
3.704 0.31200001 -1.825 8
2.9749999 0.292 -1.846 8
3.118 0.29300001 -1.844 7
3.2590001 0.294 -1.837 8
3.4089999 0.29499999 -1.832 8
3.575 0.29699999 -1.83 9
3.74 0.29800001 -1.823 9
3.0050001 0.28 -1.845 7
3.152 0.28099999 -1.844 8
3.2969999 0.28200001 -1.839 7
3.454 0.28299999 -1.836 8
3.6099999 0.28299999 -1.8279999 8
3.7809999 0.285 -1.823 9
3.036 0.26899999 -1.844 6
3.175 0.26899999 -1.8380001 7
3.335 0.27000001 -1.84 7
3.49 0.27000001 -1.834 8
3.658 0.271 -1.831 9
3.825 0.271 -1.822 8
3.069 0.257 -1.8430001 6
3.2130001 0.257 -1.839 7
3.3629999 0.257 -1.834 8
3.5320001 0.25799999 -1.835 9
3.694 0.25799999 -1.8279999 8
3.868 0.25799999 -1.821 9
3.1070001 0.24600001 -1.844 6
3.2490001 0.245 -1.8380001 8
3.4089999 0.245 -1.8380001 8
3.5680001 0.245 -1.832 8
3.733 0.244 -1.825 8
3.908 0.243 -1.818 10
3.141 0.234 -1.8430001 7
3.2909999 0.233 -1.84 8
3.4460001 0.233 -1.836 8
3.6059999 0.23100001 -1.829 9
3.776 0.23100001 -1.823 9
3.957 0.23 -1.817 9
3.178 0.222 -1.841 7
3.332 0.221 -1.84 8
3.49 0.22 -1.836 8
3.664 0.219 -1.835 9
3.825 0.21699999 -1.823 9
4.007 0.21600001 -1.816 9
3.2179999 0.211 -1.842 7
3.3729999 0.20900001 -1.84 8
3.54 0.208 -1.839 9
3.7019999 0.206 -1.831 9
3.865 0.204 -1.819 9
4.0580001 0.20200001 -1.8150001 9
3.2550001 0.199 -1.84 7
3.4170001 0.197 -1.84 8
3.585 0.19499999 -1.8380001 9
3.7479999 0.193 -1.83 9
3.914 0.19 -1.817 9
4.1160002 0.18799999 -1.816 10
3.296 0.18700001 -1.839 7
3.457 0.185 -1.8380001 9
3.6170001 0.182 -1.831 8
3.7939999 0.18000001 -1.827 9
3.9779999 0.177 -1.822 9
4.1750002 0.175 -1.816 10
3.339 0.176 -1.839 7
3.5020001 0.17299999 -1.837 9
3.6719999 0.17 -1.8329999 9
3.8369999 0.167 -1.823 9
4.02 0.163 -1.8150001 9
4.2340002 0.161 -1.816 10
3.3829999 0.164 -1.8380001 8
3.553 0.161 -1.8380001 8
3.724 0.15800001 -1.834 9
3.895 0.154 -1.825 8
4.0780001 0.15000001 -1.8150001 9
4.2919998 0.146 -1.814 10
3.4319999 0.152 -1.839 8
3.605 0.149 -1.84 9
3.7739999 0.145 -1.832 9
3.941 0.14 -1.8200001 9
4.145 0.13600001 -1.818 9
4.362 0.132 -1.8150001 10
3.4809999 0.141 -1.84 8
3.6500001 0.13600001 -1.836 8
3.825 0.132 -1.83 9
4.0019999 0.127 -1.8200001 9
4.2049999 0.123 -1.817 10
4.4250002 0.118 -1.813 11
3.527 0.12899999 -1.8380001 7
3.697 0.124 -1.8329999 9
3.8759999 0.12 -1.8279999 9
4.0570002 0.115 -1.818 10
4.27 0.11 -1.816 11
4.4980001 0.104 -1.814 10
3.5769999 0.117 -1.837 8
3.753 0.112 -1.834 9
3.9260001 0.107 -1.824 9
4.1209998 0.101 -1.818 10
4.3330002 0.096000001 -1.814 11
4.5640001 0.090000004 -1.812 10
3.631 0.105 -1.837 8
3.803 0.1 -1.83 9
3.9860001 0.093999997 -1.824 10
4.1869998 0.088 -1.819 10
4.4029999 0.082000002 -1.814 11
4.6360002 0.075999998 -1.8099999 10
3.6889999 0.093000002 -1.839 9
3.8670001 0.086999997 -1.8329999 9
4.0430002 0.081 -1.821 10
4.2519999 0.075000003 -1.817 10
4.4770002 0.068000004 -1.814 10
4.7090001 0.061000001 -1.807 10
3.7360001 0.081 -1.8329999 9
3.915 0.075000003 -1.827 9
4.112 0.068000004 -1.822 11
4.335 0.061999999 -1.823 11
4.5469999 0.054000001 -1.812 11
4.79 0.046 -1.806 10
3.799 0.068999998 -1.835 9
3.9809999 0.063000001 -1.827 10
4.178 0.055 -1.821 10
4.3959999 0.048 -1.817 11
4.6209998 0.039999999 -1.809 11
4.8769999 0.032000002 -1.8049999 11
3.8559999 0.057 -1.832 9
4.0349998 0.050000001 -1.822 10
4.25 0.043000001 -1.821 10
4.4720001 0.035 -1.817 11
4.7049999 0.026000001 -1.809 10
4.9619999 0.017000001 -1.803 11
3.9130001 0.045000002 -1.829 9
4.1030002 0.037999999 -1.822 10
4.3210001 0.029999999 -1.821 10
4.5500002 0.021 -1.816 10
4.7880001 0.012 -1.808 11
5.0560002 0.0020000001 -1.802 11
3.9749999 0.033 -1.8279999 9
4.1760001 0.025 -1.823 10
4.3969998 0.017000001 -1.8200001 11
4.6279998 0.0080000004 -1.814 10
4.8709998 -0.001 -1.8049999 10
5.1529999 -0.012 -1.802 11
4.0370002 0.021 -1.825 10
4.2540002 0.013 -1.824 10
4.4749999 0.0040000002 -1.819 11
4.7059999 -0.0049999999 -1.8099999 10
4.9699998 -0.015 -1.806 11
5.256 -0.027000001 -1.802 11
4.1100001 0.0089999996 -1.826 9
4.3260002 0 -1.823 9
4.5640001 -0.0080000004 -1.822 11
4.7909999 -0.018999999 -1.808 10
5.0689998 -0.029999999 -1.807 11
5.3569999 -0.041999999 -1.799 12
4.1760001 -0.0020000001 -1.823 10
4.4029999 -0.011 -1.822 11
4.6409998 -0.022 -1.818 10
4.8829999 -0.032000002 -1.808 11
5.164 -0.044 -1.804 11
5.4530001 -0.057 -1.793 11
4.2589998 -0.014 -1.825 10
4.4860001 -0.024 -1.822 10
4.7249999 -0.035 -1.816 10
4.9790001 -0.046 -1.807 11
5.2670002 -0.059 -1.802 10
5.572 -0.071999997 -1.793 12
4.3309999 -0.026000001 -1.822 10
4.5630002 -0.035999998 -1.818 10
4.8049998 -0.048 -1.8099999 10
5.0840001 -0.059999999 -1.808 11
5.3759999 -0.072999999 -1.801 13
5.6890001 -0.088 -1.79 12
4.4159999 -0.037999999 -1.823 10
4.6479998 -0.048999999 -1.816 10
4.8990002 -0.061000001 -1.808 11
5.1859999 -0.074000001 -1.806 11
5.4840002 -0.088 -1.7970001 11
5.8119998 -0.103 -1.788 12
4.4970002 -0.050000001 -1.821 10
4.7290001 -0.061000001 -1.811 11
5.0089998 -0.074000001 -1.812 11
5.2859998 -0.086999997 -1.802 11
5.5949998 -0.102 -1.794 11
5.9349999 -0.119 -1.784 12
4.586 -0.061999999 -1.821 10
4.8280001 -0.074000001 -1.812 11
5.112 -0.088 -1.811 11
5.395 -0.102 -1.799 11
5.7189999 -0.117 -1.7920001 12
6.0560002 -0.134 -1.777 12
4.6620002 -0.074000001 -1.8150001 9
4.9159999 -0.086999997 -1.808 11
5.2150002 -0.101 -1.808 12
5.5120001 -0.116 -1.798 11
5.8600001 -0.132 -1.794 12
6.2129998 -0.15000001 -1.78 11
4.756 -0.086000003 -1.814 10
5.0209999 -0.098999999 -1.808 11
5.323 -0.114 -1.806 11
5.6259999 -0.12899999 -1.793 12
5.9980001 -0.147 -1.7920001 13
6.3769999 -0.167 -1.781 12
4.8520002 -0.097999997 -1.812 10
5.1360002 -0.112 -1.809 11
5.4359999 -0.127 -1.803 12
5.7639999 -0.14399999 -1.795 12
