# .PCD v0.7 - Point Cloud Data file format
VERSION 0.7
FIELDS x y z intensity
SIZE 4 4 4 4
TYPE F F F F
COUNT 1 1 1 1
WIDTH 1893
HEIGHT 1
VIEWPOINT 0 0 0 1 0 0 0
POINTS 1893
DATA ascii
6.9920001 0.91900003 -1.773 12
7.5149999 0.99000001 -1.776 10
8.0170002 1.059 -1.7589999 10
8.6009998 1.14 -1.742 10
9.2580004 1.232 -1.723 10
6.4229999 0.85399997 -1.79 10
6.8000002 0.90600002 -1.775 11
7.2709999 0.97100002 -1.772 12
7.777 1.041 -1.763 10
8.3369999 1.12 -1.748 11
8.9549999 1.207 -1.729 11
6.2509999 0.84200001 -1.789 10
6.625 0.89399999 -1.779 11
7.0780001 0.95700002 -1.777 12
7.5819998 1.028 -1.774 10
8.1110001 1.103 -1.7589999 11
8.6809998 1.184 -1.738 11
6.0999999 0.83200002 -1.794 11
6.4569998 0.88200003 -1.783 11
6.8860002 0.94199997 -1.78 12
7.3530002 1.008 -1.774 11
7.8800001 1.084 -1.766 11
8.4160004 1.161 -1.744 11
5.947 0.81999999 -1.795 11
6.2979999 0.87 -1.7869999 11
6.698 0.92699999 -1.7819999 11
7.1459999 0.991 -1.776 12
7.6300001 1.061 -1.766 11
8.1780005 1.14 -1.7539999 11
5.7979999 0.80800003 -1.795 11
6.132 0.85500002 -1.7869999 11
6.5279999 0.912 -1.786 12
6.947 0.97299999 -1.778 11
7.4450002 1.045 -1.777 10
7.9590001 1.12 -1.7640001 11
5.6609998 0.796 -1.798 11
5.9910002 0.84399998 -1.7920001 12
6.355 0.89600003 -1.7869999 11
6.7550001 0.95499998 -1.78 11
7.197 1.0190001 -1.771 11
7.7119999 1.095 -1.765 10
5.5279999 0.78500003 -1.799 10
5.8390002 0.82999998 -1.793 11
6.1919999 0.88099998 -1.789 11
6.5799999 0.93800002 -1.783 11
7.02 1.002 -1.779 11
7.4759998 1.0700001 -1.765 11
5.4050002 0.77399999 -1.803 10
5.6859999 0.815 -1.79 12
6.0430002 0.86699998 -1.7920001 12
6.4159999 0.921 -1.7869999 11
6.8150001 0.98100001 -1.778 11
7.2670002 1.048 -1.7690001 12
5.276 0.76099998 -1.802 10
5.5609999 0.80199999 -1.794 10
5.9000001 0.852 -1.795 12
6.263 0.90600002 -1.7920001 10
6.6360002 0.96100003 -1.78 11
7.0700002 1.026 -1.772 11
5.1570001 0.74900001 -1.803 10
5.4380002 0.79000002 -1.7970001 11
5.7519999 0.83600003 -1.794 12
6.0960002 0.88700002 -1.79 11
6.4780002 0.94400001 -1.785 11
6.8709998 1.003 -1.773 11
5.0469999 0.73699999 -1.8049999 10
5.3200002 0.77700001 -1.8 11
5.6230001 0.82200003 -1.7970001 11
5.954 0.87099999 -1.793 12
6.3119998 0.92500001 -1.7869999 10
6.698 0.98299998 -1.777 11
4.9390001 0.72500002 -1.806 10
5.1999998 0.764 -1.801 10
5.4910002 0.80699998 -1.798 11
5.8010001 0.85299999 -1.791 12
6.1500001 0.90499997 -1.7869999 10
6.5170002 0.96100003 -1.777 12
4.8340001 0.713 -1.807 10
5.0900002 0.75099999 -1.804 11
5.3610001 0.79100001 -1.7970001 11
5.6690001 0.83700001 -1.794 10
6.0149999 0.889 -1.793 12
6.3699999 0.94300002 -1.784 11
4.7399998 0.70200002 -1.811 10
4.987 0.73799998 -1.807 11
5.2589998 0.77899998 -1.804 11
5.5469999 0.82200003 -1.7970001 11
5.836 0.86500001 -1.783 12
6.2030001 0.921 -1.783 11
4.6469998 0.69099998 -1.814 10
4.875 0.72399998 -1.806 11
5.145 0.764 -1.806 12
5.4169998 0.80500001 -1.798 11
5.7179999 0.85000002 -1.79 11
6.046 0.89999998 -1.7819999 11
4.5570002 0.67900002 -1.817 10
4.7729998 0.70999998 -1.806 10
5.0359998 0.74900001 -1.807 11
5.309 0.79000002 -1.802 11
5.592 0.833 -1.793 10
5.9039998 0.88 -1.784 11
4.4660001 0.667 -1.817 10
4.6830001 0.699 -1.8099999 11
4.9239998 0.73400003 -1.8049999 11
5.1929998 0.77399999 -1.803 11
5.448 0.81300002 -1.788 10
5.7659998 0.861 -1.785 11
4.3860002 0.65600002 -1.821 10
4.5960002 0.68599999 -1.813 11
4.8280001 0.72000003 -1.808 11
5.085 0.759 -1.804 11
5.3590002 0.80000001 -1.799 11
5.6360002 0.84200001 -1.7869999 10
4.2950001 0.64200002 -1.819 10
4.5100002 0.67400002 -1.816 11
4.7220001 0.70499998 -1.806 11
4.9770002 0.74299997 -1.8049999 11
5.2509999 0.78299999 -1.802 11
5.5120001 0.82300001 -1.788 10
4.2160001 0.63099998 -1.821 9
4.4159999 0.66000003 -1.8150001 10
4.6399999 0.69300002 -1.812 11
4.8740001 0.727 -1.8049999 10
5.1339998 0.76599997 -1.802 11
5.4029999 0.80599999 -1.793 11
4.1259999 0.61699998 -1.817 10
4.3369999 0.64700001 -1.818 11
4.5469999 0.67799997 -1.811 11
4.7820001 0.71200001 -1.808 10
5.0320001 0.74900001 -1.803 11
5.2950001 0.78899997 -1.796 11
4.053 0.60500002 -1.819 10
4.2610002 0.63499999 -1.8200001 11
4.473 0.66600001 -1.817 10
4.6890001 0.69700003 -1.809 11
4.9260001 0.73199999 -1.803 11
5.184 0.76999998 -1.7970001 11
3.9849999 0.59399998 -1.822 9
4.1799998 0.62199998 -1.8200001 10
4.3829999 0.65100002 -1.816 11
4.5949998 0.68199998 -1.809 10
4.8319998 0.71600002 -1.8049999 11
5.085 0.75400001 -1.8 11
3.918 0.58200002 -1.825 8
4.1009998 0.60799998 -1.819 11
4.309 0.63800001 -1.819 11
4.5219998 0.66900003 -1.8150001 10
4.7360001 0.69999999 -1.8049999 11
4.9899998 0.73699999 -1.803 11
3.852 0.57099998 -1.827 8
4.0279999 0.59500003 -1.821 10
4.2210002 0.62300003 -1.816 11
4.4320002 0.653 -1.814 10
4.645 0.68400002 -1.806 10
4.8870001 0.71899998 -1.802 11
3.789 0.55900002 -1.829 8
3.9579999 0.583 -1.821 10
4.1539998 0.61000001 -1.8200001 10
4.3509998 0.63800001 -1.814 11
4.5700002 0.67000002 -1.811 11
4.796 0.70200002 -1.804 10
3.7190001 0.546 -1.826 8
3.888 0.56999999 -1.821 9
4.0700002 0.59500003 -1.816 10
4.2779999 0.62400001 -1.816 10
4.4899998 0.65399998 -1.813 11
4.7090001 0.68599999 -1.8049999 10
3.6659999 0.53600001 -1.831 8
3.8269999 0.55800003 -1.823 10
4.0110002 0.583 -1.821 10
4.2140002 0.611 -1.822 10
4.4120002 0.639 -1.814 11
4.6259999 0.66900003 -1.808 10
3.602 0.523 -1.83 8
3.77 0.546 -1.827 10
3.9389999 0.56900001 -1.8200001 9
4.1420002 0.597 -1.822 10
4.3309999 0.62300003 -1.813 11
4.5489998 0.65399998 -1.8099999 10
3.546 0.51200002 -1.831 8
3.711 0.53399998 -1.829 10
3.8800001 0.55699998 -1.823 9
4.0609999 0.58099997 -1.818 10
4.2670002 0.61000001 -1.818 11
4.467 0.63700002 -1.811 10
3.494 0.50099999 -1.834 8
3.648 0.52100003 -1.8279999 9
3.8199999 0.54400003 -1.825 9
3.993 0.56699997 -1.818 10
4.1789999 0.59200001 -1.812 10
4.3959999 0.62199998 -1.814 10
3.4330001 0.48800001 -1.831 8
3.5940001 0.509 -1.83 8
3.7639999 0.53100002 -1.8279999 10
3.927 0.55299997 -1.818 9
4.1220002 0.579 -1.818 10
4.322 0.60600001 -1.814 10
3.381 0.47600001 -1.832 8
3.5450001 0.498 -1.834 8
3.7030001 0.51800001 -1.8279999 10
3.869 0.54000002 -1.821 9
4.0510001 0.56400001 -1.816 10
4.2519999 0.58999997 -1.8150001 10
3.3299999 0.465 -1.832 8
3.49 0.48500001 -1.834 9
3.6440001 0.505 -1.827 8
3.8110001 0.52600002 -1.822 9
3.984 0.54799998 -1.8150001 9
4.184 0.57499999 -1.816 10
3.2880001 0.454 -1.836 7
3.438 0.47299999 -1.834 9
3.592 0.49200001 -1.8279999 9
3.756 0.51300001 -1.824 9
3.925 0.53399998 -1.817 9
4.1230001 0.56 -1.818 10
3.2320001 0.442 -1.832 7
3.391 0.461 -1.835 8
3.5469999 0.48100001 -1.8329999 10
3.7049999 0.5 -1.827 9
3.8699999 0.52100003 -1.819 9
4.0479999 0.54299998 -1.813 9
3.1949999 0.43099999 -1.837 7
3.339 0.449 -1.834 9
3.494 0.46799999 -1.832 9
3.655 0.48699999 -1.829 9
3.812 0.50700003 -1.819 9
3.9890001 0.52899998 -1.814 9
3.1429999 0.419 -1.8329999 7
3.2920001 0.43700001 -1.834 9
3.447 0.45500001 -1.8329999 8
3.599 0.47299999 -1.827 9
3.766 0.49399999 -1.824 8
3.937 0.514 -1.817 9
3.109 0.40900001 -1.839 6
3.2479999 0.42500001 -1.835 8
3.4000001 0.44299999 -1.834 8
3.553 0.461 -1.829 8
3.7149999 0.47999999 -1.825 8
3.8789999 0.5 -1.817 8
3.0710001 0.398 -1.842 6
3.204 0.41299999 -1.835 8
3.358 0.43099999 -1.836 8
3.51 0.44800001 -1.832 9
3.664 0.46599999 -1.825 9
3.8280001 0.48500001 -1.819 9
3.027 0.38699999 -1.839 6
3.1659999 0.40200001 -1.837 7
3.312 0.41800001 -1.836 7
3.461 0.435 -1.832 8
3.615 0.45300001 -1.826 8
3.7850001 0.472 -1.823 8
2.9860001 0.375 -1.8380001 6
3.1229999 0.38999999 -1.837 8
3.2639999 0.40599999 -1.8329999 8
3.414 0.42199999 -1.83 8
3.5710001 0.43900001 -1.827 8
3.7379999 0.458 -1.825 8
0 0 0 0
3.0799999 0.37799999 -1.835 7
3.223 0.39300001 -1.8329999 7
3.3710001 0.40900001 -1.831 8
3.527 0.426 -1.8279999 8
3.6900001 0.44400001 -1.826 8
1.566 0.19 -0.98799998 2
3.05 0.368 -1.839 7
3.1819999 0.38100001 -1.832 7
3.3310001 0.39700001 -1.832 7
3.4909999 0.414 -1.8329999 8
3.645 0.43000001 -1.826 8
1.517 0.18000001 -0.96899998 2
3.013 0.35600001 -1.839 7
3.1500001 0.37 -1.836 7
3.29 0.384 -1.832 8
3.444 0.40000001 -1.83 8
3.599 0.41600001 -1.826 8
1.477 0.17200001 -0.95499998 3
1.579 0.183 -0.97500002 0
3.1199999 0.359 -1.84 7
3.257 0.37200001 -1.835 8
3.3989999 0.38699999 -1.829 8
3.563 0.403 -1.83 8
1.441 0.164 -0.94300002 4
1.803 0.204 -1.126 2
3.0869999 0.347 -1.842 6
3.2149999 0.359 -1.8329999 7
3.3610001 0.37400001 -1.83 7
3.517 0.389 -1.827 7
0 0 0 0
1.564 0.17299999 -0.98799998 2
3.046 0.33500001 -1.8380001 7
3.1830001 0.347 -1.835 7
3.326 0.361 -1.831 8
3.4820001 0.37599999 -1.83 7
0 0 0 0
1.5190001 0.164 -0.97100002 3
3.0150001 0.32300001 -1.84 6
3.1459999 0.33500001 -1.8329999 7
3.29 0.34799999 -1.831 7
3.4460001 0.36199999 -1.831 8
0 0 0 0
1.488 0.156 -0.96100003 4
2.9849999 0.31200001 -1.841 6
3.115 0.32300001 -1.835 6
3.256 0.33500001 -1.831 8
3.4089999 0.34900001 -1.831 8
0 0 0 0
1.455 0.149 -0.949 5
0 0 0 0
3.0910001 0.31200001 -1.839 6
3.221 0.322 -1.831 7
3.3710001 0.33500001 -1.83 7
0 0 0 0
0 0 0 0
1.579 0.156 -0.99400002 1
3.0569999 0.29899999 -1.837 7
3.1889999 0.31 -1.831 7
3.3410001 0.322 -1.831 8
0 0 0 0
0 0 0 0
1.543 0.147 -0.98100001 2
3.0309999 0.28799999 -1.84 6
3.161 0.29800001 -1.832 7
3.309 0.30899999 -1.831 7
0 0 0 0
0 0 0 0
1.502 0.139 -0.96399999 2
2.9949999 0.27500001 -1.835 6
3.1259999 0.285 -1.829 7
3.2820001 0.296 -1.834 7
0 0 0 0
0 0 0 0
1.477 0.132 -0.95599997 3
2.967 0.26300001 -1.8329999 7
3.1059999 0.273 -1.8329999 6
3.2479999 0.28400001 -1.831 7
0 0 0 0
0 0 0 0
1.455 0.125 -0.94999999 3
0 0 0 0
3.089 0.26199999 -1.839 7
3.224 0.271 -1.8329999 7
0 0 0 0
0 0 0 0
1.431 0.119 -0.94199997 4
1.587 0.13 -0.99699998 1
3.0580001 0.249 -1.835 7
3.1949999 0.25799999 -1.831 7
0 0 0 0
0 0 0 0
1.415 0.113 -0.93900001 4
1.55 0.122 -0.98100001 2
3.029 0.237 -1.832 6
3.174 0.24600001 -1.8329999 7
0 0 0 0
0 0 0 0
1.392 0.106 -0.93099999 4
1.527 0.115 -0.97500002 2
3.007 0.22499999 -1.832 7
3.1530001 0.233 -1.835 7
1.0829999 0.081 -0.80199999 1
0 0 0 0
0 0 0 0
1.499 0.108 -0.96399999 2
2.9879999 0.213 -1.834 6
3.1259999 0.221 -1.8329999 7
0 0 0 0
0 0 0 0
0 0 0 0
1.48 0.101 -0.958 2
2.9760001 0.20200001 -1.839 7
3.1070001 0.20900001 -1.834 6
0 0 0 0
0 0 0 0
0 0 0 0
1.466 0.094999999 -0.95499998 2
0 0 0 0
3.0940001 0.197 -1.8380001 6
0 0 0 0
0 0 0 0
0 0 0 0
1.4450001 0.089000002 -0.94700003 2
1.673 0.101 -1.0470001 1
3.075 0.184 -1.837 7
0 0 0 0
0 0 0 0
0 0 0 0
1.4299999 0.082000002 -0.94300002 2
1.574 0.090000004 -0.991 1
3.052 0.17200001 -1.834 6
0 0 0 0
0 0 0 0
0 0 0 0
0 0 0 0
1.553 0.082999997 -0.98199999 2
3.0409999 0.16 -1.837 7
0 0 0 0
0 0 0 0
0 0 0 0
0 0 0 0
1.536 0.075999998 -0.977 2
3.0220001 0.148 -1.835 6
0 0 0 0
0 0 0 0
0 0 0 0
0 0 0 0
1.523 0.068999998 -0.97299999 2
3.0150001 0.13600001 -1.839 6
0 0 0 0
0 0 0 0
0 0 0 0
0 0 0 0
1.513 0.063000001 -0.97000003 2
2.9979999 0.124 -1.836 6
0 0 0 0
0 0 0 0
0 0 0 0
0 0 0 0
1.494 0.057 -0.96200001 2
2.99 0.112 -1.8380001 6
0 0 0 0
0 0 0 0
0 0 0 0
0 0 0 0
1.49 0.050999999 -0.963 2
0 0 0 0
0 0 0 0
0 0 0 0
0 0 0 0
0 0 0 0
1.475 0.044 -0.95599997 2
2.9590001 0.086999997 -1.831 7
0 0 0 0
0 0 0 0
0 0 0 0
0 0 0 0
1.467 0.037999999 -0.954 2
2.082 0.052999999 -1.2920001 8
0 0 0 0
0 0 0 0
0 0 0 0
0 0 0 0
1.459 0.032000002 -0.94999999 2
0 0 0 0
0 0 0 0
0 0 0 0
0 0 0 0
0 0 0 0
1.455 0.027000001 -0.94999999 2
0 0 0 0
0 0 0 0
0 0 0 0
0 0 0 0
0 0 0 0
1.452 0.021 -0.94999999 2
0 0 0 0
0 0 0 0
0 0 0 0
0 0 0 0
0 0 0 0
1.448 0.015 -0.94800001 2
0 0 0 0
0 0 0 0
0 0 0 0
0 0 0 0
0 0 0 0
1.449 0.0089999996 -0.94999999 2
1.804 0.0099999998 -1.128 2
0 0 0 0
0 0 0 0
0 0 0 0
0 0 0 0
1.446 0.003 -0.94800001 2
1.793 0.003 -1.122 2
0 0 0 0
0 0 0 0
0 0 0 0
0 0 0 0
1.449 -0.0020000001 -0.94999999 2
1.806 -0.003 -1.13 2
0 0 0 0
0 0 0 0
0 0 0 0
0 0 0 0
1.447 -0.0070000002 -0.949 2
1.821 -0.011 -1.1390001 2
0 0 0 0
0 0 0 0
0 0 0 0
0 0 0 0
1.452 -0.013 -0.95099998 2
0 0 0 0
0 0 0 0
0 0 0 0
0 0 0 0
0 0 0 0
1.452 -0.018999999 -0.94999999 2
0 0 0 0
0 0 0 0
0 0 0 0
0 0 0 0
0 0 0 0
1.457 -0.025 -0.95300001 2
0 0 0 0
0 0 0 0
0 0 0 0
0 0 0 0
0 0 0 0
1.462 -0.030999999 -0.95300001 2
0 0 0 0
0 0 0 0
0 0 0 0
0 0 0 0
0 0 0 0
1.469 -0.037 -0.95599997 2
2.944 -0.075999998 -1.8279999 8
0 0 0 0
0 0 0 0
0 0 0 0
0 0 0 0
1.476 -0.043000001 -0.958 2
1.617 -0.048 -1.001 0
0 0 0 0
0 0 0 0
0 0 0 0
0 0 0 0
1.492 -0.048999999 -0.96600002 2
2.977 -0.1 -1.8380001 6
0 0 0 0
0 0 0 0
0 0 0 0
0 0 0 0
1.506 -0.055 -0.972 2
2.994 -0.112 -1.842 6
0 0 0 0
0 0 0 0
0 0 0 0
0 0 0 0
1.512 -0.061000001 -0.972 2
3 -0.124 -1.839 6
0 0 0 0
0 0 0 0
0 0 0 0
0 0 0 0
1.525 -0.068000004 -0.977 2
3.013 -0.13600001 -1.839 6
0 0 0 0
0 0 0 0
0 0 0 0
1.405 -0.067000002 -0.94 3
1.546 -0.075000003 -0.986 2
3.029 -0.148 -1.841 6
0 0 0 0
0 0 0 0
0 0 0 0
0 0 0 0
1.563 -0.081 -0.99199998 1
3.046 -0.161 -1.842 6
0 0 0 0
0 0 0 0
0 0 0 0
0 0 0 0
1.626 -0.090999998 -1.026 1
3.0650001 -0.17299999 -1.844 6
0 0 0 0
0 0 0 0
0 0 0 0
1.451 -0.086000003 -0.95599997 3
0 0 0 0
3.0840001 -0.185 -1.845 6
0 0 0 0
0 0 0 0
0 0 0 0
1.462 -0.092 -0.958 2
2.9289999 -0.185 -1.8279999 7
3.096 -0.197 -1.841 6
0 0 0 0
0 0 0 0
0 0 0 0
1.4859999 -0.098999999 -0.96700001 2
2.9679999 -0.198 -1.841 6
3.1099999 -0.20900001 -1.8380001 6
0 0 0 0
0 0 0 0
0 0 0 0
1.508 -0.105 -0.97500002 2
2.993 -0.20999999 -1.844 6
3.1329999 -0.222 -1.839 7
0 0 0 0
0 0 0 0
0 0 0 0
1.531 -0.112 -0.98299998 2
3.0120001 -0.222 -1.8430001 6
3.155 -0.234 -1.839 7
0 0 0 0
0 0 0 0
1.41 -0.108 -0.94400001 4
1.561 -0.12 -0.995 1
3.0369999 -0.235 -1.845 6
3.1789999 -0.24699999 -1.84 7
0 0 0 0
0 0 0 0
1.4299999 -0.114 -0.95099998 4
1.674 -0.134 -1.059 1
3.056 -0.24600001 -1.842 6
3.2049999 -0.25999999 -1.84 7
0 0 0 0
0 0 0 0
1.451 -0.121 -0.95700002 3
0 0 0 0
3.0829999 -0.259 -1.844 6
3.227 -0.27200001 -1.8380001 7
0 0 0 0
0 0 0 0
1.479 -0.12800001 -0.96700001 2
2.961 -0.257 -1.844 6
3.1040001 -0.27000001 -1.841 7
3.2639999 -0.285 -1.8430001 7
0 0 0 0
0 0 0 0
1.508 -0.13500001 -0.97799999 2
2.9860001 -0.26899999 -1.8430001 6
3.1370001 -0.28299999 -1.844 7
3.2939999 -0.29800001 -1.844 7
0 0 0 0
0 0 0 0
1.544 -0.14300001 -0.99199998 2
3.016 -0.28099999 -1.846 6
3.168 -0.296 -1.846 7
3.325 -0.31200001 -1.844 7
0 0 0 0
0 0 0 0
1.591 -0.153 -1.013 1
3.046 -0.29300001 -1.847 6
3.1900001 -0.30700001 -1.841 7
3.3510001 -0.324 -1.841 7
0 0 0 0
1.444 -0.14300001 -0.95700002 5
0 0 0 0
3.076 -0.30500001 -1.847 6
3.2219999 -0.31999999 -1.842 7
3.378 -0.33700001 -1.8380001 7
0 0 0 0
1.476 -0.15000001 -0.96899998 3
2.9630001 -0.30199999 -1.851 5
3.105 -0.317 -1.846 7
3.256 -0.333 -1.8430001 8
3.424 -0.35100001 -1.844 7
0 0 0 0
1.506 -0.15700001 -0.97899997 2
2.9920001 -0.31299999 -1.85 6
3.1429999 -0.33000001 -1.849 7
3.2950001 -0.34599999 -1.845 8
3.4560001 -0.36399999 -1.841 7
0 0 0 0
1.549 -0.16599999 -0.99599999 2
3.0209999 -0.32499999 -1.848 6
3.164 -0.34 -1.842 7
3.3239999 -0.35800001 -1.841 7
3.5 -0.37799999 -1.844 8
0 0 0 0
1.6849999 -0.185 -1.071 2
3.052 -0.336 -1.847 7
3.2019999 -0.35299999 -1.844 7
3.3670001 -0.37200001 -1.845 7
3.533 -0.391 -1.841 8
1.451 -0.163 -0.95899999 4
2.9260001 -0.33000001 -1.84 6
3.0899999 -0.34799999 -1.849 7
3.247 -0.36700001 -1.849 7
3.404 -0.38499999 -1.844 7
3.575 -0.405 -1.841 8
1.4859999 -0.171 -0.97100002 2
2.9779999 -0.34299999 -1.852 6
3.128 -0.361 -1.851 7
3.2820001 -0.37900001 -1.847 7
3.447 -0.39899999 -1.845 8
3.6129999 -0.419 -1.8380001 8
1.5369999 -0.18099999 -0.99299997 2
3.02 -0.35600001 -1.8559999 7
3.1589999 -0.37200001 -1.847 8
3.326 -0.39199999 -1.849 8
3.4860001 -0.41100001 -1.844 8
3.6530001 -0.43200001 -1.836 8
1.648 -0.198 -1.052 2
3.05 -0.366 -1.852 7
3.1989999 -0.384 -1.848 7
3.3610001 -0.40400001 -1.846 7
3.529 -0.42500001 -1.842 8
3.7049999 -0.447 -1.8380001 8
0 0 0 0
3.0880001 -0.37799999 -1.852 7
3.2390001 -0.39700001 -1.848 7
3.3970001 -0.41600001 -1.8430001 7
3.576 -0.43900001 -1.8430001 8
3.753 -0.461 -1.8380001 8
2.9820001 -0.37200001 -1.857 6
3.1259999 -0.38999999 -1.851 8
3.279 -0.40900001 -1.846 8
3.4489999 -0.43000001 -1.846 8
3.622 -0.45199999 -1.842 9
3.799 -0.47499999 -1.836 8
3.017 -0.38299999 -1.855 6
3.165 -0.40099999 -1.85 7
3.3280001 -0.42199999 -1.849 8
3.4920001 -0.44299999 -1.845 9
3.6689999 -0.46599999 -1.841 8
3.845 -0.48899999 -1.832 9
3.052 -0.39300001 -1.852 7
3.204 -0.41299999 -1.849 8
3.369 -0.43399999 -1.848 8
3.5339999 -0.45500001 -1.842 8
3.7160001 -0.479 -1.84 9
3.9059999 -0.50400001 -1.835 9
3.095 -0.405 -1.853 6
3.253 -0.42500001 -1.852 8
3.414 -0.44600001 -1.847 8
3.586 -0.46900001 -1.8430001 8
3.7679999 -0.493 -1.839 9
3.9579999 -0.51899999 -1.8329999 9
3.1359999 -0.41600001 -1.852 7
3.2909999 -0.43599999 -1.848 8
3.464 -0.45899999 -1.848 8
3.6389999 -0.48199999 -1.844 9
3.8150001 -0.50599998 -1.835 9
4.013 -0.53299999 -1.831 8
3.177 -0.42699999 -1.85 7
3.3429999 -0.449 -1.85 7
3.52 -0.47299999 -1.851 8
3.6889999 -0.495 -1.842 9
3.875 -0.52100003 -1.836 9
4.0770001 -0.54900002 -1.832 9
3.221 -0.43799999 -1.849 7
3.3929999 -0.461 -1.851 9
3.5680001 -0.48500001 -1.849 9
3.7379999 -0.50800002 -1.839 9
3.9330001 -0.53500003 -1.835 9
4.1389999 -0.56400001 -1.831 9
3.2709999 -0.44999999 -1.851 7
3.438 -0.47299999 -1.848 9
3.6140001 -0.49700001 -1.845 9
3.7969999 -0.52200001 -1.839 9
3.987 -0.54900002 -1.831 8
4.2129998 -0.57999998 -1.834 9
3.316 -0.46200001 -1.848 7
3.49 -0.48500001 -1.848 9
3.665 -0.509 -1.842 9
3.8540001 -0.53600001 -1.8380001 9
4.0539999 -0.56400001 -1.8329999 10
4.276 -0.59600002 -1.831 9
3.3710001 -0.47400001 -1.851 8
3.5469999 -0.498 -1.85 9
3.724 -0.523 -1.8430001 9
3.9089999 -0.54900002 -1.835 9
4.1209998 -0.579 -1.8329999 10
4.349 -0.61199999 -1.831 9
3.4200001 -0.48500001 -1.849 7
3.5969999 -0.50999999 -1.846 10
3.78 -0.53500003 -1.841 9
3.974 -0.56300002 -1.835 9
4.1929998 -0.59399998 -1.834 10
4.4219999 -0.62800002 -1.83 10
3.4719999 -0.49700001 -1.848 8
3.6530001 -0.52200001 -1.846 9
3.8429999 -0.54900002 -1.842 9
4.0349998 -0.57700002 -1.8329999 9
4.2719998 -0.611 -1.837 10
4.5009999 -0.64399999 -1.83 10
3.5280001 -0.509 -1.848 8
3.707 -0.53399998 -1.8430001 10
3.902 -0.56199998 -1.839 10
4.1170001 -0.59299999 -1.839 10
4.3369999 -0.625 -1.8329999 10
4.5739999 -0.66000003 -1.827 10
3.5929999 -0.52200001 -1.851 8
3.7690001 -0.54699999 -1.8430001 9
3.9579999 -0.574 -1.834 9
4.184 -0.60699999 -1.836 9
4.4070001 -0.639 -1.83 10
4.6560001 -0.676 -1.826 10
3.6429999 -0.53299999 -1.847 8
3.832 -0.55900002 -1.842 9
4.0289998 -0.588 -1.836 10
4.2589998 -0.62099999 -1.837 10
4.494 -0.65600002 -1.832 11
4.7449999 -0.69300002 -1.826 10
3.704 -0.54400003 -1.846 9
3.9000001 -0.57200003 -1.8430001 9
4.1090002 -0.60299999 -1.84 10
4.329 -0.63499999 -1.834 10
4.559 -0.66900003 -1.825 10
4.8340001 -0.70999998 -1.825 11
3.7720001 -0.55699998 -1.848 9
3.957 -0.58399999 -1.837 10
4.1810002 -0.616 -1.839 10
4.4130001 -0.65100002 -1.835 9
4.6479998 -0.685 -1.825 10
4.928 -0.727 -1.824 9
3.835 -0.56900001 -1.846 8
4.0339999 -0.59799999 -1.84 9
4.2600002 -0.63099998 -1.839 11
4.4910002 -0.66500002 -1.832 10
4.7449999 -0.70300001 -1.827 11
5.026 -0.745 -1.823 11
3.901 -0.58099997 -1.845 8
4.105 -0.611 -1.839 10
4.3379998 -0.64499998 -1.8380001 11
4.5770001 -0.68000001 -1.832 10
4.8400002 -0.71899998 -1.827 11
5.1269999 -0.76300001 -1.822 11
3.964 -0.59200001 -1.841 8
4.1830001 -0.62400001 -1.84 9
4.4169998 -0.65799999 -1.836 10
4.6609998 -0.69499999 -1.83 10
4.9369998 -0.736 -1.827 11
5.2249999 -0.77899998 -1.819 11
4.0310001 -0.60299999 -1.8380001 9
4.256 -0.63599998 -1.837 10
4.5019999 -0.67199999 -1.836 9
4.7519999 -0.70999998 -1.829 10
5.039 -0.75300002 -1.826 12
5.3400002 -0.79799998 -1.819 11
4.1040001 -0.61500001 -1.837 9
4.342 -0.64999998 -1.839 10
4.5879998 -0.68699998 -1.834 10
4.8520002 -0.72600001 -1.829 11
5.1420002 -0.76899999 -1.824 11
5.4499998 -0.81599998 -1.816 11
4.1849999 -0.62800002 -1.837 9
4.4219999 -0.66299999 -1.835 10
4.6760001 -0.69999999 -1.832 11
4.9530001 -0.74199998 -1.829 11
5.2459998 -0.78600001 -1.821 11
5.5700002 -0.83499998 -1.814 12
4.277 -0.64200002 -1.842 10
4.507 -0.676 -1.834 10
4.77 -0.71499997 -1.831 10
5.0510001 -0.75700003 -1.826 12
5.3600001 -0.80299997 -1.8200001 11
5.6950002 -0.85399997 -1.813 12
4.3509998 -0.653 -1.8380001 10
4.6020002 -0.69 -1.835 10
4.862 -0.72799999 -1.8279999 11
5.1589999 -0.77200001 -1.825 11
5.4689999 -0.81900001 -1.816 11
5.8150001 -0.87099999 -1.807 12
4.4330001 -0.66500002 -1.835 9
4.6919999 -0.70300001 -1.8329999 11
4.9749999 -0.745 -1.831 12
5.2800002 -0.79000002 -1.826 11
5.599 -0.83700001 -1.816 12
5.9850001 -0.89600003 -1.816 9
4.5279999 -0.67799997 -1.836 9
4.7859998 -0.71600002 -1.831 11
5.0780001 -0.759 -1.8279999 12
5.3829999 -0.80400002 -1.821 11
5.7350001 -0.85600001 -1.817 12
6.119 -0.91399997 -1.811 9
4.625 -0.69099998 -1.837 10
4.8860002 -0.72899997 -1.829 11
5.1820002 -0.773 -1.825 12
5.5 -0.81900001 -1.818 12
5.881 -0.87599999 -1.819 11
6.2909999 -0.93699998 -1.816 8
4.7090001 -0.70200002 -1.832 9
4.9899998 -0.74299997 -1.8279999 11
5.2989998 -0.78799999 -1.824 11
5.6220002 -0.83499998 -1.8150001 13
6.0209999 -0.89399999 -1.817 8
6.447 -0.958 -1.813 9
4.8060002 -0.71399999 -1.83 10
5.1069999 -0.75700003 -1.83 12
5.4130001 -0.80199999 -1.822 11
5.7729998 -0.85500002 -1.8200001 12
6.1739998 -0.91399997 -1.817 8
6.619 -0.98000002 -1.813 12
4.9039998 -0.72500002 -1.827 10
5.2090001 -0.76899999 -1.825 11
5.5359998 -0.81699997 -1.8200001 12
5.9000001 -0.87 -1.8150001 9
6.3379998 -0.93400002 -1.818 10
6.7659998 -0.99699998 -1.804 14
5.0149999 -0.73799998 -1.827 10
5.3309999 -0.78299999 -1.826 13
5.6550002 -0.82999998 -1.8150001 12
6.0679998 -0.88999999 -1.8200001 10
6.5 -0.95300001 -1.816 8
6.941 -1.018 -1.799 11
5.1329999 -0.75199997 -1.829 11
5.434 -0.79400003 -1.817 11
5.822 -0.85000002 -1.824 14
6.2090001 -0.90499997 -1.8150001 9
6.665 -0.972 -1.812 14
7.1440001 -1.041 -1.8 12
5.2389998 -0.76200002 -1.824 11
5.5539999 -0.80699998 -1.814 12
5.961 -0.86500001 -1.821 8
6.3790002 -0.92400002 -1.816 11
6.8200002 -0.98799998 -1.804 13
7.349 -1.064 -1.7970001 12
5.3530002 -0.773 -1.8200001 11
5.6989999 -0.82200003 -1.816 13
6.1069999 -0.88 -1.818 10
6.566 -0.94499999 -1.8200001 10
7.0139999 -1.0089999 -1.803 12
7.5619998 -1.087 -1.794 13
5.4749999 -0.78500003 -1.818 11
5.848 -0.83700001 -1.817 12
6.2719998 -0.89600003 -1.819 9
6.7119999 -0.958 -1.809 14
7.2189999 -1.03 -1.801 13
7.7940001 -1.1109999 -1.7920001 13
5.6090002 -0.79699999 -1.817 11
6.0029998 -0.852 -1.819 8
6.4400001 -0.912 -1.818 10
6.8850002 -0.97399998 -1.804 13
7.421 -1.049 -1.7970001 13
8.04 -1.136 -1.79 12
5.7649999 -0.81199998 -1.822 11
6.1490002 -0.86500001 -1.8150001 10
6.618 -0.92900002 -1.817 12
7.0669999 -0.991 -1.799 12
7.6500001 -1.071 -1.796 13
8.2939997 -1.161 -1.7869999 15
5.8959999 -0.82300001 -1.817 9
6.3260002 -0.88099998 -1.819 8
6.7750001 -0.94099998 -1.8099999 13
7.2849998 -1.011 -1.801 13
7.8920002 -1.094 -1.796 12
8.5670004 -1.187 -1.785 14
6.0630002 -0.83700001 -1.821 9
6.474 -0.89200002 -1.811 8
6.9419999 -0.954 -1.803 12
7.4920001 -1.029 -1.7970001 13
8.1529999 -1.118 -1.7970001 12
8.8430004 -1.212 -1.779 13
6.2360001 -0.85100001 -1.825 7
6.6550002 -0.90600002 -1.812 13
7.1409998 -0.97000003 -1.801 13
7.7150002 -1.0470001 -1.794 14
8.382 -1.136 -1.7869999 13
9.1420002 -1.238 -1.775 14
6.3790002 -0.86000001 -1.817 11
6.8119998 -0.91600001 -1.803 13
7.348 -0.986 -1.799 13
7.9679999 -1.068 -1.795 13
8.677 -1.161 -1.7869999 13
9.4490004 -1.263 -1.768 14
6.5599999 -0.87199998 -1.819 9
6.9959998 -0.92799997 -1.799 13
7.573 -1.003 -1.798 13
8.2290001 -1.0880001 -1.794 12
8.9449997 -1.181 -1.779 13
9.7530003 -1.286 -1.756 14
6.6999998 -0.87900001 -1.806 14
7.1999998 -0.94199997 -1.798 13
7.8000002 -1.018 -1.795 13
8.4840002 -1.105 -1.789 13
9.2410002 -1.202 -1.773 14
10.08 -1.309 -1.745 13
6.8870001 -0.88999999 -1.8049999 13
7.4109998 -0.95499998 -1.7970001 14
8.0530005 -1.035 -1.795 14
8.7609997 -1.124 -1.785 13
9.5389996 -1.222 -1.763 13
10.447 -1.336 -1.7359999 14
7.086 -0.90100002 -1.804 13
7.6220002 -0.96600002 -1.791 13
8.309 -1.051 -1.7920001 12
9.0319996 -1.14 -1.776 13
9.8599997 -1.242 -1.7539999 14
10.837 -1.363 -1.727 14
7.2919998 -0.91100001 -1.803 13
7.8610001 -0.98000002 -1.79 14
8.5710001 -1.0650001 -1.788 13
9.3319998 -1.1569999 -1.7690001 13
10.196 -1.262 -1.743 14
11.26 -1.391 -1.717 14
7.4970002 -0.92000002 -1.798 13
8.1090002 -0.99199998 -1.788 13
8.8470001 -1.08 -1.7819999 14
9.6350002 -1.173 -1.76 13
10.582 -1.285 -1.7359999 15
11.728 -1.4220001 -1.709 15
7.7259998 -0.93000001 -1.7970001 13
8.3789997 -1.005 -1.788 12
9.1199999 -1.091 -1.773 13
9.9449997 -1.187 -1.747 14
10.956 -1.3049999 -1.723 14
12.217 -1.452 -1.697 14
7.9720001 -0.94099998 -1.796 13
8.6639996 -1.0190001 -1.7869999 14
9.4320002 -1.105 -1.767 14
10.309 -1.205 -1.74 15
11.4 -1.329 -1.715 14
12.745 -1.482 -1.686 14
8.2270002 -0.94999999 -1.795 12
8.9320002 -1.027 -1.779 13
9.724 -1.115 -1.755 13
10.671 -1.22 -1.728 15
11.885 -1.355 -1.7079999 14
13.353 -1.518 -1.677 14
8.4799995 -0.95700002 -1.789 14
9.2110004 -1.035 -1.77 14
10.049 -1.125 -1.744 15
11.091 -1.238 -1.72 14
12.356 -1.375 -1.692 14
13.986 -1.552 -1.663 13
8.7519999 -0.963 -1.785 13
9.5059996 -1.0420001 -1.76 14
10.415 -1.137 -1.735 15
11.545 -1.257 -1.7130001 14
12.932 -1.403 -1.6849999 15
14.702 -1.591 -1.652 13
9.0290003 -0.96799999 -1.778 13
9.8179998 -1.048 -1.75 14
10.803 -1.149 -1.727 14
12.005 -1.272 -1.701 15
13.538 -1.4299999 -1.675 13
15.454 -1.627 -1.636 12
9.3260002 -0.97299999 -1.772 13
10.151 -1.0549999 -1.7410001 15
11.212 -1.16 -1.7180001 14
12.504 -1.288 -1.6900001 15
14.172 -1.455 -1.661 13
16.281 -1.666 -1.619 9
9.6140003 -0.97500002 -1.76 13
10.508 -1.0599999 -1.732 14
11.644 -1.17 -1.707 15
13.066 -1.307 -1.6799999 13
14.872 -1.482 -1.647 12
17.229 -1.71 -1.602 11
9.9300003 -0.97600001 -1.751 14
10.887 -1.064 -1.721 15
12.137 -1.181 -1.699 14
13.674 -1.325 -1.669 13
15.635 -1.508 -1.631 11
18.325001 -1.76 -1.5880001 12
10.266 -0.97600001 -1.7410001 15
11.313 -1.0700001 -1.7130001 14
12.647 -1.1900001 -1.688 15
14.314 -1.34 -1.655 12
16.507 -1.539 -1.617 10
19.563 -1.816 -1.573 14
10.619 -0.97500002 -1.7309999 14
11.747 -1.073 -1.7029999 15
13.196 -1.198 -1.677 13
15.017 -1.3559999 -1.641 13
17.454 -1.568 -1.6 11
20.976999 -1.876 -1.556 15
11.013 -0.97399998 -1.723 14
12.222 -1.075 -1.692 15
13.804 -1.207 -1.666 12
15.786 -1.3710001 -1.625 12
18.523001 -1.601 -1.5829999 12
22.812 -1.962 -1.552 20
11.428 -0.97100002 -1.7130001 14
12.73 -1.075 -1.681 15
14.465 -1.214 -1.653 12
16.643 -1.388 -1.61 10
19.754 -1.638 -1.566 14
24.552999 -2.0239999 -1.52 22
11.876 -0.96700001 -1.704 15
13.289 -1.075 -1.671 13
15.126 -1.215 -1.635 13
17.577 -1.403 -1.5930001 11
21.112 -1.675 -1.546 15
25.113001 -1.98 -1.405 23
12.337 -0.96100003 -1.693 14
13.881 -1.073 -1.659 12
15.89 -1.219 -1.62 12
18.677999 -1.423 -1.58 13
22.993999 -1.739 -1.546 19
25.896999 -1.946 -1.295 14
12.85 -0.95200002 -1.682 13
14.518 -1.068 -1.646 13
16.709999 -1.219 -1.602 10
19.92 -1.442 -1.564 14
24.768 -1.779 -1.517 22
26.018 -1.8559999 -1.148 10
13.4 -0.94199997 -1.6720001 13
15.202 -1.0599999 -1.631 13
17.686001 -1.222 -1.59 11
21.281 -1.459 -1.545 15
25.143999 -1.709 -1.393 26
26.025999 -1.756 -0.99800003 6
13.988 -0.93000001 -1.661 12
15.9 -1.0470001 -1.6109999 12
18.775 -1.225 -1.577 13
23.077 -1.4910001 -1.54 20
25.629999 -1.641 -1.271 46
25.931 -1.645 -0.84399998 0
14.611 -0.91299999 -1.646 12
16.718 -1.034 -1.594 10
19.945 -1.22 -1.558 14
24.749001 -1.5 -1.5089999 22
25.829 -1.55 -1.1339999 63
25.987 -1.543 -0.699 8
15.291 -0.89300001 -1.632 12
17.733999 -1.024 -1.587 11
21.277 -1.215 -1.539 15
25.229 -1.424 -1.393 33
25.896999 -1.446 -0.98900002 107
25.882999 -1.4299999 -0.551 104
16.014 -0.86900002 -1.6160001 9
18.753 -1.005 -1.571 12
23.118 -1.223 -1.54 20
25.535 -1.335 -1.267 51
25.875 -1.336 -0.84500003 103
25.879999 -1.3200001 -0.40799999 94
16.763 -0.83899999 -1.595 10
19.872 -0.98000002 -1.55 14
24.551001 -1.194 -1.497 21
25.679001 -1.233 -1.131 52
25.902 -1.225 -0.70200002 85
38.222 -1.784 -0.39399999 4
17.782 -0.81300002 -1.59 11
21.156 -0.95200002 -1.5319999 16
25.295 -1.12 -1.402 34
26.07 -1.137 -1.0039999 58
0 0 0 0
32.028999 -1.354 -0.15700001 1
18.745001 -0.77399999 -1.571 12
22.966999 -0.93300003 -1.5369999 20
25.643999 -1.023 -1.2819999 45
26.247 -1.028 -0.87 2
37.509998 -1.4450001 -0.61500001 51
32.653999 -1.235 0.011 7
19.868999 -0.73199999 -1.557 14
23.906 -0.86400002 -1.47 21
25.834999 -0.91399997 -1.153 55
29.705 -1.031 -0.82800001 10
36.32 -1.234 -0.40400001 33
31.525 -1.048 0.175 37
21.058001 -0.68000001 -1.536 16
25.358 -0.801 -1.424 30
26.069 -0.80299997 -1.025 1
29.676001 -0.89200002 -0.67000002 5
33.118999 -0.97000003 -0.19400001 0
31.639 -0.90399998 0.34099999 37
22.761999 -0.62900001 -1.538 19
25.613001 -0.68900001 -1.302 14
30.063999 -0.78500003 -1.025 37
36.178001 -0.91600001 -0.62800002 47
32.312 -0.79400003 -0.024 37
31.358 -0.74699998 0.49700001 36
23.841 -0.546 -1.485 21
28.611 -0.63300002 -1.3049999 31
29.605 -0.63200003 -0.85699999 21
36.132 -0.74400002 -0.44499999 47
31.091 -0.616 0.132 42
31.193001 -0.59299999 0.64999998 45
25.392 -0.45899999 -1.45 23
29.462999 -0.509 -1.192 46
29.551001 -0.48699999 -0.704 8
32.849998 -0.51499999 -0.23899999 29
31.110001 -0.463 0.28799999 51
31.406 -0.442 0.81099999 36
25.915001 -0.34200001 -1.348 24
30.518999 -0.37599999 -1.08 38
35.576 -0.40900001 -0.67000002 47
31.611 -0.338 -0.071999997 24
30.872 -0.30500001 0.43799999 48
31.388 -0.28400001 0.96399999 35
28.277 -0.23199999 -1.33 31
31.782 -0.234 -0.96899998 41
31.539 -0.204 -0.43799999 13
0 0 0 0
31.377001 -0.152 0.59600002 46
31.683001 -0.126 1.124 10
29.285 -0.092 -1.232 46
31.724001 -0.071999997 -0.81199998 60
35.764999 -0.050000001 -0.32600001 54
30.966999 -0.017999999 0.226 36
31.33 0.0070000002 0.74299997 35
31.736 0.035 1.275 12
30.018 0.057999998 -1.119 34
31.841999 0.090000004 -0.66399997 8
35.891998 0.133 -0.15899999 45
30.841999 0.141 0.36899999 52
31.559 0.171 0.89499998 36
31.903 0.20100001 1.428 2
0 0 0 0
35.568001 0.285 -0.57599998 61
31.632 0.28 0.0040000002 9
31.280001 0.30599999 0.51700002 48
31.982 0.34200001 1.052 10
47.397999 0.55199999 2.3380001 32
29.724001 0.368 -0.83099997 2
35.588001 0.47400001 -0.41299999 47
31.780001 0.45199999 0.15000001 36
31.697001 0.47999999 0.66799998 32
31.177999 0.5 1.166 8
47.452 0.80599999 2.5510001 4
33.852001 0.60000002 -0.79299998 44
35.810001 0.66799998 -0.255 49
31.256001 0.61199999 0.28600001 34
31.841999 0.65200001 0.81 7
47.386002 1.018 1.9809999 34
47.146 1.058 2.7409999 56
34.964001 0.81 -0.66299999 46
36.103001 0.87 -0.097000003 46
31.183001 0.78100002 0.42199999 52
31.801001 0.82599998 0.94700003 4
32.039001 0.86500001 1.477 4
47.591 1.33 2.9690001 5
35.037998 1.006 -0.50999999 59
31.601999 0.93699998 0.050999999 6
31.267 0.958 0.55800003 47
31.912001 1.008 1.0880001 6
83.949997 2.7379999 4.2290001 22
47.73 1.603 3.1800001 2
35.249001 1.21 -0.36199999 44
31.441 1.11 0.185 35
31.323999 1.137 0.69199997 36
81.413002 3.036 3.119 11
82.594002 3.164 4.5050001 40
83.102997 3.27 5.8839998 18
35.230999 1.41 -0.213 47
31.492001 1.2920001 0.317 36
31.611 1.3279999 0.829 36
81.613998 3.5090001 3.46 37
82.362 3.6300001 4.829 63
82.816002 3.7379999 6.1999998 43
36.772999 1.6849999 -0.07 49
31.224001 1.462 0.442 50
31.445999 1.505 0.95300001 11
31.51 1.54 1.464 1
82.280998 4.1129999 5.1570001 53
83.633003 4.2719998 6.598 36
37.442001 1.936 0.079000004 22
31.636 1.6670001 0.574 36
31.414 1.686 1.075 11
83.366997 4.5609999 4.197 14
82.318001 4.5929999 5.474 42
83.866997 4.7690001 6.934 39
37.251999 2.141 0.221 3
31.937 1.868 0.70099998 15
31.427 1.87 1.194 5
82.767998 5.0120001 4.4780002 42
87.288002 5.382 6.131 30
84.269997 5.2880001 7.2810001 18
84.916 5.3800001 0.82200003 18
32.029999 2.062 0.82200003 2
83.301003 5.4499998 3.474 43
82.950996 5.5180001 4.7940001 18
87.460999 5.9120002 6.4629998 34
87.727997 6.0310001 7.901 28
58.083 4.0240002 0.77399999 11
57.923 4.072 1.697 29
82.774002 5.9120002 3.753 46
86.488998 6.2729998 5.3109999 32
85.408997 6.2930002 6.6199999 46
86.348999 6.4629998 8.0869999 24
59.785 4.5079999 1.0140001 16
70.408997 5.3839998 2.3180001 59
70.955002 5.5009999 3.4690001 31
84.044998 6.6139998 5.46 35
84.716003 6.7620001 6.8649998 35
49.080002 3.9779999 4.77 1
70.124001 5.7179999 1.437 44
69.734001 5.7620001 2.539 62
70.488998 5.9029999 3.6919999 32
84.75 7.191 5.796 50
84.717003 7.289 7.1550002 44
49.205002 4.2919998 4.948 2
69.712997 6.1149998 1.664 53
69.927002 6.21 2.7820001 65
70.734001 6.362 3.9430001 32
85.198997 7.763 6.1129999 24
85.514 7.8940001 7.5089998 30
86.448997 8.0880003 8.9840002 40
69.594002 6.5440001 1.8940001 73
69.958 6.6550002 3.016 59
83.803001 8.073 4.9489999 46
84.482002 8.2349997 6.3390002 40
85.572998 8.4420004 7.7919998 41
85.648003 8.5579996 9.1780005 44
69.789001 7.0050001 2.1240001 50
70.425003 7.145 3.2590001 47
84.126999 8.6330004 5.2319999 46
84.719002 8.7919998 6.6209998 40
84.888 8.9160004 7.9949999 33
0 0 0 0
40.916 4.368 1.373 21
60.202 6.4959998 2.974 2
84.174004 9.1789999 5.4949999 35
84.394997 9.3059998 6.8569999 27
86.816002 9.6829996 8.4449997 4
0 0 0 0
40.914001 4.6329999 1.497 11
60.77 6.9510002 3.1849999 13
60.898998 7.039 4.1589999 2
84.307999 9.849 7.1030002 44
0 0 0 0
0 0 0 0
40.823002 4.8920002 1.614 8
70.655998 8.5500002 3.911 32
83.976997 10.26 5.98 52
84.528 10.434 7.3660002 40
0 0 0 0
0 0 0 0
59.999001 7.586 2.5409999 8
70.619003 9.0109997 4.1069999 53
60.361 7.776 4.4679999 2
27.753 3.6110001 2.4960001 21
0 0 0 0
0 0 0 0
60.424999 8.0439997 2.7249999 8
28.108999 3.7739999 1.71 28
27.851 3.7750001 2.1370001 41
27.733 3.7920001 2.5680001 53
0 0 0 0
0 0 0 0
28.025 3.9189999 1.337 48
28.014 3.951 1.778 47
28.450001 4.0479999 2.256 0
27.768 3.9879999 2.645 1
27.719999 4.0180001 3.0840001 10
27.664 4.0489998 3.5220001 28
28.23 4.1389999 1.418 39
28.396999 4.198 1.874 47
28.507 4.2490001 2.332 47
28.608 4.302 2.796 37
27.922001 4.2379999 3.175 30
0 0 0 0
82.432999 12.649 4.3429999 13
82.778999 12.803 5.664 14
82.818001 12.916 6.9780002 42
83.250999 13.095 8.3389997 9
86.012001 13.646 9.9899998 18
0 0 0 0
82.128998 13.168 4.5149999 15
83.240997 13.451 5.8889999 15
83.804001 13.647 7.2550001 26
83.200996 13.662 8.526 33
0 0 0 0
0 0 0 0
82.831001 13.85 4.737 54
80.711998 13.596 5.8860002 41
82.962997 14.083 7.3629999 46
83.391998 14.271 8.7270002 17
0 0 0 0
0 0 0 0
80.669998 14.055 4.7849998 34
80.528999 14.131 6.0440001 37
82.603996 14.6 7.506 13
84.552002 15.062 9.0279999 17
0 0 0 0
0 0 0 0
80.580002 14.602 4.9400001 65
80.203003 14.635 6.178 58
84.093002 15.46 7.8109999 23
0 0 0 0
0 0 0 0
0 0 0 0
80.589996 15.178 5.0960002 49
0 0 0 0
82.061996 15.662 7.777 49
80.928001 15.56 8.9569998 11
0 0 0 0
0 0 0 0
78.893997 15.417 5.131 28
80.734001 15.88 6.5209999 44
80.449997 15.933 7.77 12
80.598 16.077999 9.0679998 23
0 0 0 0
0 0 0 0
52.750999 10.692 3.5220001 16
80.494003 16.419001 6.6399999 53
79.600998 16.341 7.8260002 39
81.563004 16.862 9.3170004 20
0 0 0 0
0 0 0 0
52.407001 11 3.5829999 58
65.162003 13.76 5.4780002 8
52.741001 11.208 5.27 3
80.515999 17.229 9.3290005 35
0 0 0 0
0 0 0 0
53.236 11.562 3.7179999 41
65.224998 14.247 5.5819998 12
79.876999 17.554001 8.1009998 47
80.819 17.881001 9.4840002 9
0 0 0 0
0 0 0 0
52.216999 11.719 3.72 4
51.365002 11.595 4.4679999 6
53.015999 12.039 5.4520001 7
51.917 11.867 6.1669998 38
0 0 0 0
0 0 0 0
51.98 12.049 3.7690001 29
36.171001 8.4300003 3.1919999 17
35.992001 8.4390001 3.747 2
51.424999 12.134 6.177 27
0 0 0 0
0 0 0 0
52.103001 12.462 3.8410001 35
35.546001 8.5489998 3.1800001 48
34.674 8.3870001 3.652 2
51.238998 12.468 6.2160001 11
50.894001 12.466 6.9920001 2
0 0 0 0
35.744999 8.8149996 2.674 6
35.784 8.8699999 3.2409999 23
34.841999 8.6859999 3.7090001 28
51.242001 12.853 6.2740002 41
50.771999 12.818 7.033 2
0 0 0 0
35.556 9.033 2.694 48
36.073002 9.2119999 3.302 50
34.449001 8.8450003 3.701 41
34.263 8.8509998 4.23 1
0 0 0 0
0 0 0 0
34.903 9.1289997 2.675 49
34.914001 9.1759996 3.2279999 40
41.987 11.096 4.5500002 48
51.311001 13.636 6.382 49
0 0 0 0
0 0 0 0
34.368 9.2449999 2.6600001 61
35.080002 9.4829998 3.27 48
42.029999 11.423 4.5869999 17
51.639 14.116 6.4660001 32
0 0 0 0
0 0 0 0
34.123001 9.4370003 2.665 44
35.064999 9.7449999 3.293 47
50.976002 14.238 5.5999999 26
51.167999 14.372 6.4429998 21
0 0 0 0
0 0 0 0
34.143002 9.7010002 2.6849999 33
33.938 9.6879997 3.2060001 45
34.123001 9.7919998 3.77 46
50.993999 14.711 6.4530001 2
0 0 0 0
0 0 0 0
34.848999 10.169 2.757 51
34.687 10.167 3.2950001 47
34.238998 10.086 3.799 53
33.369999 9.8830004 4.2389998 28
0 0 0 0
0 0 0 0
34.500999 10.33 2.743 47
36.058998 10.845 3.4389999 52
34.873001 10.54 3.8840001 25
0 0 0 0
0 0 0 0
0 0 0 0
35.771999 10.985 2.852 49
35.112999 10.829 3.358 49
0 0 0 0
37.909 11.806 4.8449998 24
37.952 11.886 5.4679999 8
29.421 9.2690001 4.7210002 35
35.647999 11.223 2.848 51
34.985001 11.061 3.352 49
38.116001 12.106 4.2639999 30
37.908001 12.1 4.8530002 28
29.305 9.4060001 4.23 34
29.163 9.415 4.6869998 19
35.257999 11.375 2.819 41
35.362 11.456 3.391 50
38.036999 12.377 4.2589998 35
29.528 9.6549997 3.7839999 35
29.403 9.6639996 4.2480001 27
29.283001 9.6809998 4.711 34
29.605 9.7779999 2.365 15
29.621 9.8240004 2.8410001 20
29.504999 9.8290005 3.3050001 54
37.923 12.695 4.862 10
29.283001 9.8540001 4.2319999 2
29.313999 9.9209995 4.7189999 7
29.521 9.9809999 2.3540001 24
29.455 9.9980001 2.8199999 11
29.596001 10.091 3.312 16
39.931999 13.677 5.1170001 44
0 0 0 0
0 0 0 0
35.145 12.157 2.7950001 27
89.247002 30.99 8.5279999 36
39.654999 13.828 4.4289999 7
29.629 10.378 3.7909999 35
29.636999 10.434 4.2779999 1
29.599001 10.479 4.7620001 6
88.302002 31.233 6.994 31
89.751999 31.865 8.5489998 39
90.311996 32.196999 10.062 30
0 0 0 0
29.507 10.618 4.2519999 13
0 0 0 0
87.491997 31.628 6.8870001 41
88.693001 32.178001 8.408 26
89.787003 32.707001 9.9659996 42
0 0 0 0
0 0 0 0
29.219999 10.8 4.6859999 4
88.456001 32.673 6.914 30
88.954002 32.973 8.3859997 35
89.829002 33.429001 9.9259996 17
0 0 0 0
0 0 0 0
29.045 10.965 4.6459999 2
88.052002 33.214001 6.8270001 43
88.549004 33.515999 8.2939997 28
0 0 0 0
0 0 0 0
0 0 0 0
32.705002 12.602 5.2150002 35
88.259003 33.980999 6.7740002 16
90.027 34.779999 8.3699999 23
94.857002 36.790001 10.362 34
0 0 0 0
35.414001 13.854 5.0359998 2
34.549 13.585 5.4879999 50
89.990997 35.362999 6.8270001 28
90.258003 35.577999 8.3120003 30
94.470001 37.375 10.243 30
0 0 0 0
0 0 0 0
35.154999 14.098 5.5609999 30
89.956001 36.060001 6.7379999 17
89.483002 35.978001 8.1590004 26
89.584999 36.147999 9.6330004 22
0 0 0 0
0 0 0 0
35.429001 14.487 5.5760002 17
89.103996 36.411999 6.5840001 30
88.694 36.355 7.9980001 28
90.549004 37.244999 9.6499996 17
0 0 0 0
0 0 0 0
35.23 14.678 5.5139999 8
88.477997 36.846001 6.434 26
87.858002 36.695999 7.822 27
88.581001 37.126999 9.3459997 9
0 0 0 0
0 0 0 0
34.991001 14.852 5.4429998 1
88.501999 37.548 6.3270001 20
87.823997 37.362999 7.717 12
0 0 0 0
0 0 0 0
0 0 0 0
33.991001 14.689 5.2509999 9
88.668999 38.304001 6.2189999 30
87.689003 37.980999 7.5900002 23
0 0 0 0
0 0 0 0
0 0 0 0
31.672001 13.932 4.8559999 2
90.096001 39.618 6.1929998 30
0 0 0 0
0 0 0 0
0 0 0 0
0 0 0 0
31.569 14.13 4.802 15
95.012001 42.515999 6.382 14
0 0 0 0
0 0 0 0
0 0 0 0
32.150002 14.572 4.3010001 13
31.936001 14.541 4.8150001 30
93.435997 42.530998 6.1290002 21
96.056 43.833 7.8870001 11
0 0 0 0
32.167999 14.769 3.7160001 2
0 0 0 0
32.077 14.849 4.7909999 45
92.782997 42.943001 5.9260001 24
95.888 44.487 7.7119999 29
95.879997 44.605999 9.3120003 11
31.997999 14.935 3.6440001 29
32.554001 15.253 4.257 17
31.795 14.961 4.6989999 29
32.070999 15.09 1.989 3
32.035999 15.109 2.52 37
32.081001 15.171 3.0610001 20
31.51 14.949 3.536 29
31.114 14.816 4.0180001 1
30.847 14.749 4.5110002 35
31.861 15.235 1.915 34
31.719999 15.2 2.4360001 37
31.57 15.17 2.9519999 33
31.421 15.147 3.47 9
31.903999 15.434 4.066 27
32.054001 15.571 4.6329999 14
0 0 0 0
96.066002 46.77 7.1890001 15
0 0 0 0
0 0 0 0
31.194 15.326 3.9170001 29
0 0 0 0
89.737 44.275002 5.027 31
91.706001 45.341999 6.677 21
0 0 0 0
0 0 0 0
0 0 0 0
30.936001 15.493 4.3569999 7
89.539001 44.854 4.822 23
90.558998 45.452999 6.3969998 28
91.103996 45.832001 7.9770002 25
0 0 0 0
0 0 0 0
0 0 0 0
89.545998 45.527 4.6160002 7
91.365997 46.533001 6.2509999 20
91.098999 46.507999 7.7800002 7
0 0 0 0
0 0 0 0
0 0 0 0
90.753998 46.818001 4.4660001 13
90.417 46.724998 5.9759998 29
90.325996 46.782001 7.5029998 22
0 0 0 0
0 0 0 0
0 0 0 0
90.018997 47.109001 4.2080002 35
33.598999 17.610001 2.1400001 37
33.533001 17.613001 2.707 43
33.442001 17.612 3.2720001 38
33.341999 17.614 3.836 14
0 0 0 0
0 0 0 0
33.316002 17.707001 2.039 27
33.242001 17.704 2.602 46
33.174 17.712 3.1659999 38
33.088001 17.718 3.73 36
33.053001 17.763 4.3000002 9
0 0 0 0
33.132999 17.85 1.942 2
33.057999 17.843 2.5050001 17
33.016998 17.865 3.0699999 50
0 0 0 0
32.765999 17.841999 4.1849999 76
32.834999 17.898001 1.277 1
32.807999 17.907 1.836 30
32.744999 17.906 2.395 84
32.639 17.889999 2.95 48
32.570999 17.903 3.51 45
0 0 0 0
109.215 60.314999 3.9430001 16
91.514999 50.598999 4.8759999 8
32.455002 17.976 2.2869999 38
32.389 17.978001 2.8440001 47
32.319 17.99 3.4000001 40
0 0 0 0
0 0 0 0
107.055 59.936001 5.3990002 11
32.210999 18.063 2.1800001 40
32.153999 18.070999 2.734 37
76.318001 43.008999 7.8249998 26
56.166 31.752001 6.7449999 11
42.644001 24.146 1.291 3
156.436 88.668999 7.4349999 19
89.643997 50.889999 5.8119998 19
75.124001 42.736 6.177 31
71.960999 41.046001 7.178 9
55.487999 31.749001 6.5100002 25
42.474998 24.343 1.1569999 4
87.009003 49.914001 3.875 22
86.644997 49.777 5.3629999 7
74.744003 43.028 5.934 18
71.807999 41.442001 6.9590001 12
55.109001 31.899 6.3130002 7
83.128998 48.209 2.007 46
82.931999 48.133999 3.4400001 16
92.206001 53.59 5.4299998 11
72.482002 42.202 5.5380001 9
71.977997 42.011002 6.7639999 21
57.424 33.612999 6.4120002 34
79.934998 46.882 1.677 47
0 0 0 0
71.686996 42.124001 4.0050001 7
71.189003 41.909 5.2290001 19
72.012001 42.493 6.5570002 18
57.588001 34.078999 6.2620001 26
75.952003 45.042999 1.35 28
0 0 0 0
71.442001 42.443001 3.766 84
71.305 42.432999 5.0120001 29
71.274002 42.507 6.2709999 12
57.912998 34.637001 6.125 26
71.922997 43.118 1.039 48
71.314003 42.771999 2.2809999 69
71.361 42.845001 3.5350001 5
71.165001 42.796001 4.7789998 15
71.123001 42.862 6.0339999 52
58.134998 35.125999 5.967 7
68.102997 41.251999 0.75400001 26
0 0 0 0
71.000999 43.064999 3.2820001 55
70.931999 43.084999 4.5349998 88
70.928001 43.173 5.796 12
71.915001 43.882 7.1560001 14
67.858002 41.521999 0.51999998 35
162.67599 99.570999 4.1110001 21
70.786003 43.362999 3.0380001 12
70.722 43.382 4.2909999 60
70.595001 43.388 5.5370002 18
34.320999 21.146 3.3039999 4
33.900002 20.947001 0.14 62
33.901001 20.951 0.73799998 50
33.915001 20.976 1.339 48
33.897999 20.990999 1.943 33
34.021999 21.107 2.556 24
34.122002 21.219999 3.174 21
33.889999 21.142 0.017999999 47
33.905998 21.152 0.62 27
33.898998 21.160999 1.222 28
33.924 21.200001 1.8279999 9
33.735001 21.118999 2.4200001 21
33.574001 21.068001 3.0120001 6
48.147999 30.313 -0.146 1
0 0 0 0
118.401 74.573997 3.8540001 14
106.368 67.068001 5.3590002 16
70.274002 44.382999 4.7979999 9
33.478001 21.190001 2.8859999 5
33.777 21.452999 -0.228 2
0 0 0 0
114.508 72.746002 3.3199999 18
113.583 72.225998 5.3169999 10
70.182999 44.699001 4.5479999 5
54.557999 34.819 4.5190001 8
33.721001 21.6 -0.35100001 2
0 0 0 0
0 0 0 0
0 0 0 0
54.542999 35.015999 3.3410001 17
54.737 35.212002 4.3390002 4
38.417 24.809999 -0.54799998 2
54.452 35.153 0.20100001 40
54.507 35.193001 1.181 19
54.494999 35.212002 2.1600001 35
49.498001 32.026001 2.8529999 2
49.571999 32.136002 3.7520001 64
33.582001 21.858 -0.60699999 3
50.567001 32.896 -0.0060000001 6
54.347 35.355999 0.97299999 59
54.360001 35.388 1.952 27
49.527 32.282001 2.675 62
49.495998 32.320999 3.5680001 64
8.5600004 5.6129999 -0.18700001 0
8.5620003 5.6110001 -0.033 3
7.9959998 5.2399998 0.112 0
167.74001 109.987 5.3920002 23
49.424 32.442001 2.484 22
49.418999 32.493999 3.3789999 61
7.9169998 5.2290001 -0.204 11
8.2259998 5.4289999 -0.063000001 16
7.9580002 5.2519999 0.082000002 24
50.256001 33.176998 1.429 24
50.209 33.179001 2.3369999 13
49.361 32.671001 3.1930001 54
7.5619998 5.0289998 -0.22499999 7
7.6890001 5.1090002 -0.090000004 57
7.7919998 5.1760001 0.048999999 68
10.076 6.6950002 0.24699999 10
49.279999 32.773998 2.105 66
50.164001 33.411999 3.0539999 27
7.3130002 4.895 -0.24699999 5
7.3309999 4.902 -0.114 14
7.3379998 4.9050002 0.017999999 43
37.951 25.371 0.78500003 59
49.125999 32.868999 1.9119999 16
45.082001 30.205 2.575 1
7.3070002 4.9200001 -0.27599999 43
7.3270001 4.928 -0.14300001 106
7.3280001 4.927 -0.0099999998 140
37.916 25.495001 0.63499999 33
49.046001 33.001999 1.715 13
44.950001 30.283001 2.3929999 33
7.402 5.013 -0.31 44
7.3660002 4.9829998 -0.17399999 13
7.3299999 4.9559999 -0.039000001 0
101.433 68.573997 1.304 8
44.976002 30.423 1.398 6
44.866001 30.385 2.2130001 31
7.7750001 5.2950001 -0.35800001 46
10.295 7.0009999 -0.285 61
44.562 30.283001 -0.421 3
45.09 30.638 0.39899999 31
44.870998 30.504 1.217 41
44.798 30.487 2.033 21
0 0 0 0
10.356 7.0770001 -0.329 76
10.859 7.415 -0.146 18
10.866 7.4180002 0.052000001 35
44.810001 30.603001 1.036 29
44.808998 30.632 1.8559999 17
8.1809998 5.6259999 -0.44400001 18
10.407 7.145 -0.373 82
10.894 7.4720001 -0.191 65
10.89 7.467 0.0080000004 56
10.975 7.526 0.20900001 1
0 0 0 0
8.8430004 6.1069999 -0.51700002 4
10.421 7.1849999 -0.41600001 58
10.878 7.4920001 -0.235 52
10.89 7.4959998 -0.035 42
11.037 7.598 0.16599999 29
153.936 106.055 5.1500001 26
9.0190001 6.2540002 -0.565 0
7.3060002 5.0570002 -0.322 1
10.888 7.527 -0.27900001 37
11.078 7.6529999 -0.079999998 10
11.092 7.6630001 0.123 8
43.061001 29.767 1.2690001 2
11.869 8.2589998 -0.792 45
7.2979999 5.0679998 -0.352 9
10.922 7.5749998 -0.32499999 32
11.222 7.777 -0.127 43
11.222 7.776 0.079000004 39
43.057999 29.853001 1.096 62
11.424 7.9749999 -0.81 43
0 0 0 0
11.133 7.744 -0.377 68
11.24 7.8119998 -0.17200001 41
8.5010004 5.9070001 0.025 0
8.4680004 5.8860002 0.18099999 1
11.253 7.8779998 -0.84500003 42
7.6960001 5.375 -0.43399999 150
11.041 7.6999998 -0.419 29
11.31 7.8800001 -0.22 26
8.4879999 5.9109998 -0.0089999996 1
8.4799995 5.908 0.147 16
8.4820004 5.9530001 -0.67199999 0
8.0340004 5.625 -0.48699999 150
8.4549999 5.9089999 -0.35600001 0
8.434 5.8889999 -0.198 0
8.4759998 5.915 -0.043000001 9
8.467 5.9099998 0.112 35
8.4650002 5.9530001 -0.70599997 1
8.967 6.29 -0.58099997 61
8.467 5.9289999 -0.391 1
8.4820004 5.9320002 -0.234 2
8.4589996 5.9130001 -0.077 35
8.4490004 5.9060001 0.077 57
10.067 7.0910001 -0.88200003 63
8.8140001 6.1929998 -0.60699999 6
0 0 0 0
8.4709997 5.9330001 -0.26899999 7
8.46 5.921 -0.112 43
8.46 5.921 0.043000001 99
8.46 5.9679999 -0.77600002 17
8.4650002 5.9549999 -0.61699998 4
0 0 0 0
8.4630003 5.9320002 -0.303 24
8.4530001 5.921 -0.146 37
8.4709997 5.9320002 0.0080000004 150
8.6029997 6.0739999 -0.82499999 66
8.4549999 5.9530001 -0.65200001 11
7.612 5.3470001 -0.44499999 60
8.4469995 5.9250002 -0.33700001 28
8.4499998 5.921 -0.18000001 40
8.4639997 5.9299998 -0.025 150
8.46 5.9759998 -0.84600002 45
8.4519997 5.9530001 -0.68599999 12
8.0640001 5.6669998 -0.50400001 150
8.4549999 5.9310002 -0.37099999 19
8.4519997 5.9229999 -0.215 32
8.4619999 5.928 -0.059 96
8.4390001 5.9629998 -0.87800002 38
0 0 0 0
8.9720001 6.3039999 -0.597 23
8.46 5.934 -0.40599999 10
8.4709997 5.9349999 -0.249 15
8.4569998 5.9219999 -0.093000002 54
8.3190002 5.8759999 -0.89999998 43
10.033 7.0650001 -0.89700001 40
8.6750002 6.0929999 -0.61299998 0
7.4899998 5.2509999 -0.389 6
8.467 5.928 -0.28400001 4
8.4639997 5.9219999 -0.127 24
7.8720002 5.5570002 -0.88300002 50
9.2819996 6.5310001 -0.866 31
11.189 7.8520002 -0.83499998 44
7.5609999 5.2950001 -0.42300001 49
8.4750004 5.928 -0.31799999 0
8.474 5.9219999 -0.162 2
7.6090002 5.3660002 -0.884 38
8.6099997 6.0510001 -0.838 34
10.837 7.5960002 -0.852 49
7.7940001 5.4520001 -0.46799999 17
8.4770002 5.9200001 -0.352 0
8.5100002 5.9380002 -0.19599999 0
7.3909998 5.2049999 -0.88800001 33
8.6499996 6.0700002 -0.87599999 43
10.584 7.4060001 -0.87400001 45
8.9449997 6.2449999 -0.57200003 12
