# .PCD v0.7 - Point Cloud Data file format
VERSION 0.7
FIELDS x y z intensity
SIZE 4 4 4 4
TYPE F F F F
COUNT 1 1 1 1
WIDTH 1813
HEIGHT 1
VIEWPOINT 0 0 0 1 0 0 0
POINTS 1813
DATA ascii
32.785 0.49900001 -0.99599999 39
35.773998 0.509 -0.546 46
51.942001 0.68800002 -0.0089999996 3
40.195999 0.49399999 0.60100001 30
83.468002 0.94800001 2.5109999 16
84.963997 0.88099998 3.839 12
30.103001 0.278 -1.021 1
35.550999 0.29300001 -0.66900003 48
40.037998 0.289 -0.149 3
40.092999 0.25099999 0.456 40
0 0 0 0
84.283997 0.36199999 3.5050001 28
29.809999 0.096000001 -1.113 7
0 0 0 0
38.257 0.046 -0.27399999 6
40.095001 0.0089999996 0.31799999 2
40.005001 -0.033 0.92000002 16
84.053001 -0.152 3.2019999 19
28.941999 -0.082000002 -1.178 20
33.743 -0.131 -0.86400002 43
38.493999 -0.18700001 -0.40400001 52
38.643002 -0.226 0.177 44
39.931 -0.27500001 0.78500003 28
39.861 -0.317 1.3839999 5
28.427999 -0.255 -1.249 22
33.203999 -0.331 -0.95700002 41
37.700001 -0.41499999 -0.51800001 53
68.416 -0.82800001 0.089000002 22
38.978001 -0.51300001 0.63800001 63
39.825001 -0.56599998 1.252 28
0 0 0 0
32.548 -0.52899998 -1.0420001 42
33.646999 -0.58099997 -0.56900001 1
52.207001 -0.958 -0.096000001 7
38.355999 -0.74299997 0.50700003 46
38.297001 -0.78500003 1.082 98
26.77 -0.57499999 -1.344 24
31.74 -0.71600002 -1.114 37
34.366001 -0.81 -0.68699998 43
46.839001 -1.155 -0.23 9
38.248001 -0.98500001 0.38800001 74
38.214001 -1.027 0.96200001 83
26.245001 -0.73000002 -1.395 21
31.329 -0.90499997 -1.192 37
33.734001 -1.0089999 -0.77399999 34
38.278999 -1.187 -0.301 53
38.155998 -1.225 0.27399999 87
49.917 -1.6569999 1.1109999 13
25.023001 -0.85399997 -1.401 8
28.473 -1.001 -1.164 11
33.269001 -1.2079999 -0.85799998 43
36.188999 -1.354 -0.38800001 0
72.608002 -2.799 0.315 15
38.023998 -1.5089999 0.73699999 40
24.204 -0.98299998 -1.423 7
28.261999 -1.177 -1.234 22
28.789 -1.2309999 -0.82200003 19
28.750999 -1.26 -0.38600001 47
28.739 -1.293 0.045000002 80
28.725 -1.324 0.479 93
23.320999 -1.097 -1.433 7
28.134001 -1.353 -1.302 22
28.775 -1.416 -0.89700001 23
28.806 -1.449 -0.463 23
32.570999 -1.676 -0.032000002 63
35.740002 -1.8789999 0.50199997 2
22.669001 -1.212 -1.45 11
27.679001 -1.511 -1.352 27
32.522999 -1.8099999 -1.096 39
32.437 -1.8430001 -0.60299999 64
32.443001 -1.881 -0.114 61
33.035 -1.956 0.38 0
22.073999 -1.326 -1.467 13
26.5 -1.622 -1.36 21
32.071999 -1.998 -1.159 39
32.436001 -2.0580001 -0.68199998 62
32.362999 -2.092 -0.192 60
32.942001 -2.168 0.30000001 10
21.548 -1.436 -1.483 13
26.097 -1.7690001 -1.4 21
31.497 -2.1700001 -1.212 37
31.236 -2.1900001 -0.73000002 67
31.798 -2.266 -0.26199999 58
32.889 -2.385 0.223 20
20.969 -1.538 -1.4910001 15
0 0 0 0
28.688999 -2.1670001 -1.168 2
31.184999 -2.392 -0.79699999 96
31.943001 -2.49 -0.33399999 54
32.884998 -2.6029999 0.152 6
20.507 -1.64 -1.502 15
24.278999 -1.969 -1.408 5
28.209999 -2.319 -1.2079999 10
31.158001 -2.599 -0.86199999 134
31.216999 -2.6440001 -0.39199999 150
72.314003 -6.2140002 0.183 22
20.107 -1.743 -1.5140001 14
23.73 -2.085 -1.425 5
28.066 -2.4979999 -1.2589999 17
31.162001 -2.812 -0.92500001 150
31.125 -2.8469999 -0.45199999 58
69.647003 -6.4629998 0.037999999 9
19.719999 -1.8430001 -1.523 14
23.254 -2.201 -1.442 7
27.995001 -2.6830001 -1.3099999 25
31.124001 -3.0209999 -0.98299998 150
31.101 -3.0569999 -0.51099998 69
70.25 -6.9980001 -0.090999998 9
19.358 -1.941 -1.531 13
22.841 -2.3169999 -1.4579999 9
27.915001 -2.8640001 -1.3559999 23
33.043999 -3.4319999 -1.102 42
39.964001 -4.2020001 -0.727 57
63.263 -6.7350001 -0.193 4
19.031 -2.039 -1.539 13
22.374001 -2.4230001 -1.467 11
27.85 -3.049 -1.4 20
32.674999 -3.618 -1.145 41
0 0 0 0
58.317001 -6.6110001 -0.273 4
18.763 -2.1389999 -1.548 13
22.063999 -2.5409999 -1.482 12
27.632 -3.2160001 -1.433 20
32.284 -3.7980001 -1.182 42
36.169998 -4.302 -0.77399999 2
60.047001 -7.2220001 -0.373 5
18.486 -2.234 -1.553 12
21.745001 -2.654 -1.493 12
27.514 -3.391 -1.4680001 9
31.863001 -3.9690001 -1.214 40
37.863998 -4.7670002 -0.86500001 53
40.571999 -5.164 -0.31 20
18.268 -2.3369999 -1.561 12
21.434 -2.766 -1.502 15
0 0 0 0
28.639 -3.77 -1.13 15
37.897999 -5.04 -0.917 52
47.619999 -6.4000001 -0.42699999 7
18.044001 -2.4360001 -1.567 12
21.112 -2.875 -1.508 14
25.735001 -3.5380001 -1.443 13
28.414 -3.9419999 -1.158 48
28.798 -4.0349998 -0.73299998 90
28.809999 -4.0770001 -0.29300001 90
17.823999 -2.533 -1.5700001 12
20.871 -2.9909999 -1.516 15
25.605 -3.701 -1.466 24
28.381001 -4.1389999 -1.189 43
28.695999 -4.2249999 -0.76300001 111
28.733999 -4.2719998 -0.324 104
17.665001 -2.6359999 -1.576 11
20.642 -3.1040001 -1.523 15
0 0 0 0
28.496 -4.3590002 -1.223 30
34.875999 -5.3839998 -0.96200001 16
45.154999 -7.0349998 -0.55299997 3
17.518999 -2.7390001 -1.581 11
20.466 -3.224 -1.53 15
0 0 0 0
28.330999 -4.5370002 -1.243 25
35.782001 -5.7810001 -1.0190001 47
49.943001 -8.1429996 -0.65600002 17
17.385 -2.842 -1.585 11
20.290001 -3.342 -1.535 15
24.667999 -4.0960002 -1.484 20
28.158001 -4.7129998 -1.2589999 11
35.109001 -5.927 -1.028 36
49.119999 -8.3660002 -0.68300003 18
17.282 -2.95 -1.59 11
20.139 -3.4619999 -1.539 15
24.662001 -4.2709999 -1.502 22
28.232 -4.928 -1.2819999 4
35.139 -6.1849999 -1.053 50
43.763 -7.7719998 -0.63700002 3
17.200001 -3.0599999 -1.595 11
20.051001 -3.592 -1.5470001 15
0 0 0 0
28.264999 -5.1389999 -1.301 5
35.230999 -6.4559999 -1.076 47
43.977001 -8.1260004 -0.66399997 3
17.135 -3.1719999 -1.599 11
19.941 -3.7160001 -1.549 15
24 -4.5040002 -1.49 15
28.351999 -5.3600001 -1.319 6
35.535 -6.7690001 -1.101 47
41.293999 -7.9330001 -0.64099997 2
17.096001 -3.289 -1.605 11
19.906 -3.8540001 -1.556 15
23.993 -4.6760001 -1.501 22
28.351999 -5.566 -1.331 7
35.284 -6.98 -1.107 48
42.308998 -8.4350004 -0.67000002 6
17.056999 -3.405 -1.608 11
19.818001 -3.98 -1.557 14
23.992001 -4.8509998 -1.508 21
0 0 0 0
35.348 -7.25 -1.117 48
41.648998 -8.6129999 -0.66799998 3
17.045 -3.527 -1.612 11
19.819 -4.1269999 -1.562 15
24.083 -5.0479999 -1.5190001 18
28.783001 -6.0739999 -1.364 12
35.497002 -7.546 -1.126 49
41.131001 -8.8120003 -0.66399997 3
17.055 -3.6559999 -1.6160001 11
19.796 -4.2690001 -1.563 15
23.954 -5.198 -1.5140001 23
28.829 -6.2969999 -1.369 13
36.028 -7.9260001 -1.145 49
40.977001 -9.0819998 -0.66000003 5
17.080999 -3.786 -1.62 11
19.820999 -4.4200001 -1.566 14
23.813 -5.342 -1.505 22
28.867001 -6.5180001 -1.369 15
35.486 -8.0699997 -1.125 45
45.495998 -10.422 -0.72799999 5
17.117001 -3.9219999 -1.624 11
19.860001 -4.5760002 -1.568 15
23.797001 -5.5159998 -1.502 22
29.080999 -6.7839999 -1.375 11
36.242001 -8.5139999 -1.142 50
45.235001 -10.703 -0.713 3
17.15 -4.0560002 -1.625 11
19.933001 -4.7410002 -1.571 15
24.004999 -5.743 -1.51 22
29.125999 -7.013 -1.37 11
36.530998 -8.8529997 -1.14 45
45.499001 -11.102 -0.70099998 5
17.212 -4.198 -1.627 11
20.004 -4.9050002 -1.571 15
24.003 -5.9180002 -1.503 22
29.436001 -7.303 -1.374 10
36.451 -9.1029997 -1.122 24
46.926998 -11.803 -0.70200002 13
17.294001 -4.3470001 -1.6289999 11
20.045 -5.0650001 -1.567 15
24.152 -6.1360002 -1.502 22
29.709 -7.5949998 -1.373 18
30.028999 -7.7259998 -0.91000003 42
30.013 -7.7750001 -0.43200001 5
17.365 -4.494 -1.6289999 11
20.184 -5.25 -1.569 15
24.381001 -6.3769999 -1.5039999 23
30.007 -7.8940001 -1.37 7
35.164001 -9.3100004 -1.043 5
35.205002 -9.382 -0.48300001 4
17.464001 -4.6490002 -1.6289999 12
20.339001 -5.441 -1.569 15
24.752001 -6.6570001 -1.511 24
30.188999 -8.1669998 -1.358 6
35.372002 -9.632 -1.024 3
50.568001 -13.861 -0.65399998 13
17.596001 -4.816 -1.63 12
20.506001 -5.6409998 -1.568 16
25.408001 -7.027 -1.5319999 30
31.212 -8.6809998 -1.3789999 6
40.056999 -11.21 -1.125 53
51.039001 -14.379 -0.61400002 13
17.722 -4.9840002 -1.6289999 12
20.681 -5.8439999 -1.5650001 16
25.583 -7.2670002 -1.522 29
31.367001 -8.96 -1.359 4
35.698002 -10.26 -0.96899998 18
62.773998 -18.159 -0.69099998 13
17.889999 -5.165 -1.6289999 12
21.077999 -6.1139998 -1.576 18
26.525 -7.7329998 -1.553 29
31.732 -9.3030005 -1.342 5
40.652 -11.992 -1.062 39
43.624001 -12.951 -0.43200001 3
18.059999 -5.349 -1.628 13
21.5 -6.3979998 -1.587 20
0 0 0 0
31.938 -9.6040001 -1.316 23
0 0 0 0
62.882999 -19.143999 -0.54500002 3
18.247999 -5.5430002 -1.626 13
21.747 -6.6350002 -1.582 20
0 0 0 0
31.818001 -9.8100004 -1.273 36
40.125 -12.445 -0.949 1
31.958 -9.974 -0.234 3
18.489 -5.756 -1.627 13
22.035 -6.8899999 -1.577 20
27.163 -8.5360003 -1.497 10
31.707001 -10.018 -1.227 58
31.85 -10.12 -0.70999998 97
31.841999 -10.181 -0.18799999 72
18.726 -5.9679999 -1.625 14
22.232 -7.118 -1.562 21
27.973 -8.9989996 -1.5039999 3
31.73 -10.262 -1.183 65
31.919001 -10.381 -0.66500002 1
76.310997 -24.974001 -0.33399999 4
18.986 -6.1919999 -1.622 14
22.735001 -7.447 -1.566 20
28.639 -9.4259996 -1.498 2
31.797001 -10.522 -1.137 24
45.453999 -15.126 -0.87699997 9
69.087997 -23.132999 -0.191 12
19.247999 -6.4219999 -1.617 15
23.437 -7.8530002 -1.58 24
31.166 -10.493 -1.582 14
37.505001 -12.694 -1.281 53
47.328999 -16.110001 -0.83099997 11
55.007999 -18.841 -0.055 5
19.575001 -6.6789999 -1.614 15
23.492001 -8.0500002 -1.546 22
31.507 -10.848 -1.5470001 18
38.374001 -13.281 -1.245 57
47.652 -16.584999 -0.75099999 6
54.794998 -19.191 0.048 2
19.914 -6.9450002 -1.61 15
24.375999 -8.5369997 -1.562 23
31.402 -11.049 -1.487 19
30.943001 -10.944 -0.94700003 5
51.737999 -18.399 -0.71899998 4
114.489 -40.966999 0.32800001 19
20.334999 -7.244 -1.608 16
25.066999 -8.967 -1.561 25
30.969999 -11.132 -1.408 13
31.016001 -11.206 -0.889 2
62.769001 -22.805 -0.74400002 5
48.067001 -17.568001 0.237 24
20.736 -7.5430002 -1.602 18
25.299 -9.2399998 -1.528 10
31.198999 -11.448 -1.357 6
31.756001 -11.711 -0.84500003 2
50.346001 -18.667999 -0.49200001 40
50.493999 -18.837 0.35600001 20
21.15 -7.8509998 -1.5930001 22
26.18 -9.7589998 -1.528 3
31.518 -11.803 -1.306 35
31.594 -11.891 -0.773 1
30.548 -11.559 -0.23100001 33
50.374001 -19.177999 0.47099999 8
21.768 -8.243 -1.596 21
27.664 -10.519 -1.558 0
30.483999 -11.644 -1.198 74
30.422001 -11.678 -0.67900002 94
30.445999 -11.751 -0.161 17
137.274 -53.298 1.612 16
22.427999 -8.6590004 -1.597 28
30.046 -11.649 -1.627 7
30.606001 -11.92 -1.1339999 52
30.518 -11.945 -0.60900003 27
43.641998 -17.174999 -0.125 67
43.667 -17.285 0.62 38
22.671 -8.9219999 -1.564 27
30.351999 -11.995 -1.574 8
38.834999 -15.416 -1.348 34
52.838001 -21.077 -0.92900002 4
50.183998 -20.128 -0.02 14
43.411999 -17.514999 0.72899997 28
0 0 0 0
33.111 -13.33 -1.637 10
0 0 0 0
48.285999 -19.622 -0.72500002 35
48.332001 -19.746 0.106 14
43.068001 -17.701 0.83700001 3
24.523001 -10.014 -1.576 10
33.480999 -13.728 -1.572 15
42.186001 -17.372999 -1.253 67
47.790001 -19.778999 -0.59200001 68
48.049 -19.996 0.235 8
54.662998 -22.884001 1.217 34
24.969999 -10.382 -1.5420001 5
33.956001 -14.173 -1.508 11
42.514 -17.825001 -1.15 21
47.548 -20.034 -0.45899999 58
55.367001 -23.455 0.428 6
55.140999 -23.495001 1.387 33
28.009001 -11.851 -1.658 1
34.879002 -14.816 -1.456 29
35.318001 -15.069 -0.85900003 74
35.290001 -15.13 -0.243 48
35.247002 -15.194 0.373 32
35.201 -15.262 0.98900002 23
0 0 0 0
34.948002 -15.099 -1.363 43
35.216999 -15.281 -0.75800002 81
35.224998 -15.362 -0.141 23
35.18 -15.425 0.477 17
35.033001 -15.452 1.092 33
31.591 -13.823 -1.698 11
35.057999 -15.401 -1.2690001 39
45.521999 -20.087 -0.847 51
45.726002 -20.277 -0.044 36
48.473999 -21.608999 0.80599999 2
47.959999 -21.507 1.647 49
31.844999 -14.166 -1.6210001 3
40.868999 -18.250999 -1.359 27
39.477001 -17.708 -0.61500001 88
39.473999 -17.792 0.081 50
48.161999 -21.826 0.954 38
47.459999 -21.636 1.785 42
32.168999 -14.542 -1.5420001 0
39.319 -17.843 -1.189 88
39.300999 -17.915001 -0.491 95
39.235001 -17.971001 0.205 3
47.946999 -22.080999 1.1059999 44
47.053001 -21.798 1.927 61
35.23 -16.176001 -1.581 10
45.323002 -20.889999 -1.229 9
45.262001 -20.957001 -0.42300001 47
0 0 0 0
0 0 0 0
46.716 -21.985001 2.0739999 37
35.59 -16.593 -1.487 3
45.362 -21.232 -1.086 7
45.556 -21.415001 -0.27700001 6
0 0 0 0
47.199001 -22.417 1.408 54
46.966 -22.441999 2.247 42
37.258999 -17.632999 -1.439 1
48.689999 -23.132999 -1.008 15
48.487 -23.139 -0.132 12
84.945 -40.737999 1.299 11
47.438999 -22.875 1.584 45
47.006001 -22.802 2.4189999 25
42.306999 -20.32 -1.494 15
48.394001 -23.333 -0.83899999 18
47.675999 -23.089001 0.033 47
46.973999 -22.862 0.884 10
46.688 -22.847 1.727 62
47.400002 -23.333 2.6170001 47
43.092999 -20.995001 -1.378 13
59.784 -29.240999 -0.83099997 3
0 0 0 0
46.810001 -23.110001 1.0470001 41
46.724998 -23.195 1.899 37
47.101002 -23.524 2.779 45
45.693001 -22.573999 -1.302 3
44.938999 -22.289 -0.46900001 2
93.375 -46.52 0.72500002 19
46.487999 -23.275999 1.211 48
46.265999 -23.292999 2.0550001 42
38.776001 -19.641001 2.438 10
44.699001 -22.386 -1.119 34
44.764999 -22.507 -0.30399999 5
92.821999 -46.875 1.062 21
46.467999 -23.586 1.383 38
38.831001 -19.816999 1.8710001 13
38.605 -19.823 2.576 33
39.022999 -19.802999 -0.83999997 1
44.780998 -22.815001 -0.14399999 1
97.503998 -49.896 1.472 9
38.867001 -19.989 1.304 12
38.699001 -20.014999 2.016 27
70.801003 -36.841999 5.0089998 35
44.418999 -22.837999 -0.79299998 29
60.096001 -31.018999 0.027000001 36
38.785999 -20.108999 0.73299998 35
38.727001 -20.179001 1.449 39
40.162998 -21.045 2.2509999 48
71.870003 -37.888 5.3720002 23
38.827 -20.214001 -0.55000001 89
38.748001 -20.253 0.16500001 51
38.695 -20.316999 0.88200003 53
40.044998 -21.132 1.659 61
39.959 -21.204 2.402 57
71.056999 -37.938 5.6069999 25
46.439999 -24.48 -0.48199999 32
59.716 -31.601 0.484 17
39.917999 -21.219999 1.066 54
39.834 -21.284 1.8099999 56
39.743999 -21.356001 2.5539999 50
39.562 -21.391001 3.2909999 60
48.067001 -25.642 -0.31299999 30
39.657001 -21.239 0.477 37
39.622002 -21.319 1.216 86
39.592999 -21.413 1.96 7
39.433998 -21.448 2.698 28
39.381001 -21.555 3.444 46
47.969002 -25.892 -0.125 8
39.473 -21.392 0.63300002 46
39.425999 -21.462999 1.3710001 89
39.412998 -21.566 2.115 5
69.761002 -38.391998 5.0700002 28
49.438999 -27.382999 4.5370002 24
59.287998 -32.368999 0.078000002 30
39.363998 -21.576 0.78799999 5
39.333 -21.659 1.529 69
39.266998 -21.735001 2.2720001 61
69.478996 -38.68 5.348 37
49.299 -27.618999 4.7399998 24
62.57 -34.540001 0.336 24
39.216999 -21.736 0.949 43
39.147999 -21.797001 1.687 57
39.058998 -21.861 2.428 66
69.625 -39.199001 5.6609998 36
43.890999 -24.868999 4.4180002 4
62.550999 -34.903999 0.58999997 5
39.034 -21.870001 1.1059999 56
38.971001 -21.934999 1.844 59
38.938999 -22.032 2.5880001 1
69.470001 -39.536999 5.9569998 18
40.950001 -23.459 4.3060002 49
41.025002 -23.135 0.55800003 2
69.527 -39.368999 2.2650001 27
40.971001 -23.306 2.115 10
40.953999 -23.42 2.902 79
40.972 -23.568001 3.698 5
38.351002 -22.202999 4.2090001 4
40.972 -23.34 0.73000002 96
40.938999 -23.415001 1.507 42
70.337997 -40.419998 3.9389999 29
43.390999 -25.07 3.266 20
38.327999 -22.275999 3.632 39
42.858002 -25.070999 4.901 4
77.810997 -44.764 1.714 23
70.789001 -40.893002 2.914 37
43.123001 -25.028999 2.6059999 15
70.082001 -40.895 5.5949998 35
38.133999 -22.386999 3.789 27
42.696999 -25.232 5.086 29
0 0 0 0
42.925999 -25.035999 1.9529999 3
70.588997 -41.367001 4.5770001 23
38.022999 -22.400999 3.2049999 8
37.987999 -22.514999 3.9489999 22
42.101002 -25.118999 5.2119999 36
71.153999 -41.709999 2.1849999 9
42.799999 -25.195999 2.1370001 13
71.419998 -42.244999 4.9499998 25
37.856998 -22.514 3.365 38
37.816002 -22.625999 4.1079998 4
42.209 -25.423 5.4260001 66
42.729 -25.271999 1.498 31
71.921997 -42.715 3.9089999 37
71.557999 -42.705002 5.2839999 40
37.710999 -22.627001 3.5239999 32
39.988998 -24.143 4.5289998 18
42 -25.528999 5.599 56
75.560997 -45.075001 2.9760001 16
71.449997 -42.804001 4.2020001 38
71.341003 -42.945999 5.592 23
37.596001 -22.754999 3.687 38
42.493999 -25.878 5.013 55
41.925999 -25.705999 5.79 56
75.084999 -45.16 3.293 28
74.709 -45.130001 4.7290001 27
37.411999 -22.709999 3.1029999 2
37.466 -22.868999 3.8499999 32
42.016998 -25.805 5.158 48
41.669998 -25.768 5.9590001 51
42.867001 -25.99 2.073 24
42.868 -26.101 2.9089999 27
37.348 -22.853001 3.2709999 13
37.282001 -22.940001 4.0079999 8
42.071999 -26.048 5.3670001 46
41.519001 -25.882 6.1389999 50
42.792 -26.141001 2.2609999 28
77.060997 -47.283001 5.5799999 22
37.249001 -22.968 3.4319999 50
41.862999 -25.959 4.697 55
41.674999 -26.004 5.5159998 27
41.546001 -26.103001 6.3460002 36
42.805 -26.341 2.454 16
76.948997 -47.557999 5.9229999 28
37.131001 -23.062 3.5940001 53
39.233002 -24.506001 4.585 6
41.519001 -26.098 5.6950002 27
41.390999 -26.201 6.527 31
75.842003 -46.995998 4.691 25
77.106003 -47.992001 6.289 21
37.030998 -23.164 3.7579999 47
41.664001 -26.211 5.0689998 62
41.285999 -26.139 5.8639998 35
40.827999 -26.032 6.6420002 34
76.765999 -47.890999 5.1059999 31
36.938999 -23.146999 3.187 8
36.889 -23.233999 3.921 18
41.429001 -26.240999 5.2389998 61
41.285 -26.319 6.066 34
40.485001 -25.993 6.7880001 38
76.711998 -48.161999 5.4510002 30
36.849998 -23.238001 3.3510001 33
39.341999 -24.936001 4.368 6
41.262001 -26.306 5.4169998 53
40.939999 -26.268999 6.2129998 58
39.921001 -25.799 6.8899999 37
76.511002 -48.327 5.79 8
36.763 -23.323999 3.5150001 26
41.429001 -26.419001 4.796 24
40.937 -26.257 5.5710001 60
40.856998 -26.378 6.401 41
39.800999 -25.882 7.0650001 28
47.400002 -30.111 3.806 20
36.673 -23.4 3.6760001 40
40.780998 -26.156 4.9120002 20
40.672001 -26.238001 5.7290001 55
38.896999 -25.257999 6.2839999 22
39.395 -25.768 7.1919999 38
36.591999 -23.367001 3.1059999 4
36.592999 -23.474001 3.8399999 27
40.705002 -26.247 5.0960002 54
38.919998 -25.243 5.6690001 27
39.005001 -25.466999 6.4899998 61
39.230999 -25.802 7.355 45
36.550999 -23.459 3.2709999 22
36.534 -23.555 4.0040002 3
40.578999 -26.299 5.2709999 58
38.737 -25.253 5.829 58
39.056 -25.631001 6.6919999 55
38.98 -25.768999 7.5019999 41
36.477001 -23.518999 3.431 50
40.911999 -26.499001 4.671 17
40.498001 -26.370001 5.447 65
38.672001 -25.330999 6 59
39.186001 -25.837999 6.8979998 43
39.185001 -26.028999 7.73 54
36.425999 -23.587999 3.592 47
40.757999 -26.514 4.8429999 15
0 0 0 0
38.691002 -25.452999 6.1880002 53
39.259998 -26.003 7.1040001 17
39.236 -26.181 7.9359999 47
36.360001 -23.639 3.753 37
40.499001 -26.451 5.0009999 37
38.737999 -25.434999 5.5749998 39
38.868 -25.674 6.401 55
40.091 -26.660999 7.448 24
38.993 -26.125 8.0760002 37
36.286999 -23.674999 3.9100001 10
40.694 -26.674 5.211 43
38.592999 -25.433001 5.7329998 54
38.868999 -25.77 6.5840001 60
40.176998 -26.816999 7.6539998 39
38.993 -26.223 8.2629995 42
38.535 -25.224001 4.3280001 23
40.554001 -26.67 5.3800001 36
38.570999 -25.502001 5.9070001 54
38.983002 -25.931999 6.7839999 50
39.992001 -26.784 7.8049998 62
39.049999 -26.351 8.4619999 52
38.518002 -25.287001 4.4990001 4
40.436001 -26.67 5.546 40
38.539001 -25.555 6.0819998 54
39.132999 -26.107 6.993 36
39.747002 -26.698999 7.948 38
39.230999 -26.554001 8.6890001 57
40.570999 -26.702999 4.921 18
38.566002 -25.502001 5.4629998 8
38.613998 -25.671 6.2659998 58
39.311001 -26.295 7.2049999 8
39.299 -26.468 8.04 48
39.368999 -26.716999 8.9069996 36
40.539001 -26.739 5.099 12
38.549999 -25.548 5.6339998 34
38.747002 -25.816999 6.4640002 65
40.473 -27.132999 7.6030002 18
39.027 -26.344 8.1630001 55
40.196999 -27.341999 9.2810001 29
40.234001 -26.586 5.2340002 29
38.632 -25.648001 5.8169999 42
38.875 -25.948999 6.6609998 57
40.158001 -26.971001 7.724 36
38.936001 -26.330999 8.323 52
0 0 0 0
40.424 -26.749001 5.4369998 43
38.589001 -25.656 5.9790001 58
39.012001 -26.077999 6.8559999 53
40.018002 -26.916 7.875 47
39.015999 -26.424999 8.5120001 61
41.469002 -28.304001 9.9530001 49
40.507 -26.833 5.6220002 49
38.544998 -25.655001 6.1389999 59
39.168999 -26.212 7.053 22
39.641998 -26.693001 7.9770002 44
39.250999 -26.613001 8.7419996 52
41.575001 -28.408001 10.166 45
38.567001 -25.566 5.5190001 14
38.608002 -25.715 6.3130002 62
39.139 -26.211 7.2160001 2
39.194 -26.410999 8.0559998 41
39.296001 -26.664 8.9230003 31
41.683998 -28.504999 10.379 51
38.584 -25.586 5.6849999 44
38.794998 -25.847 6.5120001 55
40.261002 -26.972 7.598 23
38.994999 -26.285999 8.1829996 41
40.278999 -27.341 9.3210001 35
41.646999 -28.490999 10.549 23
38.658001 -25.632999 5.8559999 45
38.896999 -25.914 6.6919999 65
40.112999 -26.871 7.737 44
39.021 -26.302999 8.3540001 52
0 0 0 0
41.549 -28.424 10.701 3
38.575001 -25.569 6.0009999 45
39.042999 -26.000999 6.8769999 59
39.821999 -26.665001 7.8460002 53
39.220001 -26.426001 8.5609999 44
41.528 -28.177 9.96 42
0 0 0 0
38.557999 -25.535999 6.1570001 47
39.208 -26.09 7.066 32
39.247002 -26.26 7.8909998 35
39.526001 -26.612 8.7849998 41
41.819 -28.351999 10.199 37
0 0 0 0
38.801998 -25.667999 6.3470001 63
39.640999 -26.348 7.3010001 15
39.105999 -26.134001 8.0200005 42
39.896 -26.829 9.0279999 45
41.838001 -28.332001 10.373 25
0 0 0 0
38.888 -25.684999 6.5139999 56
0 0 0 0
38.953999 -25.992001 8.1420002 50
40.174999 -26.973 9.2510004 49
41.844002 -28.291 10.539 8
0 0 0 0
38.945999 -25.674 6.6739998 60
38.960999 -25.805 7.4780002 40
38.971001 -25.952 8.2950001 50
40.387001 -27.063 9.4530001 47
0 0 0 0
0 0 0 0
39.176998 -25.766001 6.862 57
39.060001 -25.809999 7.645 50
39.129002 -25.996 8.4729996 45
40.359001 -26.981001 9.5959997 33
0 0 0 0
0 0 0 0
39.366001 -25.82 7.04 37
39.209 -25.837999 7.8179998 51
39.514999 -26.181999 8.7019997 55
40.464001 -26.976 9.7690001 33
0 0 0 0
0 0 0 0
39.402 -25.763 7.1890001 47
39.238998 -25.777 7.9650002 63
39.997002 -26.417999 8.9519997 54
41.323002 -27.462 10.126 25
0 0 0 0
0 0 0 0
39.23 -25.563 7.2940001 55
39.304001 -25.73 8.1140003 51
40.040001 -26.355 9.099 54
41.398998 -27.416 10.287 32
0 0 0 0
0 0 0 0
39.291 -25.504 7.4400001 50
39.241001 -25.589001 8.2349997 48
40.282001 -26.410999 9.2910004 45
41.459999 -27.349001 10.442 13
0 0 0 0
0 0 0 0
39.333 -25.423 7.5799999 55
39.318001 -25.532 8.3800001 45
40.807999 -26.641001 9.5469999 45
41.727001 -27.408001 10.643 3
0 0 0 0
0 0 0 0
39.588001 -25.472 7.7540002 37
39.639 -25.624001 8.573 32
40.962002 -26.618999 9.71 51
0 0 0 0
0 0 0 0
0 0 0 0
39.707001 -25.422001 7.9039998 51
39.813 -25.606001 8.7340002 59
41.591 -26.891001 9.9870005 48
0 0 0 0
0 0 0 0
0 0 0 0
39.557999 -25.190001 7.9949999 45
39.833 -25.482 8.8599997 48
42.09 -27.066999 10.234 46
0 0 0 0
0 0 0 0
0 0 0 0
39.626999 -25.091 8.1239996 29
39.959 -25.414 9.0039997 25
42.858002 -27.402 10.542 61
0 0 0 0
0 0 0 0
0 0 0 0
39.659 -24.959 8.243 49
41.855 -26.459999 9.5459995 38
0 0 0 0
0 0 0 0
0 0 0 0
0 0 0 0
39.618 -24.773001 8.342 53
41.972 -26.361 9.6870003 48
42.719002 -26.969999 10.736 34
0 0 0 0
0 0 0 0
0 0 0 0
39.660999 -24.631001 8.4569998 50
41.938 -26.159 9.7889996 48
42.668999 -26.753 10.834 13
0 0 0 0
0 0 0 0
0 0 0 0
39.743 -24.504999 8.5740004 30
42.398998 -26.256001 10 32
42.895 -26.698999 10.994 9
0 0 0 0
0 0 0 0
0 0 0 0
39.862 -24.391001 8.6969995 3
43.105999 -26.490999 10.268 51
0 0 0 0
0 0 0 0
0 0 0 0
0 0 0 0
36.213001 -21.983 7.9860001 1
43.463001 -26.496 10.455 47
0 0 0 0
0 0 0 0
0 0 0 0
0 0 0 0
37.845001 -22.782 8.4300003 3
43.507999 -26.301001 10.559 58
0 0 0 0
0 0 0 0
0 0 0 0
0 0 0 0
43.004002 -25.662001 9.6700001 27
43.633999 -26.149 10.677 30
0 0 0 0
0 0 0 0
0 0 0 0
0 0 0 0
43.027 -25.447001 9.7580004 38
43.473 -25.816999 10.72 2
0 0 0 0
0 0 0 0
0 0 0 0
0 0 0 0
37.808998 -22.15 8.6459999 3
43.223 -25.424999 10.737 12
0 0 0 0
0 0 0 0
0 0 0 0
0 0 0 0
35.679001 -20.698999 8.224 22
42.691002 -24.868999 10.678 5
0 0 0 0
0 0 0 0
0 0 0 0
0 0 0 0
35.872002 -20.604 8.3280001 42
35.417 -20.423 8.9139996 10
0 0 0 0
0 0 0 0
0 0 0 0
0 0 0 0
35.703999 -20.292 8.3439999 53
35.374001 -20.183001 8.9549999 5
0 0 0 0
0 0 0 0
0 0 0 0
0 0 0 0
35.52 -19.969999 8.3520002 45
35.676998 -20.136 9.0819998 3
0 0 0 0
0 0 0 0
0 0 0 0
0 0 0 0
35.695999 -19.841999 8.4420004 55
35.796001 -19.974001 9.158 16
0 0 0 0
0 0 0 0
0 0 0 0
0 0 0 0
31.003 -17.035 7.3699999 4
35.912998 -19.806 9.2290001 26
0 0 0 0
0 0 0 0
0 0 0 0
0 0 0 0
30.931999 -16.795 7.3860002 3
36.078999 -19.664 9.3059998 3
0 0 0 0
0 0 0 0
0 0 0 0
0 0 0 0
36.433998 -19.542 8.7379999 1
0 0 0 0
0 0 0 0
0 0 0 0
0 0 0 0
0 0 0 0
38.980999 -20.65 9.3809996 41
0 0 0 0
0 0 0 0
0 0 0 0
0 0 0 0
0 0 0 0
38.948002 -20.365999 9.4029999 71
38.327 -20.111 9.9779997 4
0 0 0 0
0 0 0 0
0 0 0 0
0 0 0 0
31.466999 -16.236 7.6199999 2
38.433998 -19.9 10.03 9
0 0 0 0
0 0 0 0
0 0 0 0
0 0 0 0
31.054001 -15.806 7.5359998 15
40.571999 -20.723 10.606 7
0 0 0 0
0 0 0 0
0 0 0 0
0 0 0 0
30.811001 -15.465 7.4899998 44
30.888 -15.555 8.085 0
0 0 0 0
0 0 0 0
0 0 0 0
0 0 0 0
30.827 -15.252 7.5040002 44
30.893999 -15.335 8.0939999 0
0 0 0 0
0 0 0 0
0 0 0 0
0 0 0 0
31.023001 -15.126 7.5599999 45
30.809 -15.069 8.0749998 6
0 0 0 0
0 0 0 0
0 0 0 0
0 0 0 0
31.066 -14.922 7.5739999 44
33.596001 -16.188999 8.8070002 29
0 0 0 0
0 0 0 0
0 0 0 0
0 0 0 0
31.24 -14.778 7.6160002 47
33.59 -15.94 8.8030005 51
0 0 0 0
0 0 0 0
0 0 0 0
0 0 0 0
31.375999 -14.613 7.6469998 45
33.679001 -15.732 8.8210001 52
0 0 0 0
0 0 0 0
0 0 0 0
0 0 0 0
31.641001 -14.501 7.7049999 43
33.063999 -15.197 8.6499996 28
0 0 0 0
0 0 0 0
0 0 0 0
0 0 0 0
31.780001 -14.324 7.7290001 46
33.212002 -15.012 8.6759996 50
0 0 0 0
0 0 0 0
0 0 0 0
0 0 0 0
31.983 -14.177 7.7649999 21
33.263 -14.785 8.6719999 45
28.381001 -12.657 7.9159999 1
0 0 0 0
0 0 0 0
0 0 0 0
31.913 -13.905 7.7329998 17
33.429001 -14.605 8.6949997 8
28.771 -12.612 8.0039997 6
0 0 0 0
0 0 0 0
0 0 0 0
31.931 -13.673 7.717 41
33.356998 -14.323 8.6529999 4
29.766001 -12.821 8.2580004 5
29.24 -12.642 8.6479998 2
0 0 0 0
0 0 0 0
32.014 -13.466 7.7129998 55
33.629002 -14.184 8.6949997 51
29.452 -12.461 8.1440001 11
29.264999 -12.427 8.625 3
0 0 0 0
0 0 0 0
32.334999 -13.357 7.7649999 47
29.905001 -12.384 7.7049999 1
29.245001 -12.149 8.0559998 6
28.642 -11.941 8.4099998 5
28.545 -11.95 8.9069996 1
0 0 0 0
32.417999 -13.144 7.7550001 50
30.186001 -12.269 7.7480001 24
29.843 -12.167 8.1890001 5
30.351999 -12.419 8.8760004 10
30.434 -12.504 9.4580002 4
29.643999 -12.235 9.7639999 1
31.327999 -12.467 7.461 20
29.948 -11.946 7.6529999 39
29.917999 -11.97 8.1730003 3
29.382999 -11.796 8.5539999 1
29.799999 -12.01 9.2189999 10
29.584999 -11.98 9.7010002 1
31.674999 -12.363 7.5089998 2
30.334 -11.868 7.7160001 43
28.591 -11.218 7.7729998 33
28.606001 -11.262 8.2869997 9
29.775999 -11.768 9.1660004 2
0 0 0 0
33.278 -12.738 7.848 47
30.903999 -11.858 7.8189998 36
28.739 -11.057 7.7740002 36
28.792 -11.113 8.2989998 31
30.219 -11.71 9.2550001 8
0 0 0 0
33.368999 -12.521 7.8260002 34
30.841999 -11.597 7.7600002 43
28.895 -10.894 7.7719998 37
29.139999 -11.023 8.3520002 2
30.944 -11.749 9.4239998 7
29.815001 -11.37 9.6239996 1
30.615 -11.256 7.1360002 15
31.198 -11.496 7.803 34
28.959999 -10.698 7.744 36
28.822001 -10.68 8.2119999 2
0 0 0 0
29.955999 -11.187 9.6120005 3
33.314999 -11.997 7.7150002 47
29.875999 -10.78 7.4239998 8
28.903999 -10.457 7.6799998 7
28.799 -10.45 8.1549997 35
30.966 -11.276 9.3179998 2
30.836 -11.276 9.8339996 6
31.639 -11.153 7.2750001 3
31.357 -11.075 7.7379999 2
30.511 -10.804 8.052 2
29.198 -10.369 8.2119999 35
30.861 -10.997 9.2250004 26
30.233999 -10.816 9.5790005 5
30.422001 -10.495 6.9439998 39
30.257999 -10.458 7.4120002 24
30.599001 -10.6 8.0170002 5
30.257999 -10.512 8.4499998 25
30.423 -10.605 9.0299997 4
30.118999 -10.541 9.4770002 5
30.634001 -10.337 6.9359999 27
30.990999 -10.478 7.5349998 1
0 0 0 0
31.295 -10.636 8.677 5
31.438 -10.719 9.2650003 10
31.348 -10.728 9.7919998 42
31.691 -10.459 7.1149998 3
31.715 -10.484 7.6469998 29
31.773001 -10.528 8.1969995 33
31.785 -10.562 8.743 26
0 0 0 0
0 0 0 0
0 0 0 0
31.52 -10.186 7.5359998 11
0 0 0 0
0 0 0 0
32.212002 -10.493 9.3459997 12
31.051001 -10.153 9.5530005 27
0 0 0 0
0 0 0 0
31.546 -9.9820004 8 6
31.281 -9.9219999 8.4619999 1
31.117001 -9.8999996 8.9519997 3
0 0 0 0
0 0 0 0
0 0 0 0
31.249001 -9.6529999 7.8520002 1
31.278999 -9.6870003 8.3859997 0
30.931 -9.6070004 8.8219995 2
30.719999 -9.5760002 9.2930002 19
26.664 -8.0129995 5.7600002 41
0 0 0 0
0 0 0 0
0 0 0 0
31.035999 -9.4049997 8.7679996 1
30.802999 -9.3649998 9.2340002 33
26.573 -7.7880001 5.6760001 40
0 0 0 0
0 0 0 0
0 0 0 0
0 0 0 0
30.594 -9.0699997 9.0869999 7
26.587999 -7.599 5.6139998 53
26.489 -7.5799999 6.02 1
0 0 0 0
0 0 0 0
0 0 0 0
30.827999 -8.9090004 9.0679998 1
26.549 -7.395 5.539 52
26.363001 -7.3540001 5.9239998 20
0 0 0 0
0 0 0 0
0 0 0 0
0 0 0 0
26.687 -7.244 5.4980001 24
26.094 -7.092 5.7919998 38
0 0 0 0
0 0 0 0
0 0 0 0
0 0 0 0
26.500999 -7.0050001 5.3870001 40
26.122 -6.9120002 5.7259998 55
26.530001 -7.0289998 6.2420001 11
0 0 0 0
0 0 0 0
0 0 0 0
26.363001 -6.7800002 5.2839999 51
25.966999 -6.6859999 5.6170001 64
26.471001 -6.8249998 6.151 31
0 0 0 0
0 0 0 0
27.679001 -7.184 7.8000002 3
27.354 -6.8410001 5.4029999 41
26.167999 -6.552 5.5819998 48
26.4 -6.619 6.0539999 43
0 0 0 0
28.364 -7.1389999 7.4299998 35
27.650999 -6.9790001 7.7030001 26
0 0 0 0
26.106001 -6.3530002 5.4879999 63
26.003 -6.336 5.881 33
27.865999 -6.802 6.7519999 2
28.35 -6.934 7.3319998 48
27.785 -6.8140001 7.6459999 51
25.577999 -6.0440001 4.8969998 40
26.287001 -6.2150002 5.4450002 65
26.122 -6.1830001 5.8239999 58
27.403999 -6.4970002 6.5500002 30
28.582001 -6.79 7.296 34
27.875999 -6.6370001 7.5749998 50
25.563 -5.8629999 4.8130002 45
26.917999 -6.178 5.4879999 45
26.368999 -6.059 5.7930002 43
27.492001 -6.3260002 6.4790001 49
28.129 -6.4840002 7.0830002 37
28.271999 -6.533 7.5819998 34
25.566999 -5.6890001 4.73 43
26.938 -5.9970002 5.402 26
0 0 0 0
27.441999 -6.1220002 6.3699999 54
27.492001 -6.145 6.8249998 30
29.153 -6.5310001 7.7129998 18
25.603001 -5.5229998 4.6500001 7
27.868999 -6.0159998 5.494 34
0 0 0 0
28.059999 -6.0710001 6.4159999 58
27.555 -5.9710002 6.7420001 46
29.361 -6.375 7.6609998 34
27.907 -5.835 4.974 23
27.893999 -5.835 5.401 21
28.608999 -5.9879999 5.9860001 33
28.174999 -5.9050002 6.3400002 39
27.822001 -5.8400002 6.7049999 49
28.798 -6.0560002 7.4060001 35
27.587 -5.586 4.8200002 29
27.969 -5.664 5.316 54
33.429001 -6.7729998 6.8720002 30
28.129999 -5.7049999 6.2249999 49
27.896999 -5.6669998 6.6170001 57
28.319 -5.763 7.1729999 43
27.485001 -5.3839998 4.7030001 28
28.172001 -5.5190001 5.2519999 44
29.645 -5.8099999 5.9840002 23
28.351 -5.5609999 6.1659999 33
28.92 -5.6810002 6.7480001 37
28.360001 -5.5819998 7.072 39
27.888 -5.283 4.6690001 28
28.208 -5.3429999 5.1529999 38
29.044001 -5.5029998 5.7540002 34
29.532 -5.6009998 6.3109999 37
28.749001 -5.4590001 6.5970001 33
0 0 0 0
27.712 -5.0700002 4.5349998 29
28.858 -5.2789998 5.1609998 2
28.493 -5.2150002 5.5339999 50
29.392 -5.382 6.165 34
29.059999 -5.3280001 6.552 11
30.131001 -5.5320001 7.2719998 35
28.639999 -5.0580001 4.5770001 31
29.108 -5.1399999 5.092 30
28.375 -5.0110002 5.3979998 47
26.579 -4.6960001 5.4679999 6
29.195 -5.165 6.4629998 36
30.076 -5.3270001 7.1339998 34
28.563 -4.8660002 4.4530001 54
52.34 -8.9130001 8.9499998 34
26.513 -4.5159998 4.9380002 0
26.549999 -4.5240002 5.355 54
28.896999 -4.9289999 6.2789998 52
29.872 -5.1020002 6.9619999 40
28.657 -4.7059999 4.3540001 53
28.436001 -4.6690001 4.7490001 24
28.427 -4.665 5.178 2
26.573999 -4.3629999 5.25 58
26.77 -4.3979998 5.704 28
29.884001 -4.9159999 6.8369999 48
28.891001 -4.5669999 4.2709999 43
28.636 -4.5250001 4.664 30
28.094999 -4.4380002 5.0019999 13
26.481001 -4.1849999 5.1199999 56
26.837999 -4.243 5.605 41
0 0 0 0
28.924999 -4.3990002 4.1560001 15
28.895 -4.3909998 4.5840001 31
28.292999 -4.2979999 4.9159999 43
26.544001 -4.0320001 5.0180001 53
26.799 -4.072 5.4790001 53
27.346001 -4.1570001 6.0149999 2
29.052999 -4.2449999 4.0510001 0
29.1 -4.2470002 4.4910002 39
28.388 -4.1409998 4.809 21
26.473 -3.862 4.888 56
26.879 -3.9230001 5.3769999 48
27.068001 -3.9530001 5.8340001 6
52.571999 -7.3730001 7.105 66
29.202999 -4.092 4.382 5
29.476 -4.1269999 4.8639998 1
26.999001 -3.779 4.8649998 31
26.777 -3.7490001 5.2360001 42
27.181999 -3.8069999 5.7350001 34
53.344002 -7.1750002 6.9759998 29
52.484001 -7.0500002 7.6430001 53
29.121 -3.908 4.677 1
28.294001 -3.7950001 4.9720001 44
26.601999 -3.5669999 5.0799999 59
26.669001 -3.576 5.5019999 37
56.688999 -7.296 7.1570001 42
53.838001 -6.921 7.5960002 38
53.540001 -6.875 8.3540001 58
53.389999 -6.8509998 9.1350002 55
27.351999 -3.5090001 5.0970001 43
26.368 -3.3829999 5.3179998 52
55.790001 -6.8670001 6.7919998 28
54.390999 -6.6830001 7.4229999 62
54.708 -6.7160001 8.283 37
28.341999 -3.4760001 4.717 1
27.701 -3.395 5.0300002 36
26.141001 -3.204 5.1479998 57
0 0 0 0
54.356998 -6.3800001 7.1690001 6
54.632999 -6.4029999 8.0179996 39
54.508999 -6.3800001 8.8140001 23
27.242001 -3.1860001 4.8169999 29
26.445999 -3.092 5.0799999 44
56.803001 -6.3639998 6.3839998 27
55.903 -6.2529998 7.1069999 46
54.402 -6.0770001 7.724 32
54.764 -6.1090002 8.5950003 48
27.868999 -3.1040001 4.7930002 29
26.729 -2.9760001 5.0040002 49
57.007999 -6.0809999 6.1350002 42
55.936001 -5.9530001 6.8410001 38
56.585999 -6.013 7.7589998 25
56.757 -6.0209999 8.6300001 24
27.879 -2.9549999 4.658 7
27.222 -2.881 4.96 52
40.266998 -4.0830002 4.1399999 15
56.950001 -5.7600002 6.6900001 5
0 0 0 0
56.751999 -5.7210002 8.3529997 36
0 0 0 0
27.125 -2.7260001 4.8070002 28
40.563999 -3.9030001 3.9719999 28
78.302002 -7.5139999 8.8129997 42
0 0 0 0
0 0 0 0
0 0 0 0
26.827 -2.5550001 4.619 39
40.834999 -3.72 3.796 17
77.595001 -7.0500002 8.3479996 50
0 0 0 0
0 0 0 0
0 0 0 0
0 0 0 0
77.314003 -6.658 6.7979999 42
77.807999 -6.678 7.9759998 42
0 0 0 0
0 0 0 0
0 0 0 0
0 0 0 0
77.639999 -6.3000002 6.4260001 40
78.087997 -6.3130002 7.5999999 39
78.498001 -6.3239999 8.7910004 10
0 0 0 0
0 0 0 0
0 0 0 0
77.935997 -5.9450002 6.046 39
78.068001 -5.934 7.1939998 40
78.873001 -5.974 8.4219999 38
0 0 0 0
0 0 0 0
0 0 0 0
78.153 -5.5900002 5.652 43
77.797997 -5.54 6.756 34
77.902 -5.527 7.9060001 42
0 0 0 0
0 0 0 0
0 0 0 0
79.143997 -5.2930002 5.3010001 46
78.420998 -5.2210002 6.3930001 34
77.917 -5.1630001 7.4889998 40
0 0 0 0
0 0 0 0
0 0 0 0
52.122002 -3.2479999 3.2119999 9
78.949997 -4.8930001 6.006 45
78.383003 -4.8319998 7.1059999 44
80.023003 -4.9109998 8.4309998 11
0 0 0 0
0 0 0 0
52.278 -3.023 2.934 54
79.508003 -4.5689998 5.6100001 43
29.608 -1.692 2.5209999 1
29.469 -1.675 2.941 12
28.962999 -1.638 3.3180001 48
28.884001 -1.625 3.7360001 77
28.933001 -1.546 1.4630001 75
28.702 -1.524 1.867 88
28.695 -1.513 2.283 118
28.688999 -1.503 2.7019999 115
28.698 -1.495 3.1259999 98
28.709999 -1.487 3.5510001 64
28.695 -1.41 1.29 90
28.729 -1.402 1.7079999 62
28.691 -1.39 2.1229999 11
28.67 -1.3789999 2.539 25
28.582001 -1.365 2.951 16
28.639999 -1.358 3.3789999 1
51.537998 -2.3169999 2.0250001 35
28.427 -1.267 1.528 19
28.219 -1.249 1.928 16
28.110001 -1.235 2.332 79
28.122999 -1.225 2.7449999 2
0 0 0 0
49.263 -2.016 1.6569999 1
51.978001 -2.1070001 2.5 63
52.221001 -2.098 3.2709999 55
101.42 -4.04 7.835 22
102.008 -4.0250001 9.3699999 7
103.036 -4.0320001 10.983 8
38.070999 -1.406 1.0599999 39
52.113998 -1.905 2.2049999 49
52.362 -1.8940001 2.9760001 56
52.207001 -1.868 3.7279999 2
103.037 -3.652 8.8699999 24
102.237 -3.586 10.302 21
38.209 -1.262 0.83899999 19
52.500999 -1.7130001 1.913 42
52.507 -1.694 2.677 40
52.299999 -1.668 3.4300001 55
100.915 -3.181 8.0950003 7
101.767 -3.1689999 9.6560001 26
38.187 -1.118 0.616 90
38.195 -1.103 1.169 38
52.373001 -1.493 2.365 41
101.031 -2.842 6.0380001 7
102.485 -2.845 7.6259999 26
102.434 -2.803 9.1230001 29
38.242001 -0.98100001 0.39199999 74
38.247002 -0.96499997 0.94499999 85
99.385002 -2.4649999 3.8959999 31
52.721001 -1.2869999 2.836 7
101.989 -2.448 6.9759998 24
103.304 -2.441 8.5819998 14
38.323002 -0.84500003 0.162 16
38.294998 -0.829 0.71700001 89
38.290001 -0.81300002 1.273 37
53.585999 -1.117 2.5639999 2
103.03 -2.1070001 6.4380002 20
101.695 -2.0369999 7.842 26
47.612 -0.88599998 -0.083999999 6
38.352001 -0.69800001 0.48899999 105
38.380001 -0.68099999 1.045 46
100.066 -1.7359999 4.1859999 19
101.964 -1.723 5.7480001 23
101.917 -1.678 7.2360001 25
37.974998 -0.57700002 -0.30199999 2
40.084 -0.59200001 0.26199999 1
39.799999 -0.56999999 0.838 12
39.814999 -0.55400002 1.42 7
100.187 -1.348 5.0310001 19
102.085 -1.3279999 6.6170001 13
0 0 0 0
39.825001 -0.45699999 0.014 56
38.504002 -0.42399999 0.57300001 42
39.868 -0.42199999 1.174 51
83.487999 -0.847 3.6800001 9
101.289 -0.98199999 5.9439998 28
35.014 -0.30599999 -0.71399999 49
38.548 -0.31799999 -0.228 49
38.52 -0.301 0.33199999 81
39.902 -0.294 0.92699999 44
83.851997 -0.57999998 3.171 25
103.051 -0.66500002 5.402 14
33.358002 -0.18799999 -0.89200002 43
34.557999 -0.17900001 -0.41999999 1
38.560001 -0.182 0.090000004 99
39.945 -0.17 0.676 36
39.962002 -0.15099999 1.2589999 44
84.379997 -0.27900001 3.891 5
30.266001 -0.079999998 -1.003 1
34.730999 -0.075999998 -0.64600003 45
38.257 -0.066 -0.152 1
39.984001 -0.050000001 0.42399999 17
40.007 -0.032000002 1.0089999 41
83.872002 -0.024 3.3380001 20
29.063 0.0060000001 -1.15 28
33.374001 0.022 -0.83399999 40
36.117001 0.041000001 -0.37400001 4
68.695999 0.11 0.294 24
40.033001 0.083999999 0.75599998 45
40.056999 0.104 1.339 23
0 0 0 0
32.356998 0.111 -1.016 39
0 0 0 0
39.964001 0.175 -0.085000001 1
0 0 0 0
84.57 0.45699999 2.2909999 14
26.158001 0.146 -1.374 18
29.450001 0.17900001 -1.114 16
33.466 0.22 -0.77600002 40
37.806 0.266 -0.322 4
69.362999 0.52600002 0.41800001 18
40.145 0.32499999 0.829 23
23.576 0.192 -1.392 8
28.358 0.245 -1.26 28
32.851002 0.30000001 -0.97600001 41
35.875999 0.34599999 -0.54100001 49
51.655998 0.52499998 -0.023 5
40.167 0.42899999 0.56999999 21
21.570999 0.229 -1.4170001 13
26.351999 0.292 -1.344 21
29.743999 0.345 -1.081 11
34.036999 0.41299999 -0.73699999 42
37.612 0.47600001 -0.264 1
40.219002 0.52999997 0.30700001 3
20.082001 0.259 -1.4529999 14
23.67 0.31799999 -1.364 7
28.535 0.39700001 -1.223 22
32.928001 0.47600001 -0.92699999 40
33.768002 0.50599998 -0.454 15
40.221001 0.625 0.045000002 46
18.757 0.28400001 -1.483 13
21.787001 0.34099999 -1.401 12
26.677999 0.43200001 -1.322 25
29.898001 0.5 -1.041 7
33.702 0.58200002 -0.67900002 42
45.43 0.81 -0.249 26
17.577999 0.30399999 -1.5089999 11
20.212999 0.36000001 -1.436 14
24.103001 0.442 -1.3559999 6
28.657 0.54100001 -1.189 28
33.098999 0.64200002 -0.88499999 50
0 0 0 0
16.582001 0.31999999 -1.535 10
18.899 0.37400001 -1.469 13
22.104 0.44999999 -1.391 9
26.882999 0.56199998 -1.295 25
30.084 0.64600003 -1.006 3
33.671001 0.74199998 -0.63099998 43
15.666 0.33199999 -1.559 11
17.705 0.38499999 -1.498 11
20.528999 0.45699999 -1.431 15
24.431 0.55800003 -1.341 6
28.805 0.67400002 -1.156 29
33.159 0.79500002 -0.84200001 41
14.826 0.34099999 -1.5779999 13
16.68 0.39300001 -1.526 10
19.112 0.46000001 -1.4630001 13
22.386 0.55199999 -1.382 8
27.221001 0.68699998 -1.278 26
30.215 0.77999997 -0.97299999 1
14.114 0.34799999 -1.6 12
15.74 0.39700001 -1.5470001 12
17.895 0.46200001 -1.494 11
20.729 0.54699999 -1.421 15
24.815001 0.66900003 -1.3329999 6
29.059 0.801 -1.131 30
13.491 0.354 -1.623 13
14.911 0.40000001 -1.5700001 13
16.863001 0.46200001 -1.523 10
19.329 0.54100001 -1.457 13
22.709999 0.648 -1.374 8
0 0 0 0
12.864 0.35699999 -1.638 13
14.165 0.40099999 -1.59 12
15.894 0.45899999 -1.546 12
18.056 0.53200001 -1.4859999 12
20.941999 0.63 -1.4119999 13
25.122999 0.77100003 -1.3200001 7
12.278 0.35699999 -1.65 12
13.533 0.40099999 -1.614 13
15.047 0.45500001 -1.567 13
16.988001 0.52399999 -1.5140001 10
19.542999 0.61400002 -1.449 14
22.964001 0.73699999 -1.363 8
11.726 0.35600001 -1.659 13
12.922 0.40000001 -1.632 14
14.279 0.44999999 -1.587 12
16.028 0.51499999 -1.541 11
18.268999 0.59799999 -1.483 12
21.198 0.708 -1.405 12
11.217 0.35299999 -1.668 12
12.323 0.39500001 -1.6440001 13
13.627 0.44499999 -1.6109999 13
15.131 0.50400001 -1.5599999 13
17.145 0.58099997 -1.51 10
19.664 0.67900002 -1.439 14
10.759 0.34999999 -1.677 12
11.766 0.38999999 -1.653 13
13.028 0.44 -1.632 13
14.388 0.49399999 -1.584 11
16.150999 0.565 -1.535 11
18.409 0.65600002 -1.475 12
10.382 0.347 -1.693 10
11.258 0.38299999 -1.6619999 13
12.421 0.43099999 -1.6440001 14
13.716 0.484 -1.608 13
15.259 0.54900002 -1.558 12
17.280001 0.63200003 -1.5039999 11
9.967 0.34200001 -1.698 7
10.778 0.37599999 -1.669 13
11.848 0.421 -1.654 12
13.093 0.47299999 -1.628 13
14.482 0.53299999 -1.581 13
16.249001 0.60900003 -1.529 11
9.5889997 0.336 -1.704 12
10.416 0.37099999 -1.6900001 10
11.335 0.41100001 -1.663 14
12.485 0.46000001 -1.641 13
13.772 0.51700002 -1.601 13
15.356 0.58700001 -1.553 12
9.2639999 0.33000001 -1.715 11
10 0.36199999 -1.694 7
10.85 0.40000001 -1.67 13
11.916 0.447 -1.651 12
13.162 0.50199997 -1.623 13
14.555 0.565 -1.573 13
8.9519997 0.32300001 -1.723 10
9.6120005 0.35299999 -1.699 12
10.477 0.391 -1.689 11
11.39 0.433 -1.66 13
12.566 0.486 -1.6390001 14
13.868 0.546 -1.597 13
8.6450005 0.315 -1.728 10
9.2860003 0.34400001 -1.709 12
10.074 0.38 -1.697 8
10.911 0.419 -1.669 13
12.014 0.47 -1.652 12
13.248 0.52700001 -1.62 13
8.3660002 0.30700001 -1.734 10
8.9720001 0.33500001 -1.717 11
9.6680002 0.368 -1.698 11
10.547 0.40799999 -1.688 12
11.464 0.45100001 -1.658 14
12.643 0.50700003 -1.6339999 13
8.1099997 0.29899999 -1.7410001 10
8.6759996 0.32600001 -1.724 11
9.3400002 0.35699999 -1.7079999 12
10.124 0.39399999 -1.693 10
10.994 0.435 -1.668 12
12.087 0.48699999 -1.647 12
7.8720002 0.28999999 -1.748 10
8.3920002 0.315 -1.729 10
9.0229998 0.345 -1.716 12
9.7320004 0.37900001 -1.697 11
10.607 0.421 -1.6849999 12
11.537 0.46599999 -1.654 12
7.6459999 0.28099999 -1.755 10
8.1429996 0.30599999 -1.738 11
8.7370005 0.33399999 -1.726 11
9.3850002 0.36500001 -1.705 12
10.183 0.403 -1.691 8
11.064 0.44600001 -1.666 13
7.4380002 0.273 -1.7640001 10
7.9050002 0.29499999 -1.7460001 10
8.4469995 0.32100001 -1.73 11
9.0760002 0.352 -1.714 11
9.7939997 0.38699999 -1.6950001 10
10.65 0.428 -1.678 12
7.191 0.26199999 -1.7589999 11
7.6690001 0.28400001 -1.751 10
8.1890001 0.30899999 -1.738 10
8.7849998 0.338 -1.723 11
9.4490004 0.37099999 -1.704 12
10.249 0.41 -1.689 8
6.9819999 0.25099999 -1.762 10
7.4569998 0.27399999 -1.7589999 10
7.9530001 0.29800001 -1.747 11
8.4840002 0.324 -1.727 10
9.1330004 0.35499999 -1.714 11
9.8540001 0.38999999 -1.694 9
6.8119998 0.241 -1.77 11
7.2259998 0.26100001 -1.7589999 12
7.7140002 0.285 -1.751 10
8.2279997 0.31 -1.735 11
8.835 0.33899999 -1.722 11
9.5030003 0.37200001 -1.702 12
6.632 0.23100001 -1.775 10
7.0229998 0.25 -1.762 11
7.4910002 0.27200001 -1.756 12
7.9990001 0.29699999 -1.745 11
8.5439997 0.32300001 -1.728 10
9.1890001 0.35499999 -1.712 11
6.4530001 0.22 -1.776 10
6.8280001 0.23800001 -1.765 11
7.2909999 0.25999999 -1.763 12
7.7649999 0.28299999 -1.751 10
8.2849998 0.308 -1.735 11
8.8889999 0.33700001 -1.72 11
6.2940001 0.20900001 -1.781 10
6.6589999 0.227 -1.771 11
7.0799999 0.24600001 -1.766 11
7.527 0.26800001 -1.753 11
8.0369997 0.292 -1.7410001 10
8.599 0.31999999 -1.725 11
6.1409998 0.198 -1.784 10
6.4850001 0.215 -1.774 10
6.8769999 0.233 -1.766 12
7.3179998 0.25400001 -1.758 12
7.8140001 0.27700001 -1.75 12
8.3369999 0.30199999 -1.733 11
5.9910002 0.18700001 -1.7869999 10
6.3130002 0.20200001 -1.775 10
6.6999998 0.22 -1.77 11
7.1160002 0.23999999 -1.761 12
7.5830002 0.26100001 -1.752 11
8.0950003 0.28600001 -1.74 10
5.8460002 0.176 -1.789 11
6.171 0.191 -1.7819999 10
6.5289998 0.207 -1.774 11
6.9239998 0.22499999 -1.765 12
7.3850002 0.24600001 -1.761 12
7.8639998 0.26899999 -1.747 10
5.7129998 0.16500001 -1.793 10
6.0300002 0.17900001 -1.786 11
6.381 0.19499999 -1.7819999 11
6.75 0.211 -1.771 11
7.1630001 0.23 -1.76 11
7.6230001 0.25099999 -1.748 12
5.5780001 0.153 -1.793 11
5.8860002 0.167 -1.789 11
6.2150002 0.18099999 -1.781 11
6.5770001 0.197 -1.773 11
6.9819999 0.215 -1.766 12
7.4239998 0.235 -1.755 12
5.46 0.142 -1.7970001 10
5.7529998 0.154 -1.7920001 11
6.0710001 0.168 -1.786 12
6.4200001 0.183 -1.778 12
6.789 0.2 -1.766 11
7.2179999 0.21799999 -1.758 12
5.349 0.13 -1.803 10
5.6139998 0.142 -1.7920001 11
5.9310002 0.155 -1.788 12
6.2610002 0.169 -1.78 11
6.6240001 0.185 -1.771 11
7.0229998 0.20200001 -1.761 12
5.2309999 0.119 -1.803 10
5.4949999 0.13 -1.795 13
5.802 0.142 -1.793 11
6.112 0.155 -1.783 11
6.461 0.169 -1.774 11
6.8390002 0.186 -1.7640001 11
5.1149998 0.107 -1.803 10
5.3790002 0.117 -1.799 11
5.6570001 0.12800001 -1.791 13
5.9699998 0.141 -1.786 13
6.309 0.154 -1.779 12
6.6729999 0.169 -1.768 10
5.0159998 0.094999999 -1.807 10
5.2670002 0.105 -1.802 11
5.5380001 0.115 -1.795 12
5.836 0.127 -1.789 12
6.1370001 0.139 -1.775 13
6.5050001 0.153 -1.77 11
4.9109998 0.082999997 -1.808 10
5.164 0.092 -1.806 11
5.4289999 0.102 -1.8 12
5.698 0.113 -1.788 11
6.0240002 0.125 -1.785 11
6.355 0.13699999 -1.775 12
4.8189998 0.071000002 -1.812 10
5.0539999 0.079999998 -1.806 11
5.3179998 0.089000002 -1.803 10
5.5770001 0.098999999 -1.791 12
5.855 0.109 -1.777 12
6.2030001 0.121 -1.776 11
4.7360001 0.059 -1.818 10
4.948 0.067000002 -1.806 11
5.2080002 0.075999998 -1.8049999 11
5.4569998 0.085000001 -1.793 11
5.7529998 0.094999999 -1.788 12
6.073 0.106 -1.7819999 13
4.6389999 0.046999998 -1.817 10
4.8509998 0.054000001 -1.808 11
5.1009998 0.063000001 -1.806 12
5.3740001 0.071000002 -1.8049999 10
5.6290002 0.079999998 -1.79 12
5.9109998 0.090000004 -1.776 11
4.5510001 0.035 -1.818 10
4.763 0.041999999 -1.811 12
5.0050001 0.048999999 -1.8099999 12
5.2459998 0.057 -1.8 11
5.5159998 0.066 -1.794 13
5.8039999 0.075000003 -1.785 12
4.467 0.023 -1.819 9
4.677 0.028999999 -1.8150001 11
4.901 0.035999998 -1.809 12
5.1430001 0.043000001 -1.803 12
5.3909998 0.050999999 -1.7920001 12
5.6599998 0.059 -1.781 11
4.3899999 0.011 -1.823 10
4.5910001 0.017000001 -1.816 12
4.8119998 0.023 -1.812 12
5.0479999 0.028999999 -1.806 12
5.2989998 0.037 -1.799 12
5.5640001 0.044 -1.79 11
4.3150001 0 -1.825 10
4.5089998 0.0040000002 -1.818 11
4.7210002 0.0099999998 -1.812 11
4.941 0.016000001 -1.804 11
5.1939998 0.022 -1.8 13
5.447 0.028999999 -1.79 12
4.2319999 -0.012 -1.822 9
4.434 -0.0070000002 -1.821 12
4.6409998 -0.0020000001 -1.816 10
4.862 0.0020000001 -1.8099999 11
5.1030002 0.0080000004 -1.8049999 12
5.3600001 0.014 -1.798 11
4.1550002 -0.024 -1.822 10
4.3520002 -0.02 -1.821 11
4.5640001 -0.015 -1.8200001 11
4.763 -0.011 -1.808 12
5.006 -0.0060000001 -1.806 11
5.25 -0.001 -1.798 11
4.0900002 -0.035999998 -1.826 9
4.2789998 -0.033 -1.823 10
4.4749999 -0.028999999 -1.818 11
4.6820002 -0.024 -1.811 11
4.9109998 -0.02 -1.806 11
5.1570001 -0.015 -1.802 12
4.0250001 -0.048 -1.827 9
4.2140002 -0.045000002 -1.827 10
4.4099998 -0.041999999 -1.823 11
4.6040001 -0.037999999 -1.814 11
4.8169999 -0.034000002 -1.806 11
5.066 -0.029999999 -1.8049999 12
3.964 -0.059999999 -1.83 8
4.1350002 -0.057999998 -1.823 10
4.3260002 -0.055 -1.8200001 10
4.5310001 -0.052000001 -1.817 11
4.7340002 -0.048 -1.807 11
4.9689999 -0.045000002 -1.804 11
3.9000001 -0.072999999 -1.831 10
4.072 -0.07 -1.826 10
4.2540002 -0.068000004 -1.821 10
4.4549999 -0.064999998 -1.818 11
4.6550002 -0.063000001 -1.809 11
4.888 -0.059999999 -1.807 11
3.8469999 -0.085000001 -1.836 9
4.0029998 -0.082999997 -1.825 10
4.178 -0.081 -1.819 11
4.3839998 -0.079000004 -1.8200001 11
4.586 -0.077 -1.814 11
4.7989998 -0.075000003 -1.807 11
3.7909999 -0.097000003 -1.8380001 8
3.944 -0.094999999 -1.8279999 10
4.1220002 -0.093999997 -1.824 10
4.316 -0.092 -1.822 10
4.5170002 -0.090999998 -1.818 11
4.7210002 -0.089000002 -1.809 11
3.7290001 -0.109 -1.837 9
3.892 -0.108 -1.832 9
4.0539999 -0.106 -1.823 10
4.2459998 -0.106 -1.822 10
4.441 -0.105 -1.817 10
4.6490002 -0.104 -1.812 11
3.6830001 -0.121 -1.842 9
3.8340001 -0.12 -1.8329999 9
3.9960001 -0.119 -1.826 10
4.1789999 -0.119 -1.822 10
4.375 -0.119 -1.8200001 11
4.5770001 -0.118 -1.814 11
3.6240001 -0.133 -1.84 9
3.7780001 -0.133 -1.834 10
3.938 -0.132 -1.827 10
4.1170001 -0.132 -1.824 10
4.309 -0.133 -1.821 10
4.5149999 -0.133 -1.819 10
3.5699999 -0.145 -1.839 8
3.7219999 -0.145 -1.834 10
3.888 -0.145 -1.831 10
4.0549998 -0.145 -1.823 9
4.244 -0.146 -1.821 10
4.4530001 -0.148 -1.822 9
3.526 -0.15700001 -1.8430001 8
3.677 -0.15700001 -1.8380001 10
3.845 -0.15800001 -1.837 9
4 -0.15899999 -1.826 9
4.1830001 -0.16 -1.823 10
4.3759999 -0.161 -1.819 10
3.4749999 -0.169 -1.842 8
3.6289999 -0.17 -1.84 9
3.7839999 -0.171 -1.835 9
3.944 -0.17200001 -1.827 9
4.1230001 -0.17399999 -1.823 10
4.3169999 -0.176 -1.822 10
3.428 -0.18099999 -1.8430001 8
