# .PCD v0.7 - Point Cloud Data file format
VERSION 0.7
FIELDS x y z intensity
SIZE 4 4 4 4
TYPE F F F F
COUNT 1 1 1 1
WIDTH 1820
HEIGHT 1
VIEWPOINT 0 0 0 1 0 0 0
POINTS 1820
DATA ascii
32.932999 1.444 -0.70099998 3
32.716 1.4680001 -0.176 0
31.921 1.467 0.336 42
32.492001 1.528 0.86000001 40
32.653999 1.5700001 1.3839999 6
48.323002 2.375 2.819 13
35.765999 1.809 -0.68099999 51
37.012001 1.91 -0.117 49
32.298 1.7 0.41 51
32.495998 1.744 0.92900002 21
48.368 2.648 2.152 3
85.077003 4.75 5.1420002 25
36.094002 2.069 -0.611 47
36.852001 2.1500001 -0.039000001 24
32.306 1.916 0.47600001 42
32.813 1.9809999 1.005 25
48.292 2.9679999 2.2460001 38
48.028 3.0050001 2.9979999 43
36.240002 2.3210001 -0.54100001 47
38.338001 2.494 0.033 13
32.153 2.1259999 0.537 38
32.561001 2.188 1.0599999 10
33.030998 2.253 1.599 0
48.549999 3.3659999 3.122 11
35.942001 2.549 -0.46799999 46
32.366001 2.326 0.088 8
32.122002 2.3410001 0.59500003 51
32.120998 2.375 1.104 36
82.703003 6.2090001 4.1550002 42
84.184998 6.4089999 5.5650001 9
35.952999 2.796 -0.40400001 49
32.553001 2.5639999 0.146 14
32.381001 2.582 0.65600002 38
85.227997 6.8860002 3.076 32
82.486 6.7529998 4.283 44
83.796997 6.9489999 5.6789999 42
35.708 3.0209999 -0.34299999 46
32.623001 2.7939999 0.2 1
32.285999 2.7980001 0.70700002 38
32.356998 2.8380001 1.22 9
83.204002 7.388 4.4530001 54
83.337997 7.4879999 5.7800002 51
35.761002 3.2750001 -0.287 47
32.720001 3.029 0.25099999 14
32.244999 3.016 0.755 6
32.146999 3.0420001 1.26 9
84.327003 8.066 4.638 35
83.891998 8.118 5.9419999 42
35.634998 3.5120001 -0.235 46
60.817001 6.053 0.55299997 22
32.808998 3.2980001 0.81400001 0
84.186996 8.5550003 3.4189999 37
83.617996 8.5869999 4.7150002 60
88.696999 9.2069998 6.4050002 24
35.300999 3.7290001 -0.185 46
85.491997 9.1149998 0.88999999 31
58.743 6.3189998 1.535 24
83.889 9.1099997 3.513 44
84.522003 9.2700005 4.8730001 4
86.589996 9.5930004 6.362 25
35.457001 3.9949999 -0.14300001 47
86.225998 9.7989998 1.002 26
59.012001 6.7620001 1.612 20
71.306999 8.2440004 3.0699999 27
84.022003 9.8039999 4.9419999 8
85.917999 10.121 6.4099998 47
35.417 4.2399998 -0.105 45
85.167 10.276 1.08 9
70.709999 8.6040001 2.0079999 33
70.751999 8.6780005 3.1210001 52
87.050003 10.77 5.2119999 5
85.18 10.63 6.4450002 35
36.373001 4.6110001 -0.071000002 43
70.565002 9.0109997 0.96399999 28
70.498001 9.0679998 2.069 57
70.732002 9.1700001 3.187 53
85.151001 11.13 5.178 26
85.583 11.278 6.5539999 42
35.632999 4.7690001 -0.039000001 22
70.75 9.5319996 1.027 15
70.338997 9.5439997 2.1229999 68
70.778 9.6719999 3.2479999 44
84.697998 11.668 5.2220001 50
85.533997 11.879 6.6230001 20
0 0 0 0
86.140999 12.221 1.3150001 17
41.761002 5.9650002 1.2920001 5
61.426998 8.835 2.865 2
84.469002 12.235 5.2680001 46
85.101997 12.421 6.6500001 27
34.470001 5.1069999 0.0089999996 9
85.829002 12.797 1.3660001 16
41.701 6.257 1.316 45
71.968002 10.87 3.402 24
60.653999 9.2220001 3.8210001 7
84.664001 12.967 6.6690001 43
0 0 0 0
41.694 6.5149999 0.685 53
41.548 6.5289998 1.3329999 62
60.601002 9.5860004 2.895 2
84.406998 13.444 5.362 54
85.669998 13.736 6.7930002 44
34.451 5.6040001 0.041999999 2
71.088997 11.626 1.198 5
41.570999 6.835 1.351 63
70.996002 11.742 3.4219999 31
60.988998 10.148 3.8989999 2
84.988998 14.235 6.7729998 4
36.054001 6.1269999 0.056000002 47
71.865997 12.274 1.233 34
40.368999 6.9310002 1.324 7
28.832001 4.9780002 1.398 2
28.841 5.0100002 1.852 30
28.667 5.0100002 2.293 36
36.209 6.4180002 0.061999999 26
0 0 0 0
28.903999 5.171 0.95300001 28
28.849001 5.191 1.405 45
29.122 5.27 1.876 28
29.354 5.3439999 2.3540001 23
28.780001 5.3130002 0.050999999 77
28.728001 5.3249998 0.5 74
28.718 5.3499999 0.94999999 41
71.281998 13.348 3.4779999 35
84.726997 15.953 5.467 13
83.742996 15.859 6.7249999 15
28.733 5.5149999 0.050999999 83
68.317001 13.168 1.188 28
40.381001 7.8179998 1.334 1
68.605003 13.345 3.345 28
84.535004 16.533001 5.454 14
83.728996 16.466 6.723 21
35.493999 7.0760002 0.057 9
65.058998 13.018 1.123 11
40.409 8.118 1.331 5
68.503998 13.826 3.332 9
81.976997 16.628 5.2779999 8
81.278 16.57 6.5159998 11
35.564999 7.349 0.048 2
65.883003 13.665 1.119 4
40.717999 8.4790001 1.33 24
68.57 14.346 3.319 32
82.918999 17.426001 5.3200002 40
81.199997 17.152 6.4920001 19
40.584 8.6870003 0.039999999 81
40.591 8.7180004 0.67500001 32
40.279999 8.6829996 1.302 48
81.648003 17.674 3.9230001 36
81.357002 17.691999 5.191 38
81.253998 17.756001 6.4679999 40
43.66 9.6709995 0.022 35
63.921001 14.202 1.033 13
40.515999 9.0349998 1.291 61
81.358002 18.215 3.872 31
81.056 18.222 5.1370001 42
80.398003 18.16 6.3660002 36
43.580002 9.9729996 -0.003 72
55.25 12.683 0.86000001 14
55.319 12.742 1.73 29
80.788002 18.683001 3.8 39
64.157997 14.899 4.0300002 4
81.410004 18.987 6.4029999 41
43.668999 10.321 -0.035 72
63.308998 15.006 0.94099998 30
55.379002 13.166 1.694 21
65.762001 15.691 3.0480001 6
79.776001 19.111 4.9580002 38
80.359001 19.337999 6.2690001 29
43.493999 10.604 -0.07 72
44.497002 10.878 0.62599999 4
68.920998 16.900999 2.0539999 28
65.025002 15.997 2.964 22
53.171001 13.13 3.2639999 3
53.922001 13.372 4.165 6
43.076 10.822 -0.11 65
44.700001 11.259 0.58700001 22
64.338997 16.254999 1.86 5
53.429001 13.54 2.3889999 4
53.076 13.502 3.2119999 33
53.924999 13.771 4.1199999 6
43.131001 11.161 -0.156 55
44.895 11.645 0.54299998 14
52.938999 13.769 1.476 7
51.618 13.467 2.2539999 24
52.762001 13.813 3.1429999 41
52.534 13.806 3.9630001 17
0 0 0 0
58.528999 15.619 0.64300001 8
52.859001 14.139 1.416 17
50.862 13.645 2.1670001 31
51.806 13.944 3.029 29
52.394001 14.155 3.8959999 31
0 0 0 0
58.150002 15.955 0.56599998 32
51.728001 14.225 1.322 2
50.445999 13.908 2.0899999 35
51.403999 14.217 2.9449999 28
0 0 0 0
0 0 0 0
57.904999 16.313 0.48699999 28
58.505001 16.518999 1.418 9
50.705002 14.352 2.0339999 32
50.944 14.463 2.8540001 35
36.606998 10.426 2.6340001 16
0 0 0 0
52.339001 15.134 0.36199999 8
58.841999 17.048 1.342 17
51.243 14.888 1.983 2
50.050999 14.581 2.7349999 34
36.057999 10.539 2.5450001 54
0 0 0 0
52.189999 15.482 0.28 47
52.449001 15.59 1.115 77
50.487 15.041 1.877 9
36.117001 10.788 1.919 10
35.532001 10.646 2.4549999 50
37.237999 11.311 -0.45300001 19
51.708 15.727 0.192 35
65.195 19.865 1.279 41
50.617001 15.454 1.801 28
35.833 10.969 1.847 29
35.462002 10.886 2.3959999 50
0 0 0 0
51.521 16.054001 0.098999999 24
114.27 35.665001 2.0409999 32
50.543999 15.805 1.711 13
35.421001 11.102 1.766 49
35.694 11.219 2.352 48
35.108002 11.188 -0.55900002 44
47.723999 15.225 0.003 3
0 0 0 0
66.226997 21.202 2.122 16
35.868 11.509 1.724 50
34.997002 11.259 2.244 26
34.606998 11.289 -0.62 40
47.401001 15.475 -0.090999998 5
60.745998 19.860001 0.85500002 5
54.056 17.704 1.627 4
35.530998 11.661 1.64 50
34.800999 11.451 2.1659999 48
34.293999 11.441 -0.68800002 46
35.544998 11.871 -0.142 7
60.855 20.349001 0.73199999 23
51.873001 17.374001 1.457 19
35.421001 11.888 1.564 36
34.630001 11.65 2.0880001 48
33.870998 11.557 -0.755 46
35.273998 12.042 -0.219 78
35.362999 12.086 0.34799999 80
56.365002 19.296 1.464 26
35.462002 12.162 1.493 33
36.109001 12.413 2.1029999 44
30.450001 10.618 -0.75 23
35.037998 12.223 -0.29800001 31
39.845001 13.914 0.30199999 1
39.837002 13.929 0.94599998 52
36.276001 12.707 1.447 7
35.605 12.499 1.9960001 34
30.289 10.786 -0.81999999 43
30.438999 10.844 -0.33199999 75
30.354 10.825 0.15899999 54
30.320999 10.827 0.64899999 34
30.313999 10.843 1.1390001 35
30.341 10.874 1.633 28
30.146 10.963 -0.89300001 33
30.296 11.02 -0.40700001 77
30.240999 11.007 0.082999997 64
30.201 11.008 0.57300001 36
30.174 11.014 1.062 40
30.129 11.019 1.55 43
29.976999 11.125 -0.96700001 34
34.573002 12.832 -0.55299997 42
39.248001 14.576 0.0080000004 3
82.722 30.747999 1.365 45
0 0 0 0
88.720001 33.082001 4.3509998 25
29.818001 11.286 -1.044 23
34.462002 13.044 -0.64499998 48
39.330002 14.892 -0.094999999 12
62.433998 23.662001 0.86500001 5
0 0 0 0
90.683998 34.469002 4.2150002 23
0 0 0 0
34.188 13.193 -0.736 48
39.264 15.156 -0.20200001 13
55.651001 21.497999 0.62099999 4
106.362 41.131001 2.928 30
47.925999 18.563 2.102 25
28.028 11.023 -1.143 24
33.919998 13.337 -0.82800001 36
38.896999 15.297 -0.31200001 22
52.422001 20.627001 0.43799999 4
0 0 0 0
47.814999 18.865 1.967 34
0 0 0 0
31.533001 12.632 -0.86500001 6
38.438 15.4 -0.42300001 23
52.479 21.033001 0.285 10
48.291 19.372999 1.0549999 2
47.672001 19.149 1.826 17
25.542999 10.424 -1.201 5
30.247999 12.339 -0.92299998 15
37.099998 15.132 -0.51899999 31
48.396999 19.747 0.119 2
0 0 0 0
47.075001 19.247999 1.665 37
24.462999 10.164 -1.23 5
30.171 12.527 -1.017 21
35.472 14.725 -0.60900003 27
48.166 20 -0.028000001 18
0 0 0 0
47.578999 19.792 1.541 16
23.681 10.012 -1.2690001 6
28.372999 11.987 -1.049 17
34.667 14.641 -0.70700002 38
39.963001 16.879999 -0.153 1
48.131001 20.344 0.61299998 31
46.967999 19.872999 1.376 3
22.785 9.802 -1.301 8
28.073 12.064 -1.133 11
34.219002 14.699 -0.81199998 16
39.070999 16.782 -0.27599999 12
56.882 24.443001 0.54100001 2
121.606 52.303001 3.174 10
21.964001 9.6059999 -1.331 13
26.086 11.397 -1.1440001 5
30.979 13.527 -0.84100002 5
38.646 16.875 -0.40400001 34
0 0 0 0
156.077 68.221001 3.5680001 21
21.135 9.3979998 -1.358 12
24.927999 11.07 -1.182 4
30.631001 13.593 -0.93900001 17
36.368999 16.135 -0.50599998 22
36.564999 16.224001 0.103 40
36.778999 16.332001 0.71799999 4
20.422001 9.2270002 -1.387 10
23.860001 10.767 -1.219 5
28.768999 12.97 -0.98400003 6
36.000999 16.224001 -0.62699997 41
36.453999 16.43 -0.024 53
36.396 16.412001 0.58399999 30
19.566 8.9799995 -1.404 13
22.950001 10.52 -1.258 7
28.570999 13.084 -1.084 16
35.058998 16.045 -0.73799998 23
36.263 16.594999 -0.154 56
36.124001 16.539 0.45199999 44
18.879 8.8009996 -1.429 15
22.066999 10.272 -1.295 10
26.722 12.423 -1.114 5
32.348999 15.03 -0.801 6
36.688 17.041 -0.289 12
36.014 16.733 0.322 50
18.233 8.6280003 -1.452 14
21.179001 10.005 -1.326 11
25.285 11.929 -1.151 4
30.959999 14.595 -0.884 15
37.613998 17.728001 -0.43700001 23
36.014 16.975 0.19 47
17.531 8.4200001 -1.4680001 13
20.450001 9.8030005 -1.3609999 10
24.209999 11.589 -1.198 4
29.025 13.88 -0.94 5
36.777 17.579 -0.56699997 28
36.112 17.261 0.055 39
16.938 8.2510004 -1.488 13
19.579 9.5179996 -1.382 14
23.122999 11.224 -1.2359999 6
28.914 14.021 -1.05 18
35.536999 17.222 -0.68300003 18
46.313 22.443001 -0.104 9
16.364 8.085 -1.506 12
18.879999 9.3079996 -1.4119999 16
22.194 10.923 -1.276 8
26.857 13.202 -1.0829999 4
32.549 15.989 -0.75599998 12
38.887001 19.101 -0.23899999 1
15.803 7.9159999 -1.522 11
18.167999 9.0799999 -1.4349999 15
21.306999 10.629 -1.314 10
25.429001 12.669 -1.13 4
31.336 15.598 -0.85299999 18
37.832001 18.825001 -0.38299999 14
15.325 7.7800002 -1.544 10
17.464001 8.8439999 -1.454 14
20.516001 10.37 -1.351 8
24.18 12.204 -1.173 4
29.306999 14.777 -0.917 6
32.361 16.309999 -0.458 5
14.773 7.599 -1.553 10
16.853001 8.6450005 -1.476 13
19.615 10.041 -1.375 13
23.101999 11.808 -1.219 6
29.181999 14.899 -1.035 10
32.257999 16.459 -0.58700001 46
14.264 7.4310002 -1.564 9
16.216999 8.4250002 -1.493 12
18.841999 9.7679996 -1.404 16
22.065001 11.419 -1.2589999 7
27.021999 13.966 -1.072 4
31.936001 16.495001 -0.71499997 35
13.813 7.2870002 -1.5779999 8
15.679 8.2469997 -1.5140001 11
18.124001 9.5100002 -1.431 15
21.287001 11.151 -1.307 8
25.436001 13.306 -1.118 4
31.59 16.511 -0.84100002 24
13.368 7.1399999 -1.59 8
15.157 8.0699997 -1.533 10
17.42 9.2510004 -1.454 14
20.368 10.795 -1.341 8
24.138 12.776 -1.1670001 5
29.559 15.628 -0.91299999 6
12.963 7.007 -1.603 9
14.626 7.8800001 -1.5470001 10
16.712999 8.9809999 -1.471 13
19.514999 10.463 -1.373 17
23.006001 12.316 -1.214 6
27.916 14.927 -0.98400003 2
12.576 6.8759999 -1.6160001 9
14.126 7.6989999 -1.5599999 9
16.129999 8.7650003 -1.493 12
18.737 10.159 -1.403 16
22.017 11.916 -1.26 9
26.500999 14.325 -1.053 2
12.2 6.7470002 -1.627 9
13.642 7.5180001 -1.572 8
15.547 8.5430002 -1.512 11
17.976 9.8529997 -1.427 15
21.143999 11.567 -1.3049999 8
25.136 13.732 -1.109 4
11.851 6.6269999 -1.638 9
13.228 7.3699999 -1.5880001 8
15.05 8.3590002 -1.535 10
17.235001 9.5480003 -1.45 14
20.136999 11.133 -1.336 11
23.822001 13.149 -1.159 5
7.289 4.1199999 -1.043 22
8.3219995 4.6859999 -1.039 3
8.8470001 4.9640002 -0.94400001 33
16.575001 9.276 -1.471 13
19.313 10.784 -1.37 17
22.795 12.706 -1.212 6
7.0900002 4.0500002 -1.05 30
7.743 4.4039998 -1.005 41
8.5790005 4.8629999 -0.95700002 46
15.979 9.0310001 -1.493 12
18.504 10.434 -1.398 16
21.780001 12.258 -1.257 7
6.8639998 3.9590001 -1.051 29
7.5219998 4.3210001 -1.013 38
8.2840004 4.7410002 -0.96399999 34
9.3730001 5.349 -0.921 31
17.747 10.101 -1.423 15
20.892 11.869 -1.302 7
6.7249999 3.918 -1.064 25
7.3070002 4.2379999 -1.021 40
8.0240002 4.6370001 -0.97299999 41
9.0640001 5.2199998 -0.93400002 36
17.063 9.802 -1.45 14
19.896999 11.406 -1.334 14
6.5289998 3.8399999 -1.066 27
6.9829998 4.0879998 -1.01 35
7.7789998 4.5359998 -0.98199999 42
8.6680002 5.0380001 -0.935 46
10.089 5.8470001 -0.90499997 19
19.139999 11.069 -1.374 17
6.3010001 3.74 -1.062 27
6.7589998 3.993 -1.012 31
7.6110001 4.4780002 -0.99800003 35
8.3900003 4.9190001 -0.94599998 40
0 0 0 0
10.935 6.3769999 -0.83600003 1
6.2620001 3.75 -1.087 25
6.4840002 3.8640001 -1.0039999 36
7.217 4.2820001 -0.98299998 44
8.1560001 4.822 -0.95999998 37
9.2919998 5.4770002 -0.92299998 46
10.842 6.3740001 -0.88099998 18
6.2129998 3.753 -1.112 23
6.316 3.796 -1.011 35
7.0110002 4.1950002 -0.99000001 39
7.9219999 4.7220001 -0.97100002 38
8.9160004 5.2969999 -0.92900002 36
10.638 6.303 -0.91600001 36
6 3.654 -1.105 26
6.2389998 3.78 -1.03 33
6.8730001 4.145 -1.005 33
7.6939998 4.6209998 -0.98199999 40
8.5010004 5.0890002 -0.92799997 46
0 0 0 0
5.9460001 3.6500001 -1.126 24
6.027 3.6800001 -1.026 36
6.6069999 4.0149999 -0.99900001 30
7.5040002 4.5409999 -0.99400002 33
8.224 4.9590001 -0.93800002 34
9.5600004 5.7480001 -0.91399997 34
5.835 3.609 -1.136 24
5.9250002 3.6440001 -1.039 32
6.4699998 3.96 -1.011 33
7.2179999 4.3990002 -0.99299997 35
7.9559999 4.8299999 -0.94599998 43
8.9870005 5.4390001 -0.903 44
5.7789998 3.5999999 -1.155 26
5.8740001 3.6389999 -1.0599999 30
6.309 3.888 -1.018 30
6.987 4.2870002 -0.995 33
7.8530002 4.8000002 -0.972 34
8.7130003 5.3080001 -0.917 42
5.737 3.599 -1.177 26
5.7270002 3.572 -1.063 31
6.1170001 3.7950001 -1.018 32
6.723 4.152 -0.991 27
7.7340002 4.757 -0.995 39
8.2770004 5.0739999 -0.912 33
5.5910001 3.5309999 -1.177 24
5.585 3.506 -1.066 28
6.0139999 3.7550001 -1.0319999 35
6.5489998 4.0689998 -0.99900001 31
7.5279999 4.658 -1.006 33
8.1289997 5.013 -0.935 32
5.5040002 3.4990001 -1.188 23
5.5009999 3.4749999 -1.079 26
5.8610001 3.681 -1.035 34
6.4050002 4.0029998 -1.0089999 29
7.0830002 4.408 -0.98100001 39
7.8150001 4.8460002 -0.93699998 43
5.5489998 3.549 -1.227 22
5.4239998 3.4460001 -1.092 29
5.7880001 3.6559999 -1.052 30
6.2389998 3.921 -1.0140001 32
6.842 4.2800002 -0.98199999 31
7.6230001 4.7509999 -0.95099998 36
5.6110001 3.608 -1.27 22
5.2940001 3.382 -1.0930001 29
5.6929998 3.615 -1.063 28
6.1020002 3.8540001 -1.021 30
6.645 4.177 -0.98500001 31
7.3439999 4.599 -0.95099998 34
5.355 3.4619999 -1.24 29
5.3140001 3.4119999 -1.124 45
5.5110002 3.517 -1.057 27
6.0029998 3.8099999 -1.035 26
6.5159998 4.1149998 -0.99800003 30
7.0549998 4.4369998 -0.94800001 43
5.2140002 3.3870001 -1.234 27
5.3000002 3.4189999 -1.148 38
5.4250002 3.4779999 -1.068 27
5.8759999 3.7449999 -1.0420001 26
6.3509998 4.0289998 -1.0039999 30
6.9520001 4.3909998 -0.96700001 33
5.2659998 3.437 -1.274 23
5.1490002 3.336 -1.141 47
5.243 3.375 -1.058 37
5.7600002 3.687 -1.05 29
6.1939998 3.944 -1.0089999 29
6.8039999 4.3140001 -0.97899997 28
5.2579999 3.4460001 -1.299 24
5.0970001 3.316 -1.155 35
5.2150002 3.3699999 -1.0779999 31
5.6599998 3.6359999 -1.059 25
6.0819998 3.8870001 -1.02 31
6.6290002 4.217 -0.98500001 27
5.224 3.438 -1.317 24
5.0949998 3.3280001 -1.181 28
5.2049999 3.3759999 -1.101 26
5.5339999 3.5669999 -1.062 28
5.974 3.8310001 -1.03 27
6.4980001 4.1469998 -0.99599999 31
5.224 3.4489999 -1.344 22
5.1539998 3.3770001 -1.22 27
5.1799998 3.3710001 -1.1210001 26
5.3959999 3.4890001 -1.061 32
5.8540001 3.7639999 -1.0369999 30
6.3340001 4.053 -1 30
5.1680002 3.4230001 -1.355 24
5.21 3.424 -1.2589999 25
5.1599998 3.3670001 -1.142 28
5.2839999 3.4260001 -1.064 39
5.737 3.6989999 -1.043 31
6.243 4.0050001 -1.015 31
5.131 3.408 -1.3710001 26
5.237 3.451 -1.291 25
5.092 3.3310001 -1.151 28
5.1929998 3.375 -1.0700001 41
5.6830001 3.671 -1.0599999 28
6.1040001 3.9230001 -1.02 26
5.1290002 3.415 -1.395 23
5.2090001 3.4400001 -1.308 23
5.079 3.329 -1.1720001 27
5.171 3.3670001 -1.09 33
5.553 3.5940001 -1.061 29
5.9520001 3.832 -1.021 25
5.1279998 3.4219999 -1.42 23
5.1900001 3.434 -1.3279999 24
5.1230001 3.3640001 -1.206 26
5.1700001 3.372 -1.113 26
5.4169998 3.5109999 -1.059 31
5.8769999 3.7880001 -1.035 28
5.1230001 3.424 -1.443 24
5.1550002 3.4159999 -1.3430001 29
5.1880002 3.4119999 -1.245 26
5.165 3.372 -1.135 26
5.3070002 3.4430001 -1.062 29
5.7729998 3.7249999 -1.043 29
5.132 3.434 -1.469 23
5.1469998 3.415 -1.365 29
5.237 3.447 -1.28 24
5.1160002 3.3429999 -1.148 27
5.2179999 3.388 -1.067 31
5.698 3.678 -1.053 25
5.1609998 3.457 -1.501 23
5.1529999 3.421 -1.39 26
5.2179999 3.437 -1.299 28
5.0770001 3.319 -1.161 28
5.1900001 3.3710001 -1.0829999 29
5.6160002 3.6259999 -1.062 23
5.3460002 3.5829999 -1.579 28
5.1620002 3.4289999 -1.415 25
5.2220001 3.4400001 -1.323 26
5.1079998 3.3399999 -1.1900001 27
5.1939998 3.3729999 -1.1059999 25
5.4780002 3.536 -1.059 26
5.5100002 3.694 -1.652 25
5.1500001 3.4200001 -1.434 26
5.2319999 3.4460001 -1.348 25
5.1729999 3.382 -1.227 28
5.2010002 3.3759999 -1.13 26
5.3579998 3.457 -1.058 28
5.5219998 3.701 -1.679 17
5.1500001 3.4189999 -1.456 27
5.2309999 3.4430001 -1.369 28
5.2600002 3.4360001 -1.27 26
5.1469998 3.3380001 -1.1390001 38
5.2389998 3.3770001 -1.056 28
5.4660001 3.661 -1.6849999 8
5.2509999 3.484 -1.507 30
5.2449999 3.45 -1.395 28
5.3540001 3.493 -1.314 28
5.1479998 3.335 -1.16 37
5.2329998 3.368 -1.076 25
5.415 3.6229999 -1.692 7
5.4549999 3.615 -1.587 30
5.2080002 3.421 -1.406 27
5.3249998 3.47 -1.3279999 28
5.3039999 3.431 -1.216 36
5.2480001 3.3729999 -1.099 24
5.3520002 3.576 -1.694 6
5.6339998 3.7279999 -1.6619999 22
5.2709999 3.4560001 -1.444 26
5.335 3.47 -1.351 27
5.402 3.4879999 -1.2589999 29
5.3889999 3.4560001 -1.149 25
5.2950001 3.5309999 -1.697 5
5.6110001 3.7049999 -1.677 11
5.3870001 3.5250001 -1.4960001 30
5.414 3.513 -1.392 23
5.381 3.4660001 -1.274 27
5.5560002 3.5550001 -1.206 24
5.2719998 3.5079999 -1.709 5
5.5799999 3.6760001 -1.688 7
5.3860002 3.516 -1.515 31
5.4629998 3.536 -1.424 27
5.4050002 3.4719999 -1.3 30
5.5279999 3.526 -1.219 22
5.303 3.52 -1.739 2
5.5209999 3.628 -1.6900001 6
0 0 0 0
5.4679999 3.529 -1.4450001 27
5.4689999 3.5020001 -1.334 27
5.625 3.5769999 -1.261 23
5.3449998 3.5369999 -1.772 2
5.4749999 3.586 -1.696 6
5.8189998 3.7750001 -1.679 7
5.8540001 3.7650001 -1.567 35
5.5279999 3.5280001 -1.368 29
5.7719998 3.6570001 -1.314 27
5.3639998 3.5369999 -1.796 2
5.4650002 3.5669999 -1.712 5
5.7719998 3.7309999 -1.6849999 7
6.0380001 3.869 -1.637 19
5.5359998 3.5190001 -1.388 26
5.9439998 3.7509999 -1.373 27
5.3600001 3.5209999 -1.813 7
5.5240002 3.5910001 -1.748 2
5.7259998 3.6860001 -1.6900001 8
6.0869999 3.8840001 -1.67 7
6.0139999 3.8069999 -1.528 29
5.9489999 3.7379999 -1.393 26
5.309 3.473 -1.813 11
5.5749998 3.609 -1.7819999 2
5.691 3.648 -1.698 6
6.0440001 3.8399999 -1.677 7
6.1129999 3.852 -1.572 33
5.9320002 3.7090001 -1.408 22
5.2670002 3.4300001 -1.8150001 11
5.599 3.6070001 -1.807 4
5.7210002 3.6489999 -1.724 4
5.98 3.78 -1.678 7
6.2680001 3.9289999 -1.631 21
5.96 3.7079999 -1.432 24
5.217 3.3800001 -1.813 11
5.5430002 3.553 -1.8049999 10
5.796 3.678 -1.763 3
5.9429998 3.737 -1.6849999 5
6.362 3.967 -1.674 10
6.052 3.7449999 -1.471 22
5.1830001 3.3399999 -1.8150001 11
5.5149999 3.5150001 -1.811 12
5.8629999 3.6989999 -1.8 4
6.0120001 3.7590001 -1.721 5
6.2870002 3.8970001 -1.671 7
6.3210001 3.888 -1.5549999 29
5.1459999 3.2969999 -1.816 12
5.4640002 3.4619999 -1.809 11
5.8140001 3.6470001 -1.8 11
6.1199999 3.803 -1.768 2
6.2670002 3.8610001 -1.683 6
6.665 4.0739999 -1.6569999 12
5.1079998 3.2520001 -1.816 11
5.4260001 3.4170001 -1.8099999 11
5.7909999 3.609 -1.808 13
6.1729999 3.8110001 -1.799 7
6.3740001 3.901 -1.728 3
6.6170001 4.0170002 -1.6619999 7
5.0819998 3.214 -1.819 11
5.3870001 3.369 -1.8099999 11
5.7490001 3.559 -1.809 12
6.1269999 3.757 -1.801 12
6.5019999 3.9519999 -1.778 4
6.6360002 4.0009999 -1.683 6
5.046 3.1689999 -1.817 11
5.3540001 3.326 -1.811 12
5.71 3.5090001 -1.8099999 11
6.085 3.704 -1.802 12
6.5079999 3.927 -1.795 9
6.7950001 4.0669999 -1.739 3
5.0190001 3.1289999 -1.818 11
5.3239999 3.2820001 -1.812 12
5.6719999 3.46 -1.8099999 12
6.0489998 3.655 -1.8049999 12
6.4520001 3.8629999 -1.794 12
6.8920002 4.0929999 -1.78 6
4.9889998 3.0869999 -1.817 10
5.2909999 3.2360001 -1.811 13
5.6459999 3.4170001 -1.813 11
6.006 3.5999999 -1.804 12
6.4229999 3.8150001 -1.799 12
6.8499999 4.0349998 -1.783 12
4.9450002 3.0339999 -1.8099999 11
5.2750001 3.2 -1.816 13
5.6160002 3.3710001 -1.814 14
5.9759998 3.552 -1.806 12
6.375 3.7550001 -1.798 11
6.8179998 3.983 -1.788 12
4.9299998 3 -1.813 11
5.2420001 3.1530001 -1.814 12
5.592 3.3280001 -1.816 12
5.947 3.5039999 -1.808 12
6.3309999 3.6960001 -1.7970001 14
6.7820001 3.9260001 -1.791 12
4.901 2.9549999 -1.8099999 10
5.2150002 3.109 -1.813 12
5.5619998 3.2809999 -1.816 13
5.9219999 3.4579999 -1.811 11
6.3189998 3.6559999 -1.804 12
6.7379999 3.865 -1.791 11
4.8850002 2.918 -1.811 10
5.1760001 3.0569999 -1.807 10
5.527 3.2290001 -1.812 13
5.8940001 3.4089999 -1.811 12
6.2820001 3.5999999 -1.804 11
6.7119999 3.813 -1.795 11
4.8639998 2.878 -1.8099999 10
5.158 3.017 -1.807 10
5.4970002 3.1800001 -1.8099999 13
5.855 3.3529999 -1.807 12
6.2449999 3.5439999 -1.802 12
6.6719999 3.753 -1.794 12
4.855 2.8440001 -1.812 10
5.1329999 2.9719999 -1.8049999 10
5.4780002 3.1370001 -1.8099999 12
5.8260002 3.303 -1.806 13
6.204 3.484 -1.798 12
6.6430001 3.698 -1.795 13
4.8390002 2.8050001 -1.811 10
5.1199999 2.9330001 -1.806 10
5.4559999 3.092 -1.809 11
5.8000002 3.253 -1.804 12
6.178 3.4330001 -1.798 12
6.6090002 3.6400001 -1.794 13
4.8249998 2.767 -1.8099999 10
5.1059999 2.8940001 -1.8049999 10
5.4380002 3.049 -1.809 11
5.7849998 3.21 -1.806 11
6.152 3.381 -1.7970001 11
6.5549998 3.5710001 -1.7869999 12
4.8200002 2.734 -1.812 11
5.1069999 2.8629999 -1.8099999 10
5.4239998 3.007 -1.809 12
5.756 3.158 -1.802 11
6.1370001 3.335 -1.799 12
6.5240002 3.5139999 -1.785 11
4.8150001 2.7 -1.813 10
5.0910001 2.8210001 -1.808 12
5.4120002 2.9660001 -1.809 10
5.7529998 3.1199999 -1.806 12
6.119 3.2869999 -1.798 11
6.506 3.464 -1.786 11
4.8060002 2.6630001 -1.812 10
5.079 2.7809999 -1.806 11
5.3969998 2.9219999 -1.807 10
5.7360001 3.0739999 -1.804 11
6.099 3.237 -1.7970001 12
6.48 3.408 -1.784 12
4.7979999 2.6259999 -1.8099999 9
5.079 2.747 -1.808 11
5.3990002 2.888 -1.8099999 10
5.7160001 3.026 -1.8 12
6.0879998 3.191 -1.7970001 12
6.474 3.3629999 -1.786 11
4.8070002 2.598 -1.8150001 10
5.0669999 2.7060001 -1.806 11
5.3899999 2.8469999 -1.809 11
5.717 2.9879999 -1.803 11
6.073 3.1440001 -1.796 12
6.4629998 3.3150001 -1.7869999 12
4.8039999 2.563 -1.814 9
5.0700002 2.6730001 -1.808 11
5.3790002 2.8039999 -1.807 12
5.71 2.9460001 -1.803 10
6.0650001 3.098 -1.796 12
6.454 3.267 -1.7869999 12
4.8099999 2.5320001 -1.817 9
5.0710001 2.638 -1.808 9
5.3790002 2.767 -1.807 12
5.7069998 2.905 -1.803 10
6.0630002 3.056 -1.7970001 11
6.447 3.22 -1.7869999 11
4.8119998 2.4990001 -1.816 10
5.073 2.6029999 -1.808 10
5.3709998 2.7249999 -1.8049999 10
5.7080002 2.865 -1.804 10
6.0650001 3.0139999 -1.798 11
6.4429998 3.1730001 -1.7869999 12
4.8130002 2.464 -1.816 10
5.0689998 2.5650001 -1.806 11
5.375 2.6889999 -1.8049999 11
5.7090001 2.825 -1.804 11
6.0609999 2.97 -1.7970001 11
6.4369998 3.1259999 -1.785 12
4.8210001 2.4330001 -1.817 10
5.079 2.533 -1.808 10
5.3839998 2.655 -1.807 12
5.7030001 2.783 -1.801 10
6.0549998 2.925 -1.794 11
6.4349999 3.079 -1.785 12
4.8210001 2.398 -1.8150001 10
5.0770001 2.4949999 -1.8049999 11
5.3909998 2.619 -1.807 11
5.7119999 2.7460001 -1.802 11
6.0640001 2.8859999 -1.795 11
6.4330001 3.033 -1.783 11
4.8299999 2.3659999 -1.8150001 10
5.0879998 2.4630001 -1.806 10
5.395 2.5810001 -1.806 12
5.711 2.704 -1.799 10
6.0640001 2.842 -1.794 11
6.448 2.994 -1.786 11
4.8369999 2.3329999 -1.814 10
5.0939999 2.428 -1.8049999 11
5.4029999 2.546 -1.806 12
5.7150002 2.664 -1.798 11
6.073 2.803 -1.794 11
6.447 2.947 -1.783 11
4.8520002 2.3039999 -1.816 10
5.1040001 2.3940001 -1.8049999 11
5.4039998 2.506 -1.802 11
5.723 2.6259999 -1.7970001 11
6.079 2.7609999 -1.7920001 11
6.46 2.9059999 -1.783 11
4.8639998 2.2720001 -1.8150001 9
5.1129999 2.3599999 -1.803 11
5.415 2.471 -1.802 12
5.7360001 2.589 -1.796 11
6.0939999 2.723 -1.7920001 11
6.474 2.865 -1.783 11
4.8720002 2.2390001 -1.813 10
5.1259999 2.3269999 -1.803 11
5.4419999 2.4419999 -1.806 12
5.7509999 2.553 -1.796 10
6.105 2.6819999 -1.791 11
6.4889998 2.8239999 -1.783 11
4.888 2.2090001 -1.813 9
5.1409998 2.2950001 -1.802 11
5.448 2.404 -1.802 12
5.7690001 2.5179999 -1.796 11
6.1269999 2.6470001 -1.7920001 11
6.5040002 2.783 -1.781 11
4.901 2.177 -1.811 10
5.1599998 2.2639999 -1.803 11
5.461 2.368 -1.8 11
5.7909999 2.484 -1.7970001 11
6.1420002 2.608 -1.79 11
6.5279999 2.7449999 -1.7819999 11
4.9219999 2.148 -1.812 10
5.1729999 2.23 -1.801 11
5.48 2.335 -1.799 11
5.803 2.4460001 -1.794 11
6.1669998 2.573 -1.791 10
6.5500002 2.7049999 -1.781 11
4.941 2.1170001 -1.812 10
5.1900001 2.197 -1.799 10
5.5 2.302 -1.799 11
5.823 2.4100001 -1.793 10
6.1919999 2.536 -1.79 11
6.572 2.6659999 -1.779 11
4.96 2.0869999 -1.811 10
5.2129998 2.1670001 -1.799 11
5.52 2.2679999 -1.7970001 10
5.862 2.382 -1.7970001 10
6.217 2.5 -1.789 12
6.6100001 2.632 -1.781 12
4.9679999 2.0510001 -1.8049999 11
5.243 2.138 -1.801 10
5.5469999 2.2360001 -1.7970001 11
5.8800001 2.3440001 -1.794 10
6.2389998 2.4619999 -1.7869999 11
6.6259999 2.5880001 -1.777 11
5.0019999 2.026 -1.808 9
5.2750001 2.1099999 -1.802 9
5.5749998 2.204 -1.7970001 10
5.9120002 2.312 -1.794 10
6.2690001 2.4260001 -1.786 11
6.664 2.553 -1.777 12
5.027 1.997 -1.808 10
5.296 2.0780001 -1.8 10
5.612 2.1760001 -1.799 11
5.9439998 2.279 -1.794 10
6.3039999 2.392 -1.786 11
6.6989999 2.516 -1.776 11
5.052 1.967 -1.806 10
5.3299999 2.05 -1.801 9
5.638 2.1429999 -1.7970001 9
5.9770002 2.247 -1.793 11
6.3390002 2.3570001 -1.784 12
6.7360001 2.48 -1.775 11
5.085 1.9400001 -1.807 9
5.3579998 2.0190001 -1.8 10
5.6599998 2.108 -1.793 10
6.0110002 2.2130001 -1.7920001 10
6.3790002 2.3239999 -1.784 11
6.79 2.4489999 -1.777 11
5.1160002 1.9119999 -1.807 10
5.3829999 1.987 -1.796 9
5.697 2.0780001 -1.793 9
6.046 2.181 -1.79 11
6.4180002 2.29 -1.783 12
6.8330002 2.414 -1.776 11
5.1440001 1.882 -1.8049999 10
5.4180002 1.959 -1.7970001 10
5.7449999 2.052 -1.796 11
6.086 2.1489999 -1.789 10
6.4580002 2.257 -1.781 12
6.875 2.3770001 -1.773 12
5.1760001 1.854 -1.804 10
5.4559999 1.931 -1.796 11
5.783 2.0220001 -1.795 10
6.1360002 2.1210001 -1.791 11
6.507 2.2249999 -1.781 11
6.9289999 2.3440001 -1.773 11
5.2119999 1.827 -1.803 10
5.493 1.901 -1.795 10
5.8179998 1.99 -1.7920001 10
6.1789999 2.089 -1.789 11
6.5570002 2.1930001 -1.78 12
6.9780002 2.309 -1.77 12
5.2490001 1.799 -1.802 9
5.5320001 1.872 -1.794 11
5.8639998 1.961 -1.7920001 12
6.2199998 2.056 -1.786 11
6.6079998 2.161 -1.779 12
7.046 2.28 -1.772 12
5.29 1.773 -1.803 8
5.5710001 1.8430001 -1.7920001 10
5.9099998 1.932 -1.791 12
6.2740002 2.027 -1.786 12
6.664 2.1300001 -1.778 12
7.1079998 2.2479999 -1.771 12
5.3200002 1.742 -1.798 11
5.619 1.817 -1.7920001 11
5.9580002 1.903 -1.79 11
6.323 1.9960001 -1.784 12
6.7259998 2.0999999 -1.778 11
7.177 2.2179999 -1.77 12
5.3720002 1.7180001 -1.8 10
5.6729999 1.791 -1.794 10
6.0180001 1.878 -1.7920001 12
6.381 1.9680001 -1.784 12
6.789 2.0710001 -1.777 12
7.2410002 2.1849999 -1.768 12
5.4099998 1.6900001 -1.7970001 11
5.7160001 1.762 -1.791 10
6.0700002 1.849 -1.791 11
6.441 1.939 -1.783 12
6.8730001 2.046 -1.78 12
7.323 2.1559999 -1.7690001 12
5.4619999 1.665 -1.798 10
5.7670002 1.735 -1.79 10
6.1290002 1.822 -1.79 11
6.5029998 1.91 -1.7819999 12
6.9380002 2.0150001 -1.778 11
7.3959999 2.125 -1.767 11
5.5170002 1.64 -1.799 10
5.835 1.7130001 -1.794 10
6.191 1.795 -1.79 11
6.5689998 1.882 -1.781 11
7.0019999 1.984 -1.775 11
7.5 2.102 -1.771 12
5.5749998 1.617 -1.8 10
5.8860002 1.6849999 -1.791 10
6.2519999 1.767 -1.789 12
6.645 1.8559999 -1.7819999 12
7.0900002 1.9579999 -1.777 12
7.5760002 2.069 -1.767 11
5.625 1.589 -1.798 10
5.941 1.6569999 -1.789 11
6.3200002 1.7410001 -1.788 12
6.723 1.83 -1.7819999 11
7.1849999 1.933 -1.779 11
7.697 2.0480001 -1.773 11
5.6890001 1.566 -1.799 10
6.0029998 1.631 -1.788 10
6.3920002 1.715 -1.788 11
6.8060002 1.804 -1.783 11
7.2690001 1.904 -1.777 12
7.7789998 2.0150001 -1.768 12
5.7459998 1.54 -1.7970001 10
6.0739999 1.6059999 -1.789 10
6.4689999 1.689 -1.788 11
6.8940001 1.778 -1.783 11
7.3460002 1.873 -1.772 11
7.875 1.9859999 -1.765 12
5.8080001 1.5140001 -1.796 10
6.1459999 1.581 -1.788 10
6.5370002 1.661 -1.785 12
6.9780002 1.751 -1.7819999 10
7.4520001 1.848 -1.774 11
7.9720001 1.955 -1.761 13
5.8800001 1.4910001 -1.798 9
6.2329998 1.5599999 -1.7920001 10
6.632 1.638 -1.788 12
7.072 1.725 -1.7819999 11
7.5630002 1.823 -1.774 12
8.085 1.927 -1.7589999 14
5.9499998 1.466 -1.7970001 10
6.3099999 1.534 -1.791 12
6.711 1.6109999 -1.785 12
7.1659999 1.699 -1.78 11
7.6630001 1.795 -1.771 13
8.217 1.903 -1.76 13
6.0229998 1.442 -1.796 11
6.3860002 1.508 -1.789 11
6.7989998 1.586 -1.784 12
7.2659998 1.673 -1.779 12
7.7849998 1.771 -1.772 14
8.349 1.878 -1.7589999 12
6.0910001 1.416 -1.794 11
6.4590001 1.482 -1.786 11
6.8930001 1.561 -1.784 12
7.3610001 1.646 -1.776 11
7.9089999 1.747 -1.772 11
8.4919996 1.853 -1.7589999 12
6.177 1.3940001 -1.795 10
6.5549998 1.459 -1.7869999 11
6.9959998 1.5369999 -1.784 11
7.494 1.625 -1.78 10
8.033 1.721 -1.771 12
8.6350002 1.8279999 -1.757 13
6.2639999 1.37 -1.795 11
6.6399999 1.433 -1.784 12
7.0910001 1.51 -1.78 12
7.5970001 1.597 -1.776 13
8.1680002 1.696 -1.7690001 12
8.776 1.8 -1.753 13
6.3470001 1.346 -1.793 11
6.7309999 1.4069999 -1.781 11
7.2129998 1.488 -1.7819999 12
7.7270002 1.573 -1.776 13
8.2889996 1.6670001 -1.7640001 13
8.9099998 1.77 -1.7460001 12
6.4310002 1.3200001 -1.79 11
6.8400002 1.385 -1.783 12
7.3239999 1.4630001 -1.781 11
7.8720002 1.552 -1.778 13
8.4280005 1.641 -1.76 12
9.0740004 1.745 -1.743 12
6.5370002 1.299 -1.793 11
6.948 1.3609999 -1.7819999 11
7.4390001 1.438 -1.778 12
7.994 1.525 -1.774 12
8.5909996 1.618 -1.76 13
9.2440004 1.719 -1.739 12
6.6279998 1.274 -1.789 11
7.0599999 1.3380001 -1.7819999 11
7.572 1.415 -1.779 12
8.1300001 1.499 -1.77 13
8.7419996 1.591 -1.756 13
9.4300003 1.6950001 -1.7359999 11
6.7280002 1.25 -1.7869999 11
7.1810002 1.3150001 -1.781 10
7.71 1.392 -1.779 11
8.2810001 1.475 -1.7690001 12
8.9130001 1.567 -1.753 12
9.6239996 1.671 -1.732 13
6.835 1.226 -1.786 12
7.329 1.296 -1.786 10
7.8530002 1.369 -1.778 11
8.4250002 1.449 -1.7640001 12
9.0819998 1.541 -1.748 12
9.8170004 1.6440001 -1.726 13
6.9559999 1.204 -1.786 12
7.4349999 1.268 -1.779 11
7.993 1.344 -1.775 11
8.585 1.424 -1.76 11
9.2440004 1.513 -1.74 12
10.038 1.6210001 -1.722 12
7.0640001 1.179 -1.7819999 12
7.573 1.245 -1.779 10
8.1400003 1.319 -1.771 12
8.7550001 1.399 -1.756 12
9.4499998 1.489 -1.737 11
10.264 1.596 -1.716 12
7.2010002 1.1569999 -1.783 11
7.7189999 1.222 -1.777 11
8.2939997 1.294 -1.767 12
8.9440002 1.376 -1.7539999 12
9.6759996 1.4680001 -1.7359999 12
10.51 1.573 -1.711 13
7.3709998 1.14 -1.791 10
7.8540001 1.197 -1.773 10
8.4469995 1.268 -1.761 11
9.1370001 1.352 -1.751 12
9.8850002 1.442 -1.728 12
10.771 1.55 -1.705 13
7.5079999 1.1160001 -1.789 10
8.0139999 1.174 -1.771 10
8.6450005 1.247 -1.763 11
9.323 1.325 -1.743 13
10.116 1.418 -1.723 12
11.042 1.526 -1.697 13
7.645 1.092 -1.785 10
8.1829996 1.151 -1.7690001 11
8.8290005 1.223 -1.758 12
9.533 1.301 -1.738 12
10.371 1.3940001 -1.717 12
11.323 1.501 -1.688 13
7.7820001 1.066 -1.779 10
8.3470001 1.125 -1.7640001 11
9.026 1.198 -1.7539999 12
9.776 1.279 -1.735 12
10.647 1.372 -1.712 12
11.666 1.4809999 -1.684 13
7.9569998 1.044 -1.78 11
8.5450001 1.103 -1.7640001 11
9.2290001 1.173 -1.748 11
10.014 1.253 -1.729 13
10.934 1.348 -1.706 13
12.014 1.46 -1.676 12
8.1260004 1.021 -1.777 11
8.7329998 1.079 -1.76 12
9.4499998 1.15 -1.744 12
10.274 1.23 -1.724 13
11.234 1.325 -1.698 13
12.366 1.436 -1.665 12
8.2869997 0.995 -1.77 11
8.9320002 1.0549999 -1.755 12
9.691 1.126 -1.74 12
10.551 1.207 -1.7180001 12
11.566 1.302 -1.691 13
12.769 1.416 -1.6569999 12
8.4799995 0.972 -1.768 11
9.151 1.031 -1.751 12
9.9350004 1.101 -1.733 12
10.833 1.181 -1.709 13
11.908 1.278 -1.681 12
13.218 1.397 -1.649 12
8.6859999 0.949 -1.766 12
9.3739996 1.007 -1.7460001 12
10.187 1.076 -1.726 13
11.16 1.159 -1.704 13
12.284 1.256 -1.6720001 14
13.678 1.376 -1.637 12
8.8879995 0.92400002 -1.76 11
9.6169996 0.98299998 -1.7410001 11
10.476 1.053 -1.72 12
11.496 1.136 -1.696 13
12.69 1.233 -1.6619999 12
14.182 1.3559999 -1.625 13
9.1169996 0.90100002 -1.758 13
9.8710003 0.95899999 -1.7359999 11
10.776 1.028 -1.714 13
11.848 1.1109999 -1.686 13
13.14 1.211 -1.652 12
14.725 1.335 -1.61 13
9.3520002 0.87699997 -1.753 12
10.138 0.93400002 -1.729 13
11.097 1.0039999 -1.706 13
12.214 1.086 -1.674 12
13.622 1.1900001 -1.642 13
15.354 1.319 -1.599 12
9.599 0.85299999 -1.748 12
10.421 0.90899998 -1.722 12
11.441 0.98000002 -1.698 13
12.635 1.063 -1.665 12
14.149 1.169 -1.631 12
16.013 1.301 -1.584 11
9.8579998 0.82800001 -1.742 13
10.717 0.88300002 -1.712 13
11.81 0.95499998 -1.689 12
13.099 1.04 -1.656 12
14.712 1.147 -1.617 12
16.725 1.281 -1.564 10
10.128 0.80199999 -1.734 12
11.051 0.85900003 -1.706 13
12.21 0.93099999 -1.6799999 12
13.604 1.017 -1.646 13
15.348 1.127 -1.604 11
17.511999 1.262 -1.543 11
10.433 0.77700001 -1.728 12
11.414 0.83399999 -1.699 12
12.639 0.90600002 -1.67 13
14.14 0.99400002 -1.633 13
16.006001 1.104 -1.585 12
18.601999 1.258 -1.536 12
10.735 0.75099999 -1.7180001 12
11.794 0.80800003 -1.689 12
13.105 0.88 -1.658 12
14.739 0.97000003 -1.62 12
16.811001 1.085 -1.5700001 10
19.607 1.2410001 -1.511 13
11.089 0.72600001 -1.7130001 12
12.212 0.78299999 -1.681 12
13.619 0.85500002 -1.647 13
15.371 0.94499999 -1.603 11
17.634001 1.062 -1.548 11
21.004999 1.24 -1.499 15
11.456 0.699 -1.7029999 12
12.661 0.75599998 -1.669 12
14.206 0.83099997 -1.636 12
16.104 0.92199999 -1.5880001 11
18.795 1.053 -1.543 13
22.594999 1.24 -1.484 13
11.858 0.67299998 -1.694 11
13.122 0.72799999 -1.655 12
14.808 0.80400002 -1.62 12
16.921 0.898 -1.571 10
19.872999 1.0319999 -1.517 14
24.551001 1.248 -1.472 22
12.29 0.64600003 -1.684 12
13.685 0.70200002 -1.645 12
15.514 0.778 -1.607 11
17.757 0.87 -1.545 11
21.346001 1.023 -1.506 16
26.333 1.234 -1.425 25
12.742 0.61699998 -1.6720001 12
14.265 0.67500001 -1.633 13
16.243 0.75 -1.5880001 11
19.007999 0.85699999 -1.544 13
22.9 1.0089999 -1.483 11
26.934 1.159 -1.301 21
13.259 0.58999997 -1.661 13
14.893 0.64600003 -1.617 11
17.077999 0.72299999 -1.5700001 10
20.190001 0.833 -1.52 14
24.757999 0.99599999 -1.455 23
29.761 1.168 -1.26 33
13.809 0.56 -1.648 13
15.631 0.61799997 -1.603 11
18.033001 0.69400001 -1.549 11
21.733999 0.815 -1.507 17
26.528 0.97000003 -1.402 23
30.691999 1.0930001 -1.1160001 36
14.438 0.53100002 -1.636 12
16.417 0.58700001 -1.585 10
19.256001 0.67000002 -1.539 13
23.663 0.80199999 -1.499 19
28.23 0.93099999 -1.322 23
32.543999 1.044 -0.98799998 42
15.111 0.5 -1.6210001 11
17.271999 0.55500001 -1.564 11
20.591 0.64300001 -1.522 15
25.268999 0.76700002 -1.448 23
30.114 0.88700002 -1.227 46
33.574001 0.96100003 -0.81400001 41
15.857 0.46799999 -1.603 10
18.33 0.52399999 -1.5470001 12
22.177 0.61500001 -1.502 14
26.552999 0.71399999 -1.358 22
31.165001 0.81300002 -1.079 37
30.509001 0.77100003 -0.55299997 3
16.698 0.435 -1.586 10
19.59 0.493 -1.533 14
24.349001 0.59299999 -1.499 22
29.205 0.68800002 -1.313 33
30.548 0.69599998 -0.86799997 26
37.026001 0.815 -0.44 53
17.618999 0.39899999 -1.564 11
20.981001 0.458 -1.512 15
26.169001 0.55199999 -1.45 25
30.264 0.616 -1.175 53
35.380001 0.69400001 -0.78600001 46
33.534 0.634 -0.191 2
18.924999 0.36700001 -1.563 12
22.718 0.42300001 -1.495 13
26.582001 0.47600001 -1.308 18
31.283001 0.53899997 -1.0190001 40
37.169998 0.61400002 -0.59200001 50
33.431999 0.52999997 0.02 9
20.118 0.32600001 -1.535 14
24.684 0.384 -1.471 21
29.743 0.442 -1.277 43
30.700001 0.43599999 -0.80800003 2
37.318001 0.50700003 -0.361 50
32.314999 0.419 0.222 56
21.722 0.28600001 -1.521 16
26.353001 0.33000001 -1.405 25
26.98 0.322 -0.98900002 0
36.23 0.41 -0.72399998 49
37.570999 0.40200001 -0.124 18
32.342999 0.32800001 0.43000001 38
23.965 0.245 -1.526 21
26.740999 0.257 -1.255 49
30.407 0.27500001 -0.91900003 33
37.269001 0.31600001 -0.505 39
33.352001 0.264 0.104 42
32.307999 0.23800001 0.64099997 37
25.513 0.18700001 -1.4579999 27
26.870001 0.183 -1.087 52
30.681 0.192 -0.727 1
37.331001 0.214 -0.26100001 6
32.859001 0.17200001 0.317 44
34.439999 0.164 0.90600002 4
26.464001 0.122 -1.342 38
27.152 0.111 -0.92199999 23
38.053001 0.138 -0.65799999 57
33.445999 0.105 -0.017999999 1
32.291 0.086999997 0.52200001 17
34.514 0.078000002 1.1339999 1
26.719 0.052999999 -1.183 46
31.087999 0.046999998 -0.85500002 6
39.291 0.041999999 -0.42300001 35
33.703999 0.022 0.20100001 16
32.487 0.0080000004 0.73799998 33
73.968002 -0.011 2.9219999 12
26.990999 -0.015 -1.017 59
30.834 -0.028999999 -0.64499998 1
33.071999 -0.044 -0.139 4
33.785 -0.057999998 0.42399999 6
33.627998 -0.07 0.98699999 4
26.924999 -0.064999998 1.2410001 33
26.921 -0.079000004 -0.84100002 78
26.978001 -0.089000002 -0.38800001 4
63.763 -0.233 0.15099999 9
34.113998 -0.13500001 0.65200001 4
26.912001 -0.115 0.96700001 37
26.860001 -0.124 1.418 41
26.895 -0.141 -0.66100001 92
26.941 -0.15099999 -0.208 80
26.983999 -0.15899999 0.244 25
26.950001 -0.16599999 0.69599998 37
26.856001 -0.17299999 1.146 46
26.849001 -0.17900001 1.598 55
26.875999 -0.20100001 -0.48300001 99
26.923 -0.208 -0.032000002 54
26.915001 -0.214 0.41999999 47
26.872 -0.22 0.87300003 45
26.886 -0.227 1.327 47
26.895 -0.233 1.783 23
26.874001 -0.257 -0.30399999 109
26.891001 -0.26300001 0.149 56
26.889 -0.26800001 0.60100001 48
26.878 -0.273 1.0549999 44
26.952999 -0.27900001 1.513 2
74.543999 -0.78399998 5.4520001 10
26.871 -0.31 -0.124 89
26.875 -0.31400001 0.32699999 57
26.875999 -0.31799999 0.78100002 49
26.891001 -0.32300001 1.238 4
61.708 -0.75 3.8889999 29
74.976997 -0.92000002 5.9980001 22
26.899 -0.361 0.055 54
26.879 -0.36399999 0.509 56
26.902 -0.36700001 0.96399999 44
61.866001 -0.85000002 3.267 45
74.931999 -1.036 5.2319999 18
72.331001 -1.007 6.289 12
26.941 -0.40900001 0.23800001 44
26.936001 -0.41100001 0.69300002 48
26.881001 -0.41100001 1.146 3
61.771999 -0.949 3.684 9
75.289001 -1.16 5.7750001 32
74.973 -1.1569999 7.0349998 18
26.938 -0.45300001 0.41999999 1
26.969 -0.45500001 0.87800002 25
61.820999 -1.044 3.0639999 46
75.228996 -1.271 5.0110002 9
72.625999 -1.226 6.0770001 15
63.390999 -1.069 6.3930001 3
42.401001 -0.77999997 0.95200002 3
26.934999 -0.49399999 1.061 1
73.470001 -1.347 4.1459999 24
74.802002 -1.367 5.4959998 23
74.823997 -1.364 6.7810001 20
58.162998 -1.057 6.2740002 29
87.226997 -1.729 2.5550001 19
61.794998 -1.22 2.8599999 24
75.360001 -1.482 4.7719998 13
63.438999 -1.243 5.1069999 8
63.306 -1.234 6.1859999 32
47.294998 -0.91600001 5.4369998 27
77.578003 -1.641 2.8039999 13
72.799004 -1.531 3.8699999 34
63.355999 -1.324 4.4510002 5
63.389 -1.314 5.539 32
48.470001 -0.99900001 5.0739999 10
46.999001 -0.96100003 5.7340002 19
61.810001 -1.381 2.6600001 20
77.129997 -1.711 4.6339998 22
63.365002 -1.3940001 4.8920002 63
61.287998 -1.336 5.7839999 11
47.742001 -1.0319999 5.3330002 46
46.931999 -1.0039999 6.0570002 28
72.945 -1.711 3.642 20
63.286999 -1.47 4.2410002 3
63.342999 -1.457 5.3319998 52
48.555 -1.105 4.9260001 5
47.030998 -1.059 5.586 27
47.02 -1.0470001 6.4070001 30
73.987999 -1.807 4.2030001 26
63.327 -1.53 4.6820002 63
61.251999 -1.4630001 5.5830002 52
48.411999 -1.142 5.2490001 66
46.785999 -1.091 5.888 36
47.191002 -1.086 6.7690001 61
63.282001 -1.601 4.0339999 3
63.387001 -1.584 5.1279998 4
61.167999 -1.5089999 6.0019999 24
47.298 -1.151 5.4629998 43
46.82 -1.123 6.2270002 59
47.548 -1.124 7.1589999 50
61.141998 -1.5930001 4.3210001 16
61.338001 -1.577 5.3920002 35
48.549999 -1.23 5.1059999 26
46.726002 -1.166 5.7270002 49
46.723999 -1.148 6.5489998 64
47.823002 -1.156 7.5469999 52
61.421001 -1.641 4.7690001 5
61.125999 -1.608 5.8000002 47
48.120998 -1.2460001 5.3990002 20
46.733002 -1.1900001 6.0609999 47
47.202999 -1.181 6.9510002 41
47.877998 -1.178 7.9060001 67
61.341999 -1.673 5.1929998 41
60.282001 -1.6160001 6.1440001 20
46.717999 -1.2309999 5.573 48
46.779999 -1.21 6.401 57
47.952 -1.217 7.408 53
47.865002 -1.191 8.2480001 59
61.174 -1.694 5.605 7
48.557999 -1.3200001 5.29 10
46.737 -1.2460001 5.908 24
46.769001 -1.223 6.7379999 80
47.798 -1.225 7.7350001 64
48.071999 -1.206 8.6379995 40
60.106998 -1.683 5.9320002 12
47.855999 -1.314 5.5539999 16
46.748001 -1.257 6.2449999 36
47.699001 -1.256 7.217 66
47.824001 -1.232 8.0869999 58
26.674999 -0.671 4.9910002 2
48.551998 -1.37 5.1329999 7
46.612999 -1.288 5.7410002 23
46.560001 -1.258 6.553 58
48.042 -1.268 7.6139998 75
48.070999 -1.238 8.4790001 60
0 0 0 0
48.632999 -1.377 5.487 25
47.000999 -1.301 6.1220002 23
47.352001 -1.28 7.0029998 72
47.821999 -1.26 7.9250002 65
48.144001 -1.2359999 8.8439999 6
0 0 0 0
46.66 -1.3200001 5.5939999 28
46.535 -1.284 6.3930001 48
47.828999 -1.2869999 7.4200001 83
48.000999 -1.257 8.3050003 75
0 0 0 0
26.91 -0.66500002 5.6329999 11
46.877998 -1.321 5.9520001 21
47.02 -1.29 6.7969999 80
47.856998 -1.276 7.7690001 72
48.077999 -1.2460001 8.6700001 32
0 0 0 0
26.978001 -0.65700001 5.848 18
46.393002 -1.2970001 6.2189999 33
47.507999 -1.29 7.2069998 69
47.908001 -1.262 8.1219997 69
0 0 0 0
0 0 0 0
26.907 -0.64200002 6.0310001 40
46.710999 -1.289 6.5910001 72
47.955002 -1.284 7.618 61
48.082001 -1.2460001 8.4989996 62
0 0 0 0
26.913 -0.64999998 5.737 22
26.839001 -0.62400001 6.2189999 37
47.356998 -1.285 7.0229998 54
47.813999 -1.256 7.9400001 67
26.660999 -0.676 4.9060001 0
0 0 0 0
26.906 -0.63200003 5.9359999 37
26.139 -0.58899999 6.2529998 47
47.862 -1.272 7.4380002 81
47.900002 -1.228 8.2980003 69
0 0 0 0
26.726 -0.634 5.598 26
27.040001 -0.61500001 6.164 41
23.993 -0.52100003 5.9190001 0
47.896999 -1.24 7.7810001 70
26.674 -0.66399997 4.809 0
0 0 0 0
26.872 -0.61500001 5.8260002 48
26.409 -0.57700002 6.2160001 45
23.915001 -0.49700001 6.0799999 9
47.816002 -1.201 8.1059999 58
26.723 -0.64300001 5.0110002 15
26.424 -0.60799998 5.4349999 12
26.796 -0.588 6.0040002 41
26.223 -0.54699999 6.3660002 41
23.837999 -0.47099999 6.2389998 50
48.082001 -1.164 8.493 65
0 0 0 0
26.643 -0.58700001 5.6729999 45
26.860001 -0.56199998 6.2179999 27
23.968 -0.47400001 5.9990001 20
24.344999 -0.45300001 6.5560002 40
26.695 -0.61900002 4.9050002 18
0 0 0 0
26.778 -0.56 5.8969998 46
26.118 -0.51599997 6.2389998 40
23.878 -0.44299999 6.1539998 28
25.066 -0.43399999 6.9419999 41
26.635 -0.588 5.0840001 13
26.514 -0.55400002 5.5440001 39
26.681 -0.52600002 6.0689998 28
24.027 -0.44400001 5.9159999 2
23.874001 -0.412 6.3330002 29
25.061001 -0.40000001 7.132 48
0 0 0 0
26.628 -0.52399999 5.757 60
26.257999 -0.48300001 6.164 36
23.955999 -0.41 6.0749998 48
24.302999 -0.384 6.6269999 30
24.816 -0.359 7.2490001 27
26.448 -0.51700002 5.4229999 16
26.753 -0.48800001 5.9759998 46
25.962 -0.44 6.2839999 40
23.899 -0.373 6.2350001 55
25.261 -0.361 7.0780001 48
24.504999 -0.31600001 7.3439999 48
26.589001 -0.48199999 5.6409998 64
26.311001 -0.442 6.0669999 39
24.025 -0.37 5.9889998 20
23.841 -0.33500001 6.3959999 49
25.129 -0.317 7.2280002 50
24.556999 -0.27399999 7.546 43
26.694 -0.442 5.8530002 57
26.087999 -0.39700001 6.2020001 45
23.815001 -0.32800001 6.1100001 72
24.697001 -0.30500001 6.809 52
24.716999 -0.26800001 7.296 46
24.451 -0.228 7.7020001 35
26.711 -0.398 6.0469999 42
23.962 -0.32300001 5.8709998 19
23.841 -0.28600001 6.2919998 53
25.195999 -0.26499999 7.1329999 60
24.545 -0.221 7.4289999 44
24.261999 -0.18000001 7.8270001 37
26.295 -0.34599999 6.1360002 33
23.929001 -0.28 6.0320001 39
24.142 -0.245 6.5450001 25
25.09 -0.21699999 7.289 39
24.518 -0.17200001 7.6059999 43
24.163 -0.131 7.98 48
26.212 -0.296 6.303 27
23.837999 -0.233 6.1799998 68
25.271 -0.207 7.0349998 48
24.659 -0.163 7.3439999 41
24.280001 -0.12 7.7129998 53
24.158001 -0.078000002 8.1630001 39
23.917999 -0.223 5.9190001 43
23.780001 -0.185 6.3330002 44
25.32 -0.156 7.2309999 51
24.406 -0.11 7.448 53
24.291 -0.068000004 7.8979998 48
24.482 -0.026000001 8.4580002 31
23.982 -0.175 6.1030002 52
24.079 -0.13600001 6.585 24
25.025999 -0.1 7.3270001 29
24.358 -0.055 7.6110001 42
24.261999 -0.012 8.0690002 43
24.535999 0.030999999 8.6630001 37
23.940001 -0.123 6.2600002 66
24.546 -0.083999999 6.8870001 42
24.892 -0.043000001 7.4679999 42
24.333 0.001 7.7839999 38
24.527 0.045000002 8.3409996 27
24.976999 0.093999997 9.0100002 41
23.858999 -0.068000004 6.4050002 50
25.089001 -0.028000001 7.217 29
24.916 0.016000001 7.6539998 44
24.207001 0.059999999 7.9200001 45
24.816 0.108 8.6239996 36
0 0 0 0
24.672001 -0.011 6.7950001 32
25.167999 0.032000002 7.4190001 52
24.562 0.077 7.723 50
0 0 0 0
25.028999 0.175 8.8859997 30
25.632999 0.23100001 9.6389999 23
24.323 0.048999999 6.869 22
25.173 0.096000001 7.5970001 46
24.504999 0.14 7.8800001 45
25.391001 0.19499999 8.6800003 29
25.174999 0.244 9.1269999 27
25.666 0.30199999 9.8459997 10
25.673 0.118 7.4299998 38
24.916 0.161 7.6960001 57
24.385 0.206 8.0179996 24
25.099001 0.26199999 8.7620001 49
25.618 0.31999999 9.4779997 47
0 0 0 0
25.24 0.183 7.4790001 36
24.427999 0.22400001 7.7160001 57
25.256001 0.28299999 8.4840002 24
24.802999 0.329 8.8400002 36
25.76 0.398 9.7220001 47
0 0 0 0
25.289 0.25299999 7.6669998 35
24.531 0.29499999 7.921 57
24.837 0.34900001 8.5200005 24
24.971001 0.405 9.0819998 39
25.659 0.472 9.8730001 21
0 0 0 0
25.077999 0.322 7.7719998 27
25.006001 0.373 8.2469997 31
24.9 0.42399999 8.7159996 52
25.610001 0.49200001 9.4969997 44
0 0 0 0
0 0 0 0
24.591 0.389 7.79 63
24.659 0.44299999 8.3039999 11
24.646999 0.49700001 8.8039999 50
25.759001 0.57700002 9.7390003 50
0 0 0 0
0 0 0 0
24.658001 0.465 7.9770002 47
24.903 0.52399999 8.5559998 26
25.045 0.583 9.1199999 39
25.695999 0.65700001 9.8990002 19
0 0 0 0
0 0 0 0
24.959999 0.54900002 8.2440004 26
24.565001 0.59500003 8.6090002 56
25.865 0.68699998 9.6000004 25
0 0 0 0
0 0 0 0
0 0 0 0
24.905001 0.62900001 8.3920002 39
24.517 0.67500001 8.7609997 42
25.709999 0.76899999 9.724 25
0 0 0 0
0 0 0 0
0 0 0 0
24.724001 0.708 8.4969997 47
24.386 0.755 8.8809996 24
25.705 0.85699999 9.8999996 1
0 0 0 0
0 0 0 0
0 0 0 0
24.667999 0.79000002 8.6409998 49
24.92 0.85799998 9.243 17
0 0 0 0
0 0 0 0
0 0 0 0
0 0 0 0
24.489 0.87099999 8.7410002 28
0 0 0 0
0 0 0 0
0 0 0 0
0 0 0 0
0 0 0 0
25.062 0.98199999 9.1099997 42
0 0 0 0
0 0 0 0
0 0 0 0
0 0 0 0
0 0 0 0
25.011 1.071 9.2539997 21
0 0 0 0
0 0 0 0
0 0 0 0
0 0 0 0
0 0 0 0
25.014 1.166 9.415 1
0 0 0 0
0 0 0 0
0 0 0 0
0 0 0 0
0 0 0 0
24.806999 1.251 9.4940004 0
0 0 0 0
0 0 0 0
0 0 0 0
0 0 0 0
0 0 0 0
0 0 0 0
0 0 0 0
0 0 0 0
0 0 0 0
0 0 0 0
0 0 0 0
24.792 1.447 9.8000002 10
0 0 0 0
0 0 0 0
0 0 0 0
0 0 0 0
0 0 0 0
0 0 0 0
0 0 0 0
0 0 0 0
0 0 0 0
0 0 0 0
0 0 0 0
0 0 0 0
0 0 0 0
0 0 0 0
0 0 0 0
0 0 0 0
0 0 0 0
0 0 0 0
0 0 0 0
0 0 0 0
0 0 0 0
0 0 0 0
0 0 0 0
0 0 0 0
0 0 0 0
0 0 0 0
0 0 0 0
0 0 0 0
0 0 0 0
0 0 0 0
0 0 0 0
0 0 0 0
0 0 0 0
0 0 0 0
0 0 0 0
0 0 0 0
0 0 0 0
0 0 0 0
0 0 0 0
0 0 0 0
0 0 0 0
0 0 0 0
0 0 0 0
0 0 0 0
0 0 0 0
0 0 0 0
0 0 0 0
0 0 0 0
0 0 0 0
0 0 0 0
0 0 0 0
0 0 0 0
0 0 0 0
0 0 0 0
0 0 0 0
0 0 0 0
0 0 0 0
0 0 0 0
0 0 0 0
0 0 0 0
0 0 0 0
0 0 0 0
0 0 0 0
0 0 0 0
0 0 0 0
0 0 0 0
0 0 0 0
0 0 0 0
0 0 0 0
0 0 0 0
0 0 0 0
0 0 0 0
0 0 0 0
0 0 0 0
0 0 0 0
0 0 0 0
0 0 0 0
0 0 0 0
0 0 0 0
0 0 0 0
0 0 0 0
0 0 0 0
0 0 0 0
0 0 0 0
0 0 0 0
