# .PCD v0.7 - Point Cloud Data file format
VERSION 0.7
FIELDS x y z intensity
SIZE 4 4 4 4
TYPE F F F F
COUNT 1 1 1 1
WIDTH 1784
HEIGHT 1
VIEWPOINT 0 0 0 1 0 0 0
POINTS 1784
DATA ascii
4.836 -0.44299999 -1.845 10
3.786 -0.336 -1.863 8
3.9779999 -0.35699999 -1.858 9
4.2030001 -0.38 -1.8609999 13
4.4200001 -0.40400001 -1.853 11
4.6599998 -0.43000001 -1.847 11
4.9299998 -0.45899999 -1.845 10
3.848 -0.34799999 -1.8609999 9
4.0510001 -0.36899999 -1.859 10
4.2620001 -0.39199999 -1.854 12
4.507 -0.419 -1.855 10
4.7449999 -0.44499999 -1.845 9
5.027 -0.47600001 -1.844 11
3.9219999 -0.36000001 -1.865 8
4.125 -0.382 -1.86 10
4.3530002 -0.40700001 -1.859 10
4.5879998 -0.433 -1.853 10
4.8429999 -0.461 -1.848 10
5.1259999 -0.49200001 -1.844 11
3.983 -0.37099999 -1.8609999 9
4.1960001 -0.39500001 -1.858 12
4.4260001 -0.41999999 -1.855 10
4.665 -0.44600001 -1.849 11
4.9320002 -0.47600001 -1.845 11
5.23 -0.509 -1.8430001 12
4.0539999 -0.38299999 -1.86 10
4.2740002 -0.40700001 -1.858 11
4.5149999 -0.43399999 -1.857 10
4.757 -0.461 -1.849 11
5.0370002 -0.49200001 -1.846 11
5.336 -0.52600002 -1.841 11
4.1240001 -0.39500001 -1.858 10
4.3600001 -0.421 -1.86 10
4.605 -0.44800001 -1.857 11
4.8509998 -0.47600001 -1.847 10
5.1399999 -0.50800002 -1.845 12
5.4429998 -0.542 -1.8380001 12
4.21 -0.40799999 -1.8609999 10
4.4429998 -0.43399999 -1.859 11
4.6789999 -0.46000001 -1.851 11
4.948 -0.49000001 -1.847 10
5.25 -0.52399999 -1.845 12
5.5560002 -0.55900002 -1.835 13
4.2880001 -0.41999999 -1.86 10
4.5250001 -0.44600001 -1.857 11
4.7779999 -0.47400001 -1.852 12
5.0599999 -0.50599998 -1.85 11
5.3520002 -0.53899997 -1.841 12
5.6810002 -0.57599998 -1.834 12
4.3709998 -0.43200001 -1.86 10
4.6129999 -0.45899999 -1.8559999 11
4.8759999 -0.48800001 -1.852 11
5.1620002 -0.52100003 -1.847 12
5.4699998 -0.55599999 -1.84 12
5.8109999 -0.59399998 -1.8329999 13
4.454 -0.44400001 -1.858 10
4.698 -0.47099999 -1.852 11
4.974 -0.50199997 -1.849 11
5.2709999 -0.53500003 -1.845 12
5.5890002 -0.57200003 -1.8380001 12
5.9200001 -0.60900003 -1.824 12
4.546 -0.456 -1.859 10
4.7909999 -0.484 -1.85 10
5.085 -0.51700002 -1.851 12
5.3759999 -0.55000001 -1.841 13
5.7189999 -0.588 -1.8380001 13
6.059 -0.62699997 -1.822 12
4.631 -0.46799999 -1.8559999 11
4.8839998 -0.49599999 -1.847 11
5.1890001 -0.52999997 -1.848 12
5.4959998 -0.565 -1.84 11
5.8449998 -0.60399997 -1.834 13
6.217 -0.64700001 -1.824 12
4.7220001 -0.479 -1.853 10
4.9990001 -0.50999999 -1.85 12
5.309 -0.54500002 -1.849 13
5.6290002 -0.58099997 -1.841 12
5.9580002 -0.61900002 -1.825 12
6.3769999 -0.66600001 -1.823 11
4.8179998 -0.491 -1.851 10
5.1100001 -0.523 -1.85 12
5.415 -0.55800003 -1.8430001 13
5.756 -0.59600002 -1.8380001 12
6.1269999 -0.63800001 -1.83 12
6.5409999 -0.685 -1.822 12
4.9200001 -0.50300002 -1.85 10
5.2140002 -0.53600001 -1.846 12
5.5349998 -0.57200003 -1.841 12
5.8850002 -0.611 -1.834 13
6.277 -0.65499997 -1.8279999 12
6.704 -0.70300001 -1.818 12
5.0279999 -0.51499999 -1.849 11
5.336 -0.54900002 -1.847 13
5.6669998 -0.58600003 -1.841 12
6.026 -0.62599999 -1.832 12
6.4460001 -0.67299998 -1.829 11
6.8870001 -0.72299999 -1.817 12
5.1500001 -0.52899998 -1.852 11
5.4499998 -0.56199998 -1.8430001 12
5.8039999 -0.60100001 -1.84 13
6.171 -0.64200002 -1.829 12
6.5939999 -0.68900001 -1.822 12
7.0710001 -0.74199998 -1.814 12
5.2589998 -0.54000002 -1.849 11
5.573 -0.574 -1.84 11
5.927 -0.61299998 -1.8329999 13
6.3270001 -0.65700001 -1.8279999 12
6.7800002 -0.708 -1.822 12
7.2750001 -0.76300001 -1.813 12
5.382 -0.55199999 -1.849 12
5.7059999 -0.58700001 -1.839 13
6.073 -0.62800002 -1.832 13
6.5009999 -0.67500001 -1.829 13
6.9520001 -0.72500002 -1.817 12
7.4819999 -0.78299999 -1.809 12
5.494 -0.56199998 -1.8430001 11
5.8330002 -0.59899998 -1.834 13
6.2340002 -0.64300001 -1.831 13
6.6669998 -0.69 -1.824 12
7.1560001 -0.74400002 -1.816 13
7.6960001 -0.80299997 -1.804 13
5.619 -0.57300001 -1.84 12
5.9860001 -0.61299998 -1.835 13
6.395 -0.65700001 -1.83 12
6.842 -0.70599997 -1.821 12
7.3600001 -0.76200002 -1.814 13
7.9400001 -0.82499999 -1.804 11
5.7600002 -0.58600003 -1.84 12
6.131 -0.625 -1.832 12
6.5609999 -0.671 -1.827 12
7.0240002 -0.72100002 -1.817 13
7.5770001 -0.78100002 -1.811 13
8.1859999 -0.847 -1.8 11
5.9070001 -0.59799999 -1.84 12
6.2820001 -0.63700002 -1.8279999 11
6.7270002 -0.685 -1.822 12
7.2470002 -0.74000001 -1.8200001 13
7.7880001 -0.79799998 -1.804 13
8.4449997 -0.86799997 -1.796 12
6.0479999 -0.60799998 -1.836 10
6.448 -0.64999998 -1.826 11
6.9200001 -0.69999999 -1.822 13
7.4349999 -0.75400001 -1.812 13
8.0319996 -0.81699997 -1.802 11
8.7180004 -0.88999999 -1.79 12
6.1960001 -0.61900002 -1.832 12
6.6110001 -0.662 -1.822 12
7.1090002 -0.713 -1.817 12
7.664 -0.77100003 -1.8099999 13
8.2889996 -0.83700001 -1.799 11
8.9960003 -0.91100001 -1.783 12
6.3579998 -0.63 -1.831 11
6.7870002 -0.67400002 -1.818 12
7.3200002 -0.72899997 -1.817 13
7.8930001 -0.78799999 -1.806 10
8.5459995 -0.85500002 -1.7920001 12
9.2950001 -0.93199998 -1.775 12
6.5289998 -0.64099997 -1.829 12
6.9710002 -0.68599999 -1.814 12
7.5240002 -0.74199998 -1.811 14
8.1339998 -0.80400002 -1.801 11
8.8299999 -0.875 -1.788 12
9.6239996 -0.95599997 -1.7690001 12
6.6960001 -0.65100002 -1.824 12
7.1830001 -0.699 -1.8150001 12
7.7659998 -0.75700003 -1.812 11
8.3879995 -0.81999999 -1.7970001 11
9.1190004 -0.89300001 -1.781 12
9.9510002 -0.977 -1.7589999 13
6.882 -0.66100001 -1.822 12
7.395 -0.71200001 -1.814 12
7.974 -0.76800001 -1.802 11
8.6450005 -0.83499998 -1.789 12
9.4139996 -0.91100001 -1.772 12
10.322 -1.001 -1.752 13
7.066 -0.671 -1.817 12
7.5929999 -0.72100002 -1.8049999 13
8.2270002 -0.78200001 -1.798 12
8.9379997 -0.85100001 -1.785 12
9.7650003 -0.93199998 -1.767 12
10.718 -1.025 -1.743 13
7.2839999 -0.68199998 -1.818 13
7.8379998 -0.73400003 -1.8049999 11
8.4919996 -0.796 -1.794 12
9.2329998 -0.86699998 -1.777 13
10.096 -0.949 -1.756 13
11.153 -1.051 -1.7359999 12
7.493 -0.69099998 -1.814 13
8.0860004 -0.74599999 -1.803 12
8.7580004 -0.80800003 -1.7869999 12
9.5369997 -0.88099998 -1.767 12
10.481 -0.97000003 -1.749 12
11.627 -1.077 -1.728 13
7.698 -0.69800001 -1.806 12
8.3330002 -0.75599998 -1.796 12
9.0480003 -0.82099998 -1.78 12
9.8870001 -0.898 -1.761 12
10.887 -0.99000001 -1.74 13
12.147 -1.1059999 -1.721 13
7.9349999 -0.70700002 -1.803 10
8.585 -0.76499999 -1.788 12
9.3710003 -0.83499998 -1.777 12
10.252 -0.91399997 -1.755 12
11.348 -1.012 -1.735 14
12.687 -1.133 -1.711 13
8.1990004 -0.71700001 -1.803 11
8.8719997 -0.77499998 -1.784 12
9.6759996 -0.84500003 -1.766 13
10.632 -0.92900002 -1.7460001 12
11.814 -1.0319999 -1.724 12
13.31 -1.164 -1.7029999 12
8.4449997 -0.72299999 -1.796 11
9.1619997 -0.78399998 -1.776 12
10.023 -0.85699999 -1.758 13
11.066 -0.94599998 -1.739 13
12.371 -1.057 -1.72 13
13.964 -1.194 -1.691 13
8.7089996 -0.72899997 -1.788 12
9.4820004 -0.79299998 -1.77 12
10.405 -0.86900002 -1.751 13
11.524 -0.96200001 -1.73 13
12.928 -1.079 -1.707 13
14.706 -1.227 -1.6799999 13
9.0109997 -0.736 -1.785 13
9.8140001 -0.80000001 -1.762 13
10.797 -0.87900001 -1.7410001 13
12.033 -0.97899997 -1.723 13
13.562 -1.103 -1.699 13
15.515 -1.262 -1.668 14
9.3050003 -0.74000001 -1.776 12
10.176 -0.80800003 -1.755 13
11.241 -0.89099997 -1.735 13
12.585 -0.99599999 -1.715 13
14.249 -1.127 -1.688 13
16.386999 -1.296 -1.652 15
9.6330004 -0.745 -1.771 13
10.545 -0.81400001 -1.745 12
11.717 -0.903 -1.728 13
13.157 -1.012 -1.704 13
14.975 -1.15 -1.673 13
17.375 -1.3329999 -1.635 14
9.9630003 -0.74699998 -1.761 13
10.956 -0.81999999 -1.738 12
12.234 -0.91299999 -1.72 13
13.798 -1.028 -1.694 13
15.862 -1.1799999 -1.6670001 14
18.374001 -1.365 -1.608 12
10.323 -0.75 -1.753 12
11.395 -0.82499999 -1.729 13
12.775 -0.92199999 -1.71 13
14.505 -1.045 -1.684 13
16.745001 -1.204 -1.649 14
19.500999 -1.399 -1.58 14
10.706 -0.75099999 -1.744 12
11.879 -0.82999998 -1.722 13
13.355 -0.93099999 -1.699 13
15.263 -1.0599999 -1.671 14
17.65 -1.223 -1.623 14
20.902 -1.4450001 -1.558 16
11.139 -0.75199997 -1.739 13
12.39 -0.833 -1.7130001 13
13.991 -0.93800002 -1.686 13
16.136999 -1.0779999 -1.66 14
18.733999 -1.247 -1.6 13
22.521 -1.495 -1.533 16
11.579 -0.75099999 -1.729 13
12.931 -0.83499998 -1.702 13
14.749 -0.94800001 -1.6799999 13
17.052 -1.092 -1.643 13
19.877001 -1.267 -1.569 14
24.41 -1.551 -1.505 17
12.074 -0.74900001 -1.722 12
13.544 -0.83600003 -1.692 14
15.54 -0.954 -1.668 14
17.989 -1.1 -1.617 12
21.362 -1.3 -1.55 16
26.127001 -1.5829999 -1.4450001 5
12.601 -0.745 -1.7130001 12
14.199 -0.83399999 -1.6799999 13
16.417999 -0.95899999 -1.655 15
19.062 -1.108 -1.59 14
22.867001 -1.323 -1.512 18
29.763 -1.7130001 -1.457 28
13.16 -0.73799998 -1.702 13
14.938 -0.833 -1.67 14
17.311001 -0.95899999 -1.633 14
20.264 -1.1160001 -1.562 15
24.812 -1.358 -1.484 8
30.139 -1.64 -1.2869999 17
13.775 -0.73000002 -1.692 14
15.765 -0.829 -1.66 15
18.261 -0.954 -1.6059999 12
21.819 -1.131 -1.5420001 18
26.614 -1.37 -1.424 5
34.006001 -1.74 -1.24 45
14.436 -0.71899998 -1.6799999 13
16.634001 -0.82200003 -1.645 15
19.379 -0.94999999 -1.5829999 14
23.402 -1.138 -1.5089999 13
29.882 -1.4400001 -1.414 28
35.653999 -1.705 -1.08 48
15.202 -0.70700002 -1.671 14
17.497 -0.80599999 -1.62 14
20.613001 -0.94099998 -1.554 15
25.218 -1.14 -1.469 7
30.121 -1.35 -1.242 7
36.986 -1.643 -0.89700001 3
16.034 -0.69199997 -1.661 14
18.431 -0.78600001 -1.592 12
22.083 -0.93199998 -1.529 18
27.954 -1.168 -1.459 14
33.168999 -1.3710001 -1.1670001 150
33.146 -1.3559999 -0.60600001 150
16.879999 -0.67000002 -1.6440001 14
19.580999 -0.76800001 -1.571 14
23.726999 -0.91900003 -1.498 12
29.948 -1.146 -1.382 27
33.181999 -1.2539999 -0.96899998 150
33.119999 -1.235 -0.40700001 7
17.75 -0.64099997 -1.618 13
20.804001 -0.74000001 -1.541 16
25.558001 -0.89700001 -1.459 6
30.348 -1.049 -1.2180001 5
33.188 -1.132 -0.77200001 150
33.194 -1.115 -0.213 29
18.719999 -0.60799998 -1.5930001 13
22.23 -0.70999998 -1.5140001 17
28.094999 -0.88099998 -1.436 20
33.179001 -1.023 -1.135 122
33.219002 -1.007 -0.57800001 150
35.077 -1.045 -0.02 2
19.855 -0.56999999 -1.571 15
23.885 -0.67299998 -1.485 12
29.996 -0.82800001 -1.358 28
33.186001 -0.89700001 -0.94199997 112
33.235001 -0.88 -0.38600001 150
37.502998 -0.972 0.193 39
21.107 -0.52600002 -1.545 16
25.549999 -0.62 -1.437 5
30.684999 -0.727 -1.209 6
33.208 -0.76700002 -0.75 107
34.018002 -0.76599997 -0.199 57
0 0 0 0
22.544001 -0.472 -1.517 15
28.107 -0.57200003 -1.419 17
33.217999 -0.65499997 -1.118 65
33.325001 -0.63700002 -0.565 72
34.580002 -0.63999999 -0.0070000002 61
85.440002 -1.528 1.4069999 11
24.240999 -0.41 -1.49 9
30.030001 -0.48899999 -1.3430001 26
33.25 -0.51899999 -0.92900002 50
34.365002 -0.51499999 -0.38699999 66
34.789001 -0.49900001 0.18799999 31
53.888 -0.73699999 1.1900001 18
25.937 -0.33199999 -1.446 5
30.674 -0.37200001 -1.196 4
34.495998 -0.39500001 -0.76899999 75
34.327999 -0.36899999 -0.193 68
37.598 -0.37900001 0.41299999 7
53.717999 -0.50599998 1.482 42
28.306999 -0.244 -1.418 23
34.353001 -0.273 -1.15 44
34.356998 -0.248 -0.57800001 79
34.514 -0.22499999 -0.0060000001 59
54.994999 -0.31999999 0.90200001 10
53.573002 -0.271 1.77 42
30.084999 -0.12899999 -1.339 24
34.900002 -0.125 -0.97399998 50
34.328999 -0.097999997 -0.38800001 84
34.757 -0.074000001 0.182 31
51.390999 -0.071999997 1.1210001 12
53.712002 -0.035999998 2.0599999 37
30.598 0.001 -1.1950001 5
34.901001 0.027000001 -0.78500003 43
34.527 0.054000001 -0.20299999 64
30.961 0.071999997 0.329 5
30.740999 0.096000001 0.83600003 72
30.679001 0.118 1.34 120
30.711 0.139 -1.0319999 41
30.688999 0.163 -0.52399999 77
30.665001 0.186 -0.017999999 142
30.687 0.213 0.49000001 99
53.591999 0.41299999 1.739 47
30.622999 0.26100001 1.499 24
30.695 0.28 -0.866 29
30.726 0.30399999 -0.361 1
59.182999 0.63499999 0.278 22
39.988998 0.461 0.84500003 36
53.834 0.66500002 2.0250001 41
54.422001 0.71899998 2.944 73
35.674 0.49000001 -0.82099998 46
41.582001 0.60600001 -0.27399999 2
40.039001 0.616 0.39199999 99
40.035 0.64999998 1.051 45
54.27 0.92900002 2.319 37
54.285 0.97500002 3.2119999 53
35.312 0.65399998 -0.62800002 1
40.098999 0.77499998 -0.057 110
41.106998 0.829 0.61299998 11
51.701 1.0880001 1.62 4
54.317001 1.1900001 2.592 50
54.348999 1.24 3.487 28
40.155998 0.93599999 -0.51099998 40
40.16 0.97100002 0.145 18
40.736 1.022 0.81400001 66
101.254 2.6289999 3.6789999 22
104.07 2.7980001 5.4879999 26
104.234 2.901 7.2080002 31
48.229 1.3609999 -0.37099999 6
40.238998 1.173 0.347 86
40.220001 1.211 1.005 109
55.436001 1.719 2.29 2
104.702 3.348 6.04 24
103.682 3.4159999 7.6820002 25
49.465 1.647 -0.133 2
40.321999 1.3789999 0.54699999 89
41.707001 1.466 1.245 21
102.293 3.6960001 4.7249999 30
103.963 3.855 6.4990001 20
104.574 3.983 8.25 25
41.868 1.6059999 0.090000004 1
41.747002 1.64 0.76599997 2
86.061996 3.4660001 2.98 22
0 0 0 0
103.971 4.395 6.993 26
105.478 4.5679998 8.8210001 11
40.466999 1.762 0.28 79
41.821999 1.86 0.96600002 41
85.750999 3.9000001 3.3729999 17
103.313 4.8010001 5.7420001 21
103.949 4.9429998 7.4759998 11
0 0 0 0
41.888 2.0420001 0.48500001 46
41.887001 2.082 1.161 62
86.167999 4.3730001 3.786 9
0 0 0 0
106.545 5.6329999 8.1490002 11
0 0 0 0
41.948002 2.2679999 0.67900002 52
85.595001 4.7140002 2.7650001 34
105.581 5.9260001 5.119 14
0 0 0 0
0 0 0 0
66.425003 3.9460001 6.4619999 12
41.931999 2.494 0.86799997 1
85.307999 5.165 3.141 16
105.55 6.5040002 5.592 8
0 0 0 0
0 0 0 0
0 0 0 0
0 0 0 0
0 0 0 0
0 0 0 0
0 0 0 0
66.442001 4.612 5.9650002 19
63.042999 4.4520001 6.6869998 5
85.967003 6.0650001 2.5339999 18
0 0 0 0
0 0 0 0
66.446999 4.9109998 5.1700001 21
68.178001 5.1209998 6.4109998 25
63.051998 4.8130002 6.9569998 31
85.978996 6.5510001 2.9000001 15
0 0 0 0
66.598 5.224 4.3850002 32
68.152 5.4289999 5.5900002 14
0 0 0 0
62.710999 5.1500001 7.1810002 26
85.412003 6.994 3.2349999 7
66.476997 5.5240002 3.586 9
67.987 5.7270002 4.7589998 59
0 0 0 0
67.371002 5.8429999 6.8959999 9
62.910999 5.5380001 7.4640002 15
67.82 5.9520001 2.848 25
66.571999 5.9180002 3.859 16
0 0 0 0
0 0 0 0
67.353996 6.2389998 7.1659999 20
62.757999 5.8969998 7.698 27
66.697998 6.2449999 3.0680001 31
0 0 0 0
65.817001 6.3200002 5.1329999 37
64.598 6.2849998 6.0799999 67
67.509003 6.6550002 7.4460001 21
52.062 5.2030001 6.5890002 46
66.389999 6.6059999 3.309 45
65.941002 6.6440001 4.3410001 49
65.127998 6.6440001 5.3319998 51
67.404999 6.9640002 6.605 7
51.887001 5.4310002 5.9239998 7
51.23 5.4320002 6.6820002 52
66.744003 7.0430002 3.5810001 14
67.489998 7.2059999 4.697 8
66.294998 7.164 5.6760001 36
66.168999 7.2379999 6.7309999 28
51.32 5.6830001 6.0500002 45
50.821999 5.7020001 6.8210001 62
66.400002 7.414 3.8110001 31
66.262001 7.4829998 4.8590002 10
0 0 0 0
78.617996 9.085 8.2880001 8
50.948002 5.9590001 6.1960001 38
51.095001 6.0489998 7.0440001 63
65.945999 7.7680001 4.0229998 25
65.223999 7.7639999 5.0149999 35
68.264999 8.2139997 6.3410001 30
53.082001 6.4629998 5.7870002 16
51.019001 6.2849998 6.3870001 20
51.816002 6.461 7.3309999 51
67.722 8.3959999 4.3699999 4
68.115997 8.5310001 5.4770002 6
53.047001 6.7160001 5.1139998 2
51.716 6.619 5.8169999 26
51.418999 6.6570001 6.6160002 28
31.354 4.1069999 4.5440001 3
92.046997 11.985 6.2519999 34
67.747002 8.9119997 5.678 20
67.539001 8.9779997 6.7410002 13
51.949001 6.9819999 6.0229998 6
52.240002 7.0999999 6.902 30
31.280001 4.2989998 4.6409998 21
78.959 10.787 5.6300001 12
76.352997 10.531 6.6560001 14
31.319 4.3629999 3.23 3
31.252001 4.3990002 3.7260001 48
31.252001 4.4460001 4.2309999 35
31.143999 4.48 4.724 19
31.347 4.4819999 2.335 50
31.306 4.5190001 2.8299999 51
31.343 4.5679998 3.3340001 6
61.917 9.1149998 7.5809999 39
51.025002 7.5910001 7.073 20
49.542 7.4530001 7.677 43
65.970001 9.8610001 5.125 18
65.837997 9.9309998 6.1589999 8
52.106998 7.9359999 5.7069998 7
52.292 8.0439997 6.5689998 2
49.928001 7.7579999 7.0799999 5
49.362 7.7519999 7.8039999 42
77.044998 12.02 6.2199998 15
65.640999 10.333 6.3429999 17
55.528 8.8269997 6.2540002 29
52.016998 8.3470001 6.6950002 32
49.264999 7.9829998 7.138 23
49.331001 8.0760002 7.9520001 43
77.385002 12.583 6.4780002 15
56.09 9.2010002 5.585 19
52.034 8.6149998 6.013 13
49.328999 8.2449999 6.4949999 4
49.146 8.2969999 7.2690001 39
49.102001 8.375 8.0640001 41
64.828003 10.981 5.6160002 7
52.056999 8.8920002 5.335 5
49.377998 8.5100002 5.8499999 24
49.207001 8.5600004 6.6220002 16
48.766998 8.566 7.3540001 23
49.112 8.7150002 8.21 52
52.198002 9.1940002 4.6680002 26
56.018002 9.9510002 5.8990002 7
49.148998 8.8050003 5.961 32
49.008999 8.8599997 6.7329998 25
48.18 8.7930002 7.401 47
48.597 8.9569998 8.2600002 47
53.792999 9.8400002 4.954 12
64.292999 11.86 6.9439998 44
49.126999 9.1400003 6.092 25
48.452999 9.0959997 6.789 18
48.153 9.1210003 7.5289998 47
48.611 9.2969999 8.3959999 55
53.339001 10.126 5.052 3
52.702 10.086 5.8280001 9
54.965 10.608 6.9580002 24
48.264999 9.3979998 6.8899999 34
48.099998 9.4490004 7.6479998 46
49.223 9.7589998 8.632 32
78.255997 15.4 7.6090002 6
52.459 10.405 5.934 4
51.037998 10.206 6.5900002 5
48.394001 9.7609997 7.0289998 39
48.701 9.9119997 7.868 36
48.601002 9.9849997 8.6490002 46
51.360001 10.471 5.119 19
52.452 10.773 6.0609999 4
54.986 11.385 7.2340002 22
48.780998 10.183 7.2049999 27
48.404999 10.194 7.9380002 50
48.902 10.393 8.8219995 55
51.176998 10.79 5.217 19
50.812 10.794 5.987 28
49.028999 10.495 6.5630002 5
48.729 10.518 7.3099999 37
48.400002 10.535 8.0489998 49
49.584 10.891 9.0629997 48
51.243999 11.168 5.3379998 36
54.977001 12.067 6.6009998 1
48.921001 10.822 6.658 32
48.654999 10.85 7.4089999 22
48.775002 10.97 8.2229996 36
49.661999 11.269 9.1899996 58
51.188 11.521 5.441 4
51.382 11.649 6.2789998 16
50.051998 11.434 6.9200001 12
49.148998 11.315 7.5910001 20
48.921001 11.357 8.3549995 48
49.352001 11.558 9.2419996 44
55.011002 12.779 5.9569998 15
51.306 12.001 6.3730001 7
50.289001 11.852 7.0570002 3
49.608002 11.783 7.763 34
49.550999 11.865 8.566 38
50.169998 12.117 9.5010004 36
53.473999 12.81 5.8940001 13
52.758999 12.724 6.6560001 3
50.845001 12.353 7.2319999 26
50.375 12.333 7.9829998 51
49.952 12.331 8.7360001 39
0 0 0 0
53.949001 13.32 6.046 8
51.373001 12.771 6.5770001 3
50.466999 12.634 7.2729998 25
50.289001 12.685 8.0640001 31
50.722 12.901 8.9680004 55
0 0 0 0
52.712002 13.405 5.9990001 3
50.826 13.012 6.5960002 21
50.146999 12.927 7.316 66
50.001999 12.986 8.1079998 44
50.644001 13.257 9.0439997 38
0 0 0 0
53.674999 14.045 6.1939998 18
50.712002 13.359 6.665 28
50.806 13.474 7.4980001 32
51.067001 13.643 8.368 34
51.736 13.93 9.3280001 2
0 0 0 0
50.637001 13.626 5.9219999 17
50.625 13.711 6.7309999 26
51.136002 13.945 7.625 38
51.416 14.121 8.5050001 51
0 0 0 0
30.844999 8.6029997 6.1230001 4
52.671001 14.567 6.2360001 29
50.827 14.147 6.8319998 60
50.816002 14.237 7.6529999 24
52.007999 14.675 8.6820002 35
0 0 0 0
31.125999 8.9180002 6.2280002 2
52.196999 14.827 6.2480001 62
50.751999 14.507 6.8889999 5
0 0 0 0
0 0 0 0
0 0 0 0
31.388 9.2360001 6.3260002 17
52.748001 15.387 6.3790002 17
0 0 0 0
33.416 9.8699999 5.1199999 8
0 0 0 0
0 0 0 0
31.316 9.4560003 6.355 31
0 0 0 0
33.435001 10.068 4.6199999 17
32.174 9.7510004 4.9699998 6
0 0 0 0
32.047001 9.8529997 6.007 41
30.729 9.5190001 6.2750001 40
33.341 10.237 4.105 31
31.982 9.8760004 4.4530001 0
0 0 0 0
32.091999 10.042 5.52 12
30.572001 9.6350002 5.7659998 32
30.469999 9.6739998 6.2589998 12
0 0 0 0
31.627001 10.011 4.4349999 25
31.389999 9.9960003 4.9130001 24
0 0 0 0
30.448 9.8290005 5.7740002 27
30.323 9.8620005 6.2600002 11
0 0 0 0
0 0 0 0
0 0 0 0
0 0 0 0
30.900999 10.217 5.8899999 19
32.181 10.717 6.6760001 25
0 0 0 0
0 0 0 0
33.577999 11.213 5.3119998 3
0 0 0 0
30.879999 10.45 5.9130001 6
31.896 10.874 6.6459999 39
0 0 0 0
0 0 0 0
0 0 0 0
33.661999 11.574 5.9070001 3
0 0 0 0
31.643 11.035 6.6170001 35
0 0 0 0
0 0 0 0
0 0 0 0
0 0 0 0
0 0 0 0
31.054001 11.076 6.5170002 6
0 0 0 0
0 0 0 0
0 0 0 0
0 0 0 0
0 0 0 0
31.355 11.432 6.599 6
0 0 0 0
0 0 0 0
0 0 0 0
0 0 0 0
0 0 0 0
30.038 11.189 6.3379998 11
0 0 0 0
0 0 0 0
0 0 0 0
0 0 0 0
0 0 0 0
30.198 11.489 6.3850002 2
0 0 0 0
0 0 0 0
0 0 0 0
0 0 0 0
0 0 0 0
29.695999 11.535 6.2870002 32
0 0 0 0
0 0 0 0
0 0 0 0
0 0 0 0
0 0 0 0
29.702 11.772 6.2950001 48
0 0 0 0
0 0 0 0
0 0 0 0
0 0 0 0
34.421001 13.82 6.7080002 1
29.554001 11.948 6.2690001 33
0 0 0 0
0 0 0 0
0 0 0 0
0 0 0 0
31.899 13.06 6.217 3
32.353001 13.336 6.8629999 45
0 0 0 0
0 0 0 0
0 0 0 0
0 0 0 0
31.740999 13.25 6.1830001 1
32.609001 13.702 6.915 46
0 0 0 0
0 0 0 0
0 0 0 0
0 0 0 0
33.229 14.131 6.4679999 48
32.861 14.068 6.9650002 46
53.783001 22.808001 6.8189998 13
0 0 0 0
0 0 0 0
0 0 0 0
31.806999 13.777 6.1810002 3
31.747 13.841 6.7199998 18
53.639999 23.167 6.7729998 34
0 0 0 0
0 0 0 0
0 0 0 0
32.928001 14.524 6.3860002 10
31.66 14.056 6.691 35
53.381001 23.471001 6.704 46
0 0 0 0
0 0 0 0
32.597 14.545 5.744 1
32.268002 14.486 6.243 47
32.047001 14.48 6.7589998 21
53.465 23.929001 6.6750002 31
0 0 0 0
0 0 0 0
32.463001 14.741 5.7010002 20
32.423 14.809 6.2540002 47
32.164001 14.783 6.7659998 33
53.688 24.441999 6.658 32
0 0 0 0
0 0 0 0
31.790001 14.683 5.5609999 27
0 0 0 0
32.560001 15.223 6.8299999 25
53.452 24.75 6.5799999 28
0 0 0 0
32.561001 15.212 5.1090002 12
31.568001 14.825 5.4959998 44
31.535 14.894 6.0380001 11
30.356001 14.426 6.3449998 3
53.533001 25.201 6.5359998 31
33.208 15.699 4.6139998 7
32.391998 15.385 5.052 25
31.322001 14.952 5.4250002 44
30.865999 14.819 5.8839998 25
30.278 14.627 6.3039999 23
33.645 16.1 4.0700002 1
32.742001 15.733 4.5139999 28
32.335999 15.607 5.0110002 40
31.672001 15.365 5.454 47
30.531 14.894 5.7909999 22
30.007999 14.728 6.2210002 42
32.806 15.949 3.927 36
32.721001 15.972 4.4710002 10
32.638 16.004 5.0190001 7
31.877001 15.712 5.4549999 48
30.612 15.172 5.7740002 39
30.236 15.075 6.2389998 24
40.748001 20.125999 4.8239999 38
40.694 20.177 5.5089998 21
0 0 0 0
32.382999 16.209999 5.5029998 26
32.202999 16.205999 6.0380001 13
30.091999 15.235 6.1760001 4
32.902 16.5 3.849 4
0 0 0 0
0 0 0 0
32.101002 16.311001 5.4130001 2
34.921001 17.837999 6.5040002 40
29.976999 15.404 6.1149998 21
42.491001 21.628 4.9060001 5
32.810001 16.764999 4.3499999 36
0 0 0 0
32.890999 16.959999 5.5019999 13
34.951 18.118999 6.4629998 21
29.737 15.507 6.0279999 32
42.167 21.778 4.803 20
0 0 0 0
32.436001 16.888 4.8119998 4
0 0 0 0
32.903999 17.302999 6.0380001 4
29.85 15.789 6.0110002 21
87.286003 45.734001 9.7939997 7
0 0 0 0
32.296001 17.056 4.7399998 1
35.698002 18.938999 5.8649998 19
30.150999 16.08 5.4879999 2
29.827 15.999 5.9619999 43
87.848999 46.68 9.6999998 10
0 0 0 0
0 0 0 0
31.92 17.17 5.1900001 9
30.049999 16.246 5.4200001 31
29.990999 16.305 5.948 50
0 0 0 0
0 0 0 0
35.494999 19.261999 5.086 4
35.458 19.327999 5.7059999 34
29.798 16.326 5.3249998 22
29.704 16.365 5.8429999 44
0 0 0 0
0 0 0 0
0 0 0 0
35.532001 19.622 5.652 15
29.978001 16.636999 5.3039999 31
30.207001 16.858999 5.8909998 36
87.584999 48.425999 9.1619997 28
89.112999 49.431999 10.87 25
0 0 0 0
37.09 20.745001 5.8299999 43
31.622999 17.774 5.5370002 6
30.495001 17.233 5.8909998 29
87.681 49.085999 8.9890003 43
88.331001 49.612 10.591 38
0 0 0 0
37.587002 21.283001 5.8330002 34
34.492001 19.627001 5.9699998 5
29.601 16.937 5.6609998 1
86.331001 48.938999 8.6540003 24
87.655998 49.848999 10.315 30
0 0 0 0
37.549 21.523001 5.7480001 22
34.556999 19.902 5.9120002 10
29.493 17.077 5.5799999 10
86.379997 49.556999 8.4569998 24
87.785004 50.514999 10.132 21
0 0 0 0
38.917 22.570999 5.8740001 6
34.374001 20.031 5.8060002 4
30.620001 17.937 5.73 24
86.370003 50.133999 8.2519999 29
87.087997 50.702999 9.8470001 17
0 0 0 0
0 0 0 0
34.313999 20.226 5.7210002 3
30.466 18.049999 5.6360002 30
85.888 50.424 7.9959998 24
86.563004 50.969002 9.5790005 7
0 0 0 0
0 0 0 0
34.206001 20.385 5.6230001 10
30.461 18.246 5.5650001 11
85.641998 50.84 7.7480001 18
92.128998 54.844002 9.967 22
0 0 0 0
34.133999 20.468 4.9120002 3
34.327 20.676001 5.5630002 17
30.330999 18.363001 5.4699998 44
87.405998 52.437 7.6869998 22
88.311996 53.126999 9.3249998 19
92.100998 55.591 11.365 24
35.965 21.790001 5.086 4
30.459999 18.538 4.8600001 2
30.153999 18.444 5.3639998 43
87.079002 52.785 7.4190001 23
87.405998 53.125 8.993 21
91.273003 55.660999 11.022 23
34.021 20.825001 4.7220001 12
34.380001 21.136999 5.3969998 11
30.225 18.673 5.3010001 32
87.204002 53.398998 7.1849999 28
86.147003 52.888 8.625 24
86.733002 53.411999 10.239 10
34.486 21.316 4.6929998 21
34.261002 21.267 5.2880001 42
30.063 18.753 5.1929998 17
86.325996 53.373001 6.8649998 34
86.052002 53.332001 8.3769999 27
34.445 21.413 3.9719999 16
34.928001 21.792999 4.6599998 16
34.23 21.448 5.191 37
0 0 0 0
12.724 7.941 0.97399998 0
12.884 8.0600004 1.216 6
34.257 21.493 3.8510001 39
34.879002 21.961 4.553 12
33.834 21.392 5.0349998 17
33.742001 21.433001 5.6459999 21
12.987 8.1789999 0.95599997 13
12.978 8.1920004 1.187 7
34.018002 21.535 3.724 23
33.509998 21.287001 4.277 9
33.179001 21.160999 4.8429999 44
33.074001 21.193001 5.4390001 8
12.941 8.2220001 0.91100001 0
34.030998 21.667 3.01 21
33.911999 21.652 3.6110001 23
34.209999 21.916 4.2649999 4
34.530998 22.209999 4.9380002 7
34.085999 22.024 5.506 10
34.115002 21.856001 2.2969999 28
33.995998 21.826 2.898 20
33.747002 21.725 3.4890001 24
34.166 22.066 4.1560001 4
34.173 22.156 4.7849998 20
33.908001 22.083 5.3759999 13
85.43 55.175999 5.474 29
85.442001 55.294998 7.0110002 22
86.439003 56.085999 8.6569996 10
33.490002 21.798 3.967 35
0 0 0 0
33.853001 22.216 5.263 28
84.867996 55.238998 5.1570001 25
85.844002 55.980999 6.763 26
85.803001 56.091 8.3199997 10
0 0 0 0
33.271 21.898001 4.448 9
33.334 22.033001 5.0780001 10
84.610001 55.472 4.8590002 10
86.556999 56.853001 6.5380001 20
0 0 0 0
0 0 0 0
0 0 0 0
33.453999 22.264999 4.9879999 14
89.334 58.981998 4.823 15
94.219002 62.313999 6.79 17
85.911003 56.952 7.7610002 18
0 0 0 0
0 0 0 0
0 0 0 0
89.054001 59.188999 4.5009999 21
89.511002 59.588001 6.1459999 11
143.683 95.862 12.484 22
0 0 0 0
0 0 0 0
0 0 0 0
88.790001 59.389 4.1680002 22
85.373001 57.189999 5.5570002 10
94.804001 63.639 7.9060001 13
92.002998 61.925999 9.3629999 12
0 0 0 0
0 0 0 0
88.420998 59.493 3.8369999 19
89.176003 60.082001 5.494 8
89.260002 60.258999 7.131 25
91.856003 62.174 9.0279999 40
0 0 0 0
0 0 0 0
88.536003 59.900002 3.516 8
89.059998 60.333 5.158 15
89.005997 60.408001 6.7880001 23
91.490997 62.250999 8.6630001 24
0 0 0 0
0 0 0 0
49.793999 33.863998 1.795 4
88.069 59.965 4.7810001 35
88.899002 60.637001 6.46 15
91.306 62.425999 8.323 26
0 0 0 0
0 0 0 0
44.112999 30.143999 1.427 6
87.406998 59.792 4.4229999 31
88.736 60.805 6.1240001 15
0 0 0 0
35.396999 24.382 3.753 3
0 0 0 0
15.236 10.458 0.435 2
87.072998 59.825001 4.0770001 28
88.485001 60.889 5.7729998 25
35.431999 24.436001 2.9660001 3
35.356998 24.452999 3.619 34
0 0 0 0
15.285 10.534 0.37799999 1
87.692001 60.488998 3.776 8
35.433998 24.478001 2.177 4
35.366001 24.482 2.826 36
35.237999 24.459999 3.471 38
35.129002 24.466 4.1170001 4
40.573002 28.066999 0.847 31
49.523998 34.285 1.942 8
87.5 60.658001 5.0409999 32
35.280998 24.507 2.6849999 39
35.144001 24.475 3.3269999 38
35.032001 24.476 3.974 25
15.415 10.699 0.25999999 4
43.926998 30.507999 1.551 9
87.082001 60.556 4.678 28
35.178001 24.507999 2.5439999 37
35.085999 24.504999 3.1900001 35
34.957001 24.490999 3.8340001 32
15.425 10.738 0.20100001 37
0 0 0 0
86.946999 60.625999 4.335 40
35.111 24.525 2.4000001 35
35.021999 24.521999 3.0480001 40
34.889 24.503 3.688 35
15.408 10.754 0.14 13
42.403 29.606001 1.165 44
86.934998 60.762001 3.9920001 27
35.07 24.552 2.2590001 22
34.965 24.534 2.9030001 36
34.848999 24.524 3.546 40
15.477 10.825 0.079000004 8
40.492001 28.330999 0.95200002 12
86.848 60.82 3.648 6
34.931 24.5 2.1140001 3
34.917 24.542999 2.7639999 39
34.834 24.554001 3.408 16
15.478 10.846 0.017000001 0
15.54 10.891 0.303 2
49.112 34.448002 1.8660001 11
86.602997 60.832001 4.8940001 39
34.888 24.556 2.6210001 39
34.837002 24.587 3.27 4
15.343 10.766 -0.044 0
15.543 10.908 0.242 5
43.141998 30.297001 1.4680001 11
87.152 61.284 4.5840001 62
34.875999 24.572001 2.4820001 40
34.768002 24.559 3.1229999 9
15.378 10.803 -0.106 3
15.53 10.909 0.17900001 0
42.394001 29.796 1.271 25
86.873001 61.131001 4.2129998 26
34.876999 24.587 2.339 33
34.787998 24.584999 2.984 15
15.376 10.808 -0.168 5
40.382 28.382 0.301 53
42.244999 29.705 1.095 46
86.748001 61.063999 3.8599999 14
34.842999 24.568001 2.1989999 10
34.811001 24.604 2.845 12
15.371 10.808 -0.23 1
40.526001 28.488001 0.14 43
40.429001 28.43 0.88599998 17
49.272999 34.681999 1.9910001 4
86.112999 60.709999 5.0780001 21
34.780998 24.575001 2.7 6
33.745998 23.726 -0.64200002 11
40.603001 28.535999 -0.024 17
40.342999 28.360001 0.72000003 45
43.655998 30.715 1.586 4
86.264999 60.784 4.7379999 22
34.835999 24.597 2.5610001 7
6.1350002 4.3109999 -0.142 15
15.377 10.801 -0.071999997 1
15.619 10.972 0.214 0
42.648998 29.982 1.38 20
87.035004 61.268002 4.428 26
34.855 24.584999 2.4200001 32
6.1300001 4.3039999 -0.16599999 29
15.382 10.793 -0.134 7
15.525 10.894 0.15000001 3
42.377998 29.756001 1.1950001 38
86.821999 61.036999 4.0599999 23
34.872002 24.562 2.277 23
6.1339998 4.3010001 -0.191 29
6.1760001 4.3270001 -0.078000002 0
15.498 10.859 0.086999997 4
40.530998 28.413 0.977 10
86.774002 60.900002 3.7 11
34.921001 24.551001 2.135 4
6.145 4.302 -0.21699999 23
6.1570001 4.3070002 -0.103 29
15.445 10.802 0.025 7
15.485 10.834 0.31 4
49.179001 34.443001 1.897 7
86.723 60.837002 4.9499998 24
6.1880002 4.3239999 -0.242 11
6.1490002 4.2919998 -0.12800001 24
6.2839999 4.3850002 -0.015 3
15.437 10.775 0.24699999 12
43.800999 30.601 1.51 17
87.010002 60.880001 4.6059999 32
6.2750001 4.3740001 -0.27200001 12
6.1849999 4.3070002 -0.153 17
6.2049999 4.3189998 -0.039999999 38
15.415 10.731 0.183 42
0 0 0 0
86.995003 60.691002 4.2449999 34
6.277 4.3629999 -0.296 11
6.2140002 4.3140001 -0.17900001 17
6.21 4.309 -0.064999998 23
6.2420001 4.3309999 0.048999999 0
40.740002 28.290001 1.0700001 3
87.306999 60.703999 3.901 23
6.2870002 4.3559999 -0.322 11
6.2579999 4.3309999 -0.205 16
6.2600002 4.329 -0.090000004 17
6.2459998 4.3189998 0.024 5
40.577999 28.077 0.903 23
87.391998 60.539001 3.5510001 11
6.303 4.3520002 -0.34799999 23
6.3319998 4.3660002 -0.233 10
6.2940001 4.3369999 -0.116 11
6.348 4.3730001 -0.001 0
15.293 10.54 0.27900001 7
43.974998 30.337999 1.607 2
6.3249998 4.3509998 -0.37400001 16
6.402 4.3969998 -0.25999999 0
15.201 10.431 -0.34099999 24
6.382 4.3779998 -0.026000001 9
15.214 10.44 0.215 17
44.002998 30.223 1.428 15
6.3959999 4.381 -0.403 23
6.388 4.368 -0.285 31
6.415 4.382 -0.169 5
6.395 4.3660002 -0.050999999 12
15.158 10.352 0.154 35
15.229 10.409 0.433 0
6.4190001 4.3759999 -0.42899999 18
6.4330001 4.3779998 -0.31200001 17
6.4439998 4.3800001 -0.19499999 23
6.4580002 4.388 -0.077 2
15.047 10.225 0.093000002 22
15.092 10.262 0.36899999 0
6.474 4.3920002 -0.45699999 16
6.493 4.3959999 -0.34 17
6.4990001 4.395 -0.222 17
15.027 10.156 -0.23800001 41
6.5120001 4.401 0.014 35
6.4889998 4.388 0.132 4
6.5289998 4.4050002 -0.486 23
6.5430002 4.4070001 -0.36700001 17
6.5570002 4.4099998 -0.249 16
14.473 9.7270002 -0.28600001 18
6.5570002 4.4060001 -0.0099999998 16
6.5289998 4.3889999 0.108 13
6.5999999 4.428 -0.51599997 16
6.6129999 4.427 -0.39700001 17
14.518 9.7060003 -0.60600001 12
6.6500001 4.4419999 -0.15700001 6
6.6350002 4.4310002 -0.035999998 12
6.6160002 4.4200001 0.082999997 14
6.6630001 4.4429998 -0.546 16
6.697 4.4559999 -0.42699999 33
6.7210002 4.4650002 -0.30599999 34
6.7090001 4.4530001 -0.183 13
6.7160001 4.4559999 -0.061999999 2
51.361 34.085999 0.44999999 31
6.7600002 4.4790001 -0.579 32
6.7659998 4.473 -0.456 17
6.7750001 4.4710002 -0.333 17
6.7919998 4.4780002 -0.211 32
6.7950001 4.4780002 -0.088 33
6.881 4.5339999 0.033 0
6.823 4.4899998 -0.60900003 17
6.882 4.5180001 -0.48899999 8
6.869 4.5009999 -0.36300001 5
6.8979998 4.5149999 -0.23999999 12
6.8579998 4.487 -0.115 16
6.8439999 4.4770002 0.0080000004 25
6.9060001 4.5120001 -0.63999999 17
7.5240002 4.9039998 -0.56099999 50
12.357 8.0389996 -0.69800001 50
6.9439998 4.5120001 -0.266 3
6.9520001 4.5139999 -0.142 0
6.9390001 4.5050001 -0.017000001 16
6.9860001 4.5310001 -0.67199999 18
7.5409999 4.8790002 -0.58899999 9
11.897 7.6810002 -0.71399999 97
0 0 0 0
14.265 9.1899996 -0.34299999 60
7.0349998 4.5310001 -0.043000001 8
8.7589998 5.6370001 -0.87199998 69
10.815 6.9419999 -0.88099998 44
7.5469999 4.8340001 -0.479 48
12.875 8.2349997 -0.58600003 151
12.937 8.2670002 -0.35800001 150
12.926 8.257 -0.127 123
9.3009996 5.9359999 -0.958 42
0 0 0 0
11.957 7.5949998 -0.80000001 38
7.5929999 4.816 -0.37200001 4
12.961 8.2119999 -0.403 4
13.488 8.5419998 -0.18000001 6
9.4320002 5.9699998 -1.003 32
8.9069996 5.6220002 -0.78600001 150
8.2440004 5.1919999 -0.579 2
7.5780001 4.7639999 -0.39700001 25
12.372 7.77 -0.428 19
13.54 8.4980001 -0.228 24
9.4460001 5.9260001 -1.034 33
9.8780003 6.1789999 -0.90399998 40
8.677 5.415 -0.639 35
13.716 8.5439997 -0.76499999 41
7.5999999 4.7280002 -0.289 41
13.286 8.2609997 -0.26899999 19
8.7720003 5.4520001 -0.98799998 47
7.6389999 4.7350001 -0.72299999 4
7.6869998 4.7519999 -0.58999997 22
7.6220002 4.704 -0.44999999 24
7.6129999 4.6919999 -0.315 29
7.6069999 4.684 -0.18000001 31
7.5910001 4.6739998 -0.87900001 19
7.5949998 4.6620002 -0.74299997 13
7.6269999 4.6700001 -0.61000001 6
7.6680002 4.6859999 -0.47799999 6
7.6789999 4.6859999 -0.34299999 6
7.6820002 4.684 -0.207 6
8.1700001 4.9819999 -0.97100002 42
7.789 4.7350001 -0.78600001 0
10.878 6.5949998 -0.90499997 40
7.8909998 4.7740002 -0.51599997 50
7.8909998 4.7659998 -0.377 51
7.8889999 4.7610002 -0.23800001 48
8.0369997 4.8509998 -0.97799999 45
9.5769997 5.7620001 -0.995 45
8.1569996 4.895 -0.70300001 2
8.0869999 4.842 -0.55400002 41
8.1379995 4.8649998 -0.414 23
8.0970001 4.835 -0.271 14
7.8850002 4.71 -0.98299998 33
8.3039999 4.9439998 -0.88700002 27
8.2440004 4.8940001 -0.73500001 11
8.2889996 4.9099998 -0.59299999 6
8.3059998 4.9109998 -0.44800001 6
8.3369999 4.9239998 -0.30399999 7
7.7280002 4.566 -0.986 37
8.7969999 5.1799998 -0.96499997 42
9.5760002 5.6230001 -0.88099998 34
8.9799995 5.2610002 -0.66900003 49
8.9680004 5.244 -0.51099998 54
8.9639997 5.2350001 -0.354 54
7.6799998 4.4879999 -1 38
8.7959995 5.1220002 -0.98900002 34
9.4940004 5.513 -0.89999998 41
9.1239996 5.2849998 -0.70499998 6
9.4460001 5.461 -0.56599998 25
9.4619999 5.4629998 -0.403 47
7.579 4.3790002 -1.007 38
8.4139996 4.8439999 -0.96899998 47
9.776 5.6100001 -0.954 34
10.907 6.244 -0.87400001 41
12.785 7.3039999 -0.80199999 37
24.855 14.179 -1.13 6
7.5440001 4.3070002 -1.022 30
8.2980003 4.7199998 -0.97799999 35
9.5209999 5.3990002 -0.95499998 34
10.994 6.2179999 -0.91000003 37
12.305 6.9450002 -0.80599999 40
24.209 13.643 -1.1670001 6
7.5110002 4.237 -1.036 31
8.1450005 4.5770001 -0.98000002 41
9.3920002 5.2610002 -0.96600002 41
10.452 5.8390002 -0.89399999 39
12.025 6.7030001 -0.81999999 44
23.646 13.159 -1.205 6
7.3429999 4.0910001 -1.031 30
8.0699997 4.4780002 -0.991 42
9.1569996 5.0650001 -0.96499997 44
10.268 5.664 -0.90399998 37
11.96 6.5830002 -0.847 42
22.882999 12.572 -1.228 7
7.2940001 4.0120001 -1.041 30
7.9780002 4.3709998 -0.99900001 35
9.2840004 5.0689998 -1.001 35
10.156 5.5300002 -0.91900003 39
11.939 6.4850001 -0.875 38
22.351999 12.119 -1.257 9
7.198 3.908 -1.044 30
7.8899999 4.2670002 -1.006 37
9.1260004 4.9180002 -1.005 36
9.9870005 5.3660002 -0.92699999 38
11.676 6.2579999 -0.884 46
21.898001 11.715 -1.285 13
7.1690001 3.8410001 -1.0549999 30
7.822 4.1739998 -1.015 37
8.717 4.6350002 -0.98000002 55
9.8430004 5.2179999 -0.93599999 47
11.338 5.9949999 -0.88499999 40
21.462999 11.326 -1.311 16
7.3400002 3.8789999 -1.096 30
7.7969999 4.1030002 -1.028 39
8.7110004 4.5679998 -0.99800003 37
9.8710003 5.1609998 -0.96100003 42
11.139 5.8080001 -0.89399999 41
21.028999 10.941 -1.3329999 17
7.7210002 4.0240002 -1.168 31
7.7399998 4.0159998 -1.036 40
8.5810003 4.4359999 -1.001 38
9.7729998 5.0359998 -0.972 41
11.04 5.6739998 -0.91000003 38
20.572001 10.549 -1.349 19
8.1339998 4.178 -1.2460001 31
8.1190004 4.1529999 -1.103 36
8.4759998 4.3189998 -1.006 44
9.6639996 4.908 -0.98199999 33
10.864 5.5019999 -0.91900003 41
20.223 10.218 -1.37 18
8.8030005 4.4559999 -1.365 22
8.6219997 4.3449998 -1.187 49
8.6160002 4.3260002 -1.038 46
9.467 4.737 -0.98000002 43
10.494 5.2350001 -0.90899998 5
19.806 9.8579998 -1.383 17
10.845 5.408 -1.7 10
11.877 5.8969998 -1.6569999 8
9.3319998 4.6149998 -1.142 3
9.4899998 4.677 -1 16
16.764999 8.2379999 -1.483 12
19.511 9.5629997 -1.399 16
10.75 5.2789998 -1.7029999 11
11.768 5.7540002 -1.6619999 10
13.024 6.342 -1.617 7
14.588 7.0780001 -1.563 9
16.533001 7.9970002 -1.493 12
19.105 9.2180004 -1.405 16
10.679 5.1630001 -1.7079999 11
11.652 5.6069999 -1.664 11
12.891 6.1789999 -1.6210001 7
14.444 6.8979998 -1.572 9
16.353001 7.7849998 -1.505 11
18.743999 8.901 -1.413 14
10.549 5.02 -1.7029999 12
11.553 5.473 -1.6670001 10
12.781 6.0279999 -1.627 9
14.261 6.7030001 -1.575 9
16.118999 7.5510001 -1.51 11
18.454 8.6199999 -1.421 13
10.468 4.901 -1.704 10
11.455 5.3379998 -1.669 10
12.678 5.882 -1.632 9
14.149 6.54 -1.5829999 8
15.945 7.3460002 -1.518 11
18.224001 8.3719997 -1.433 14
10.38 4.7789998 -1.7029999 9
11.367 5.2080002 -1.671 9
12.583 5.7410002 -1.637 9
14.027 6.375 -1.589 8
15.807 7.1599998 -1.527 10
18.056 8.1560001 -1.4450001 12
10.325 4.6739998 -1.706 11
11.285 5.0840001 -1.673 10
12.483 5.5999999 -1.64 9
13.894 6.2080002 -1.592 8
15.644 6.9660001 -1.533 10
17.867001 7.9310002 -1.456 13
10.271 4.5700002 -1.709 11
11.233 4.974 -1.678 10
12.403 5.4679999 -1.643 9
13.784 6.052 -1.596 8
15.518 6.7880001 -1.54 10
17.653 7.6989999 -1.461 13
10.207 4.4619999 -1.709 11
11.171 4.8590002 -1.681 9
12.364 5.3540001 -1.652 9
13.684 5.9000001 -1.6 8
15.402 6.6170001 -1.546 10
17.493999 7.4920001 -1.4680001 12
10.163 4.3629999 -1.71 11
11.103 4.7420001 -1.681 9
12.281 5.2199998 -1.653 9
13.613 5.7620001 -1.6059999 8
15.275 6.4419999 -1.55 9
17.349001 7.2919998 -1.476 12
10.114 4.2610002 -1.711 11
11.049 4.631 -1.682 9
12.224 5.0999999 -1.656 9
13.546 5.6279998 -1.6109999 7
15.195 6.2880001 -1.556 9
17.232 7.1069999 -1.483 12
10.072 4.164 -1.711 11
10.992 4.5209999 -1.682 9
12.165 4.98 -1.658 9
13.453 5.4840002 -1.6109999 7
15.112 6.1360002 -1.561 9
17.108 6.9219999 -1.488 10
10.03 4.0679998 -1.71 11
10.958 4.421 -1.684 9
12.123 4.868 -1.661 10
13.425 5.3670001 -1.617 9
15.053 5.994 -1.566 9
17.02 6.7529998 -1.494 11
10.002 3.9790001 -1.71 10
10.934 4.3260002 -1.686 9
12.067 4.7509999 -1.66 10
13.375 5.243 -1.62 8
14.938 5.8309999 -1.5650001 9
16.926001 6.5819998 -1.497 11
9.9709997 3.8870001 -1.709 10
10.897 4.2249999 -1.686 9
12.035 4.6440001 -1.6619999 10
13.337 5.1220002 -1.622 7
14.939 5.7140002 -1.573 9
16.868 6.428 -1.503 11
9.9540005 3.803 -1.71 10
10.887 4.1370001 -1.688 10
12.011 4.54 -1.663 9
13.303 5.006 -1.624 9
14.866 5.5700002 -1.572 9
16.823999 6.2800002 -1.507 11
9.9440002 3.7219999 -1.711 10
10.859 4.04 -1.687 11
11.994 4.4400001 -1.665 10
13.285 4.895 -1.627 9
14.856 5.4499998 -1.576 9
16.797001 6.1370001 -1.512 11
9.9289999 3.6370001 -1.709 9
10.835 3.947 -1.6849999 10
11.983 4.3410001 -1.666 10
13.269 4.7849998 -1.628 9
14.82 5.3210001 -1.577 9
16.766001 5.9949999 -1.5140001 11
9.9320002 3.5599999 -1.71 9
10.835 3.862 -1.686 9
11.973 4.244 -1.666 10
13.24 4.6700001 -1.626 9
14.818 5.204 -1.579 9
16.754999 5.8600001 -1.517 11
9.9440002 3.487 -1.712 10
10.84 3.779 -1.687 10
11.976 4.152 -1.666 9
13.252 4.5710001 -1.628 10
14.859 5.1020002 -1.585 9
16.752001 5.7270002 -1.518 11
9.9490004 3.411 -1.712 9
10.833 3.6919999 -1.6849999 10
11.981 4.0599999 -1.6670001 9
13.284 4.4790001 -1.631 10
14.855 4.9860001 -1.584 9
16.753 5.599 -1.518 11
9.9449997 3.332 -1.709 10
10.85 3.6129999 -1.6849999 11
12.004 3.9749999 -1.668 10
13.285 4.3769999 -1.6289999 10
14.872 4.8769999 -1.584 9
16.792 5.4819999 -1.52 11
9.9650002 3.2620001 -1.709 9
10.869 3.536 -1.6849999 10
12.029 3.891 -1.668 10
13.331 4.29 -1.632 10
14.917 4.777 -1.586 9
16.860001 5.375 -1.523 11
10.002 3.197 -1.711 10
10.902 3.4619999 -1.6849999 10
12.054 3.806 -1.6670001 10
13.356 4.1939998 -1.63 11
14.946 4.6700001 -1.584 9
16.903 5.257 -1.522 11
10.025 3.1259999 -1.71 10
10.954 3.395 -1.688 10
12.104 3.7290001 -1.668 10
13.407 4.1069999 -1.631 10
15.025 4.5799999 -1.586 9
16.978001 5.151 -1.522 11
10.06 3.0599999 -1.709 10
10.988 3.3199999 -1.687 10
12.151 3.6500001 -1.6670001 10
13.467 4.0229998 -1.63 10
15.102 4.4879999 -1.586 9
17.066999 5.046 -1.521 11
10.109 2.9960001 -1.711 9
11.05 3.2539999 -1.689 10
12.207 3.573 -1.6670001 11
13.534 3.9389999 -1.63 11
15.2 4.4000001 -1.587 9
17.179001 4.947 -1.521 11
10.15 2.9300001 -1.709 10
11.092 3.181 -1.686 9
12.26 3.4949999 -1.665 11
13.605 3.8559999 -1.628 11
15.247 4.2969999 -1.581 9
17.261999 4.8410001 -1.516 11
10.206 2.869 -1.709 10
11.154 3.115 -1.686 10
12.365 3.4319999 -1.668 11
13.722 3.786 -1.631 10
15.361 4.2140002 -1.58 9
17.415001 4.7529998 -1.515 11
10.27 2.8099999 -1.71 9
11.233 3.052 -1.687 10
12.44 3.358 -1.6670001 11
13.821 3.7079999 -1.6289999 10
15.502 4.1360002 -1.58 9
17.563999 4.6609998 -1.512 12
10.337 2.75 -1.71 11
11.301 2.9849999 -1.6849999 10
12.532 3.289 -1.666 11
13.946 3.638 -1.63 9
15.635 4.0549998 -1.5779999 9
17.749001 4.579 -1.51 12
10.412 2.6919999 -1.71 10
11.397 2.925 -1.686 11
12.622 3.2190001 -1.663 11
14.064 3.5639999 -1.628 9
15.804 3.9809999 -1.577 9
17.944 4.4949999 -1.507 12
10.488 2.6329999 -1.709 10
11.486 2.8629999 -1.684 10
12.725 3.1500001 -1.661 11
14.186 3.4890001 -1.624 10
15.946 3.898 -1.572 9
18.142 4.4089999 -1.501 12
10.576 2.576 -1.7079999 11
11.579 2.799 -1.682 11
12.836 3.082 -1.658 11
14.323 3.4170001 -1.62 10
16.118 3.822 -1.567 10
18.356001 4.3270001 -1.495 13
10.651 2.516 -1.705 10
11.695 2.7409999 -1.682 10
13.003 3.027 -1.661 11
14.499 3.3529999 -1.62 11
16.322001 3.7509999 -1.564 10
18.641001 4.257 -1.492 13
10.764 2.4630001 -1.706 10
11.812 2.6819999 -1.6799999 10
13.128 2.96 -1.656 12
14.653 3.2809999 -1.614 11
16.532 3.677 -1.559 10
18.899 4.178 -1.484 13
10.861 2.4059999 -1.7029999 11
11.927 2.6210001 -1.677 9
13.282 2.8970001 -1.654 11
14.842 3.2149999 -1.6109999 11
16.763 3.6059999 -1.553 10
19.225 4.1100001 -1.478 14
10.974 2.3499999 -1.701 11
12.084 2.5669999 -1.678 10
13.466 2.839 -1.653 11
15.021 3.1440001 -1.604 11
17.051001 3.5439999 -1.55 11
19.573999 4.0430002 -1.471 14
11.089 2.293 -1.698 12
12.225 2.5079999 -1.675 10
13.64 2.777 -1.649 12
15.261 3.0840001 -1.601 11
17.275999 3.4660001 -1.539 11
19.941 3.9760001 -1.462 15
11.221 2.24 -1.696 11
12.399 2.4549999 -1.674 10
13.842 2.7190001 -1.647 11
15.513 3.0250001 -1.598 11
17.622999 3.411 -1.536 11
20.361 3.914 -1.4529999 15
11.376 2.1900001 -1.696 12
12.556 2.3959999 -1.669 10
14.06 2.6619999 -1.6440001 12
15.765 2.9619999 -1.592 11
17.943001 3.346 -1.527 12
20.801001 3.852 -1.443 16
11.517 2.135 -1.693 11
12.747 2.3429999 -1.668 11
14.262 2.6010001 -1.637 12
16.040001 2.901 -1.585 9
18.313 3.2869999 -1.52 12
21.259001 3.789 -1.429 16
11.675 2.082 -1.6900001 11
12.93 2.2850001 -1.663 11
14.511 2.5439999 -1.633 11
16.351999 2.8429999 -1.58 10
18.716999 3.23 -1.512 13
21.757999 3.727 -1.415 15
11.846 2.03 -1.687 11
13.159 2.2349999 -1.661 11
14.782 2.4890001 -1.6289999 12
16.66 2.78 -1.571 10
19.089001 3.161 -1.497 13
22.299 3.664 -1.398 9
12.047 1.98 -1.686 10
13.396 2.1819999 -1.659 11
15.043 2.428 -1.6210001 11
17.028 2.7260001 -1.564 11
19.582001 3.108 -1.488 14
23.173 3.6489999 -1.396 6
12.243 1.928 -1.683 12
13.641 2.128 -1.655 12
15.317 2.368 -1.613 11
17.386999 2.665 -1.554 11
20.138 3.0599999 -1.48 15
24.027 3.6199999 -1.386 8
12.452 1.876 -1.679 11
13.908 2.075 -1.651 12
15.655 2.3139999 -1.607 11
17.789 2.6059999 -1.543 12
20.733999 3.0090001 -1.469 16
24.879999 3.5799999 -1.37 7
12.706 1.829 -1.678 12
14.185 2.0209999 -1.645 12
15.992 2.256 -1.598 10
18.243 2.55 -1.533 12
21.295 2.9489999 -1.451 16
25.775 3.5380001 -1.349 6
12.943 1.775 -1.673 13
14.492 1.967 -1.64 12
16.347 2.197 -1.5880001 10
18.757999 2.4960001 -1.523 13
21.988001 2.9000001 -1.436 15
0 0 0 0
13.203 1.724 -1.669 12
14.801 1.9119999 -1.633 11
16.742001 2.1400001 -1.5779999 10
19.285 2.441 -1.51 13
22.799 2.8570001 -1.423 8
28.745001 3.5680001 -1.339 28
13.51 1.675 -1.6670001 12
15.156 1.859 -1.626 11
17.198 2.086 -1.5700001 11
19.924999 2.391 -1.5 14
23.806 2.8280001 -1.414 7
0 0 0 0
13.818 1.623 -1.663 12
15.499 1.799 -1.615 10
17.674999 2.029 -1.558 11
20.58 2.3369999 -1.4859999 15
24.792999 2.786 -1.396 7
30.643 3.408 -1.24 25
14.13 1.569 -1.656 13
15.89 1.743 -1.6059999 12
18.188999 1.972 -1.546 12
21.322001 2.286 -1.472 16
25.867001 2.743 -1.374 6
30.945999 3.2460001 -1.153 10
14.486 1.515 -1.65 12
16.306999 1.6849999 -1.595 11
18.798 1.918 -1.536 13
22.15 2.234 -1.456 16
0 0 0 0
31.684 3.1229999 -1.075 1
14.871 1.462 -1.645 13
16.768 1.627 -1.584 10
19.436001 1.8609999 -1.523 14
22.972 2.1730001 -1.433 9
28.82 2.6930001 -1.3380001 19
34.092999 3.1489999 -1.041 55
15.261 1.405 -1.636 12
17.264 1.567 -1.572 11
20.17 1.807 -1.512 15
24.056 2.128 -1.418 7
30.372999 2.652 -1.3049999 27
34.389999 2.964 -0.93000001 61
15.666 1.345 -1.624 12
17.84 1.5089999 -1.561 11
20.958 1.748 -1.4960001 16
25.325001 2.0829999 -1.402 6
30.761999 2.4979999 -1.211 30
35.230999 2.822 -0.82499999 46
16.122999 1.285 -1.613 12
18.464001 1.45 -1.549 12
21.780001 1.6849999 -1.476 17
26.617001 2.029 -1.377 6
31.659 2.3789999 -1.13 9
35.701 2.6440001 -0.704 48
16.618999 1.224 -1.602 13
19.15 1.388 -1.536 13
22.764 1.624 -1.4579999 11
28.6 2.0090001 -1.372 26
34.325001 2.375 -1.097 43
0 0 0 0
17.160999 1.161 -1.589 11
19.906 1.325 -1.521 14
23.860001 1.562 -1.439 9
30.096001 1.937 -1.329 31
34.955002 2.2119999 -0.98199999 45
39.705002 2.473 -0.47999999 10
17.788 1.099 -1.579 11
20.723 1.257 -1.503 15
25.282 1.507 -1.426 6
30.528 1.786 -1.228 24
35.448002 2.0380001 -0.85699999 48
41.910999 2.3670001 -0.34 20
18.469 1.033 -1.566 12
21.674999 1.189 -1.4859999 16
26.579 1.429 -1.392 6
31.722 1.674 -1.15 8
37.027 1.915 -0.745 51
40.109001 2.0339999 -0.162 1
19.176001 0.963 -1.549 13
22.636999 1.112 -1.461 12
28.488001 1.369 -1.377 24
34.278999 1.613 -1.102 45
38.290001 1.763 -0.61199999 52
40.542999 1.8279999 0.0040000002 29
20.021999 0.89099997 -1.535 14
23.891001 1.038 -1.443 9
30.174999 1.28 -1.332 29
35.201 1.4579999 -0.98400003 46
40.254002 1.628 -0.47499999 42
41.747002 1.647 0.183 13
20.969 0.81400001 -1.518 16
25.298 0.95599997 -1.42 5
30.312 1.115 -1.209 14
35.174 1.261 -0.83200002 44
41.682999 1.454 -0.31 4
40.252998 1.367 0.34999999 108
21.990999 0.73199999 -1.499 17
0 0 0 0
33.469002 1.05 -1.191 41
0 0 0 0
54.138 1.594 -0.16599999 3
40.372002 1.152 0.52999997 53
23.190001 0.64499998 -1.479 12
28.813 0.77499998 -1.368 26
34.736 0.90100002 -1.0829999 46
36.833 0.92000002 -0.54799998 1
40.132999 0.96700001 0.055 9
40.095001 0.92900002 0.708 112
24.524 0.55199999 -1.456 7
30.171 0.64899999 -1.2970001 25
35.465 0.73000002 -0.94499999 45
40.078999 0.787 -0.414 58
40.046001 0.75199997 0.23800001 95
40.018002 0.71600002 0.88999999 24
26.325001 0.45199999 -1.444 6
30.459 0.495 -1.1720001 5
36.265999 0.55599999 -0.801 25
49.151001 0.70899999 -0.28200001 5
39.973999 0.54100001 0.42399999 64
39.972 0.505 1.079 32
28.187 0.33500001 -1.415 15
30.714001 0.338 -1.039 11
30.700001 0.31099999 -0.53500003 30
30.67 0.28299999 -0.030999999 14
30.684999 0.25600001 0.47299999 41
30.679001 0.229 0.97600001 64
30.023001 0.20100001 -1.365 25
30.669001 0.178 -0.88999999 43
30.764 0.152 -0.38699999 79
30.889 0.127 0.117 85
30.916 0.101 0.62599999 63
30.934999 0.075000003 1.135 43
30.259001 0.048999999 -1.232 12
34.882999 0.027000001 -0.84600002 42
34.351002 -0.0020000001 -0.266 74
34.837002 -0.032000002 0.303 3
51.554001 -0.089000002 1.298 2
53.814999 -0.13600001 2.2420001 51
33.869999 -0.113 -1.215 44
34.368999 -0.14399999 -0.66600001 71
34.410999 -0.17200001 -0.097999997 63
55.051998 -0.32100001 0.75099999 13
53.826 -0.35600001 1.623 30
53.841999 -0.398 2.5139999 75
34.778999 -0.28799999 -1.076 43
34.278 -0.31099999 -0.49399999 77
34.568001 -0.34099999 0.072999999 54
53.93 -0.57599998 1.008 3
53.636002 -0.61400002 1.891 59
54.021999 -0.66299999 2.8039999 32
34.669998 -0.45500001 -0.89899999 17
