# .PCD v0.7 - Point Cloud Data file format
VERSION 0.7
FIELDS x y z intensity
SIZE 4 4 4 4
TYPE F F F F
COUNT 1 1 1 1
WIDTH 1929
HEIGHT 1
VIEWPOINT 0 0 0 1 0 0 0
POINTS 1929
DATA ascii
3.342 1.205 -1.841 9
3.506 1.247 -1.837 9
3.6700001 1.29 -1.829 9
3.8540001 1.339 -1.825 10
4.0430002 1.39 -1.819 9
3.1500001 1.153 -1.847 8
3.302 1.191 -1.842 9
3.4590001 1.2309999 -1.836 9
3.625 1.273 -1.83 9
3.7939999 1.317 -1.821 9
3.99 1.3710001 -1.819 9
3.1129999 1.1390001 -1.848 7
3.2620001 1.176 -1.842 9
3.4170001 1.215 -1.837 9
3.5829999 1.258 -1.832 9
3.747 1.299 -1.821 8
3.941 1.352 -1.821 10
3.072 1.124 -1.845 7
3.2290001 1.163 -1.846 9
3.3889999 1.204 -1.844 9
3.5480001 1.244 -1.836 9
3.707 1.284 -1.824 9
3.8929999 1.3329999 -1.821 9
3.04 1.112 -1.848 7
3.188 1.148 -1.844 8
3.348 1.188 -1.8430001 9
3.5020001 1.226 -1.834 8
3.6689999 1.268 -1.827 9
3.846 1.314 -1.821 10
3.013 1.101 -1.852 7
3.1589999 1.136 -1.848 8
3.3050001 1.171 -1.84 9
3.4690001 1.212 -1.8380001 8
3.6289999 1.252 -1.829 9
3.8069999 1.2970001 -1.824 9
2.9760001 1.086 -1.849 7
3.1229999 1.1210001 -1.847 8
3.273 1.1569999 -1.8430001 8
3.428 1.1950001 -1.837 8
3.5910001 1.235 -1.83 9
3.7609999 1.278 -1.824 9
2.948 1.074 -1.852 7
3.0910001 1.107 -1.848 8
3.2409999 1.143 -1.844 8
3.3929999 1.179 -1.8380001 8
3.553 1.219 -1.831 8
3.721 1.26 -1.824 9
2.915 1.0599999 -1.85 6
3.0569999 1.092 -1.846 7
3.2079999 1.128 -1.844 8
3.3599999 1.164 -1.839 8
3.5190001 1.2029999 -1.8329999 8
3.6860001 1.244 -1.826 8
0 0 0 0
3.033 1.081 -1.85 8
3.184 1.1160001 -1.849 8
3.339 1.153 -1.846 8
3.483 1.186 -1.8329999 9
3.6489999 1.226 -1.827 8
1.5089999 0.54500002 -0.97600001 4
3.0020001 1.066 -1.849 7
3.1440001 1.098 -1.844 8
3.2969999 1.1339999 -1.841 8
3.454 1.171 -1.836 9
3.6170001 1.21 -1.83 9
0 0 0 0
2.977 1.053 -1.851 7
3.1199999 1.085 -1.847 7
3.2709999 1.12 -1.8430001 8
3.421 1.154 -1.835 8
3.5880001 1.194 -1.832 8
0 0 0 0
2.9530001 1.041 -1.852 7
3.089 1.0700001 -1.845 7
3.237 1.103 -1.84 8
3.388 1.138 -1.834 8
3.5539999 1.177 -1.831 8
0 0 0 0
2.927 1.027 -1.851 7
3.0669999 1.057 -1.847 7
3.2179999 1.091 -1.845 7
3.3729999 1.126 -1.842 9
3.53 1.1619999 -1.835 8
0 0 0 0
0 0 0 0
3.0450001 1.044 -1.849 7
3.1860001 1.074 -1.842 8
3.3380001 1.108 -1.8380001 8
3.5009999 1.145 -1.835 8
0 0 0 0
1.581 0.54900002 -1.016 5
3.027 1.0319999 -1.852 7
3.171 1.063 -1.847 8
3.3199999 1.095 -1.842 8
3.471 1.128 -1.834 8
0 0 0 0
1.494 0.51599997 -0.96700001 4
2.997 1.015 -1.847 7
3.145 1.0470001 -1.846 7
3.296 1.08 -1.842 8
3.45 1.113 -1.837 8
0 0 0 0
0 0 0 0
2.9790001 1.002 -1.849 7
3.1210001 1.0319999 -1.845 7
3.267 1.063 -1.839 8
3.4219999 1.096 -1.834 8
0 0 0 0
0 0 0 0
2.9649999 0.991 -1.852 7
3.108 1.02 -1.849 8
3.2479999 1.048 -1.84 8
3.4030001 1.081 -1.837 8
0 0 0 0
0 0 0 0
2.9489999 0.97799999 -1.854 7
3.085 1.005 -1.847 7
3.2309999 1.034 -1.842 7
3.385 1.067 -1.839 8
0 0 0 0
0 0 0 0
0 0 0 0
3.066 0.99000001 -1.846 7
3.2149999 1.02 -1.844 8
3.369 1.052 -1.841 8
0 0 0 0
0 0 0 0
0 0 0 0
3.0510001 0.977 -1.847 7
3.1960001 1.005 -1.844 7
3.3510001 1.0369999 -1.841 7
0 0 0 0
0 0 0 0
1.6059999 0.51899999 -1.026 2
3.0369999 0.963 -1.848 7
3.181 0.991 -1.844 8
3.3340001 1.021 -1.841 8
0 0 0 0
0 0 0 0
1.527 0.48899999 -0.98000002 2
3.02 0.94800001 -1.846 7
3.165 0.97600001 -1.8430001 8
3.3180001 1.006 -1.841 8
0 0 0 0
0 0 0 0
1.515 0.47999999 -0.97600001 3
3.0090001 0.935 -1.847 6
3.1570001 0.963 -1.847 8
3.306 0.991 -1.8430001 8
0 0 0 0
0 0 0 0
1.505 0.472 -0.97299999 4
2.994 0.921 -1.845 6
3.1400001 0.94700003 -1.844 8
3.293 0.97600001 -1.842 8
0 0 0 0
0 0 0 0
1.5 0.465 -0.97299999 5
2.99 0.90899998 -1.849 6
3.132 0.93400002 -1.845 7
3.2809999 0.96200001 -1.8430001 7
0 0 0 0
0 0 0 0
1.49 0.45699999 -0.97000003 5
2.9809999 0.89600003 -1.849 6
3.1210001 0.92000002 -1.845 7
3.2739999 0.94800001 -1.844 7
0 0 0 0
0 0 0 0
1.49 0.45100001 -0.972 5
2.973 0.88200003 -1.849 6
3.1159999 0.90700001 -1.847 7
3.2620001 0.93199998 -1.842 8
0 0 0 0
0 0 0 0
1.492 0.44600001 -0.97600001 4
2.967 0.86900002 -1.849 7
3.1059999 0.89200002 -1.845 7
3.256 0.91799998 -1.844 7
0 0 0 0
0 0 0 0
1.488 0.43900001 -0.97500002 3
2.9630001 0.85699999 -1.851 7
3.1010001 0.87900001 -1.846 7
3.25 0.903 -1.844 8
0 0 0 0
0 0 0 0
1.48 0.43099999 -0.972 2
1.5039999 0.42899999 -0.94099998 0
3.096 0.86500001 -1.846 7
3.244 0.889 -1.8430001 7
0 0 0 0
0 0 0 0
1.477 0.42399999 -0.97000003 2
2.9489999 0.829 -1.846 9
3.096 0.852 -1.847 7
3.2409999 0.875 -1.844 7
0 0 0 0
0 0 0 0
1.47 0.41600001 -0.96700001 2
2.9130001 0.80599999 -1.826 8
3.089 0.83700001 -1.845 7
3.2390001 0.861 -1.844 7
0 0 0 0
0 0 0 0
1.4630001 0.40799999 -0.96200001 2
0 0 0 0
3.0899999 0.824 -1.846 7
3.2379999 0.847 -1.844 7
0 0 0 0
0 0 0 0
1.464 0.40099999 -0.963 2
2.0420001 0.54699999 -1.28 12
3.092 0.81099999 -1.848 6
3.24 0.833 -1.846 8
0 0 0 0
0 0 0 0
1.46 0.39399999 -0.95999998 2
2.0680001 0.54500002 -1.296 15
3.0910001 0.79699999 -1.846 8
3.243 0.81900001 -1.847 7
0 0 0 0
0 0 0 0
1.4630001 0.38800001 -0.96100003 2
0 0 0 0
3.095 0.78399998 -1.848 8
3.2460001 0.80599999 -1.847 7
0 0 0 0
0 0 0 0
1.466 0.382 -0.96200001 2
2.9289999 0.745 -1.832 9
3.1010001 0.77200001 -1.849 7
3.2490001 0.792 -1.847 7
0 0 0 0
0 0 0 0
1.471 0.37599999 -0.96399999 2
2.9590001 0.73900002 -1.848 8
3.1029999 0.75700003 -1.847 7
3.2490001 0.77600002 -1.844 7
0 0 0 0
0 0 0 0
1.4809999 0.37099999 -0.96799999 2
0 0 0 0
3.108 0.74400002 -1.847 7
3.26 0.764 -1.847 7
0 0 0 0
0 0 0 0
1.482 0.36399999 -0.96600002 2
2.9719999 0.71399999 -1.848 6
3.118 0.73199999 -1.849 7
3.267 0.75 -1.847 8
0 0 0 0
0 0 0 0
1.492 0.36000001 -0.97100002 2
2.9849999 0.70200002 -1.851 6
3.1259999 0.71799999 -1.849 7
3.27 0.73500001 -1.844 7
0 0 0 0
0 0 0 0
1.5 0.354 -0.97299999 2
2.994 0.68900001 -1.851 6
3.1289999 0.704 -1.845 7
3.283 0.722 -1.846 7
0 0 0 0
0 0 0 0
1.51 0.34900001 -0.97600001 2
3.003 0.676 -1.85 7
3.1429999 0.69099998 -1.847 7
3.2939999 0.708 -1.846 8
0 0 0 0
0 0 0 0
1.521 0.34299999 -0.97899997 2
3.016 0.66399997 -1.852 6
3.1530001 0.67799997 -1.846 8
3.3039999 0.69400001 -1.845 8
0 0 0 0
0 0 0 0
1.5319999 0.338 -0.98299998 2
3.029 0.65200001 -1.853 6
3.174 0.66600001 -1.851 7
3.323 0.68099999 -1.848 7
0 0 0 0
0 0 0 0
1.551 0.33399999 -0.99000001 2
3.039 0.63800001 -1.85 7
3.1889999 0.653 -1.852 7
3.3340001 0.667 -1.846 7
0 0 0 0
0 0 0 0
1.568 0.33000001 -0.99699998 1
3.0580001 0.62699997 -1.853 6
3.201 0.63999999 -1.85 8
3.3529999 0.65399998 -1.847 8
0 0 0 0
1.424 0.30000001 -0.94499999 5
1.599 0.32800001 -1.011 1
3.072 0.61400002 -1.852 7
3.2190001 0.62699997 -1.851 7
3.368 0.63999999 -1.847 7
0 0 0 0
1.439 0.296 -0.949 5
0 0 0 0
3.0929999 0.602 -1.855 6
3.2320001 0.61299998 -1.848 7
3.3889999 0.62699997 -1.848 8
0 0 0 0
1.457 0.292 -0.95499998 4
2.9389999 0.57200003 -1.8380001 5
3.1070001 0.588 -1.853 7
3.2539999 0.60000002 -1.85 8
3.4030001 0.61199999 -1.845 8
0 0 0 0
1.474 0.287 -0.96100003 4
2.984 0.565 -1.854 6
3.125 0.57599998 -1.852 7
3.273 0.58700001 -1.85 8
3.4300001 0.60000002 -1.848 8
0 0 0 0
1.495 0.28299999 -0.96799999 4
3.0090001 0.55400002 -1.858 6
3.1440001 0.56300002 -1.852 7
3.293 0.574 -1.849 8
3.4419999 0.58499998 -1.8430001 8
0 0 0 0
1.515 0.27900001 -0.97399998 3
3.0280001 0.542 -1.857 7
3.165 0.55000001 -1.851 7
3.3180001 0.56099999 -1.851 8
3.4719999 0.57200003 -1.847 8
0 0 0 0
1.545 0.27599999 -0.98699999 2
3.049 0.52899998 -1.857 7
3.1889999 0.53799999 -1.852 7
3.336 0.54699999 -1.847 8
3.497 0.55800003 -1.846 8
1.404 0.25099999 -0.93400002 6
1.5779999 0.273 -1 2
3.0710001 0.51700002 -1.857 7
3.211 0.52499998 -1.851 7
3.368 0.53500003 -1.851 7
3.5239999 0.54500002 -1.847 8
1.428 0.248 -0.94300002 5
1.757 0.29499999 -1.105 2
3.0929999 0.50400001 -1.8559999 7
3.2420001 0.51300001 -1.855 7
3.391 0.52200001 -1.85 8
3.5450001 0.52999997 -1.8430001 8
1.448 0.243 -0.94800001 4
0 0 0 0
3.1240001 0.493 -1.86 7
3.2639999 0.5 -1.853 7
3.4119999 0.50700003 -1.846 8
3.572 0.51599997 -1.8430001 8
1.475 0.23999999 -0.958 3
2.9979999 0.472 -1.8559999 6
3.1459999 0.47999999 -1.858 7
3.29 0.48699999 -1.852 7
3.4460001 0.495 -1.85 8
3.6059999 0.50300002 -1.844 8
1.499 0.236 -0.96499997 2
3.029 0.461 -1.859 7
3.1700001 0.46700001 -1.8559999 7
3.322 0.47499999 -1.854 8
3.4690001 0.48100001 -1.846 8
3.635 0.49000001 -1.8430001 8
1.534 0.233 -0.97899997 2
3.0510001 0.44800001 -1.8559999 7
3.197 0.45500001 -1.855 8
3.3499999 0.461 -1.853 8
3.5009999 0.46799999 -1.846 8
3.6719999 0.47600001 -1.845 8
1.576 0.23100001 -0.99599999 2
3.085 0.43700001 -1.86 7
3.2309999 0.44299999 -1.857 7
3.382 0.449 -1.853 8
3.5339999 0.45500001 -1.846 9
3.704 0.46200001 -1.8430001 8
0 0 0 0
3.1140001 0.42500001 -1.86 7
3.2509999 0.42899999 -1.851 8
3.414 0.43599999 -1.853 9
3.569 0.44100001 -1.846 9
3.743 0.449 -1.845 9
2.9960001 0.40700001 -1.858 12
3.145 0.41299999 -1.86 7
3.293 0.41800001 -1.857 8
3.444 0.42199999 -1.851 8
3.605 0.428 -1.847 9
3.7720001 0.43399999 -1.84 8
3.0339999 0.39700001 -1.863 7
3.1719999 0.40000001 -1.857 8
3.322 0.405 -1.855 7
3.4860001 0.41100001 -1.855 8
3.638 0.414 -1.844 8
3.8180001 0.421 -1.8430001 8
3.059 0.384 -1.859 7
3.2060001 0.38800001 -1.858 8
3.3599999 0.39300001 -1.857 8
3.5179999 0.39700001 -1.852 8
3.674 0.40099999 -1.8430001 9
3.848 0.40599999 -1.8380001 8
3.0929999 0.373 -1.86 7
3.243 0.37599999 -1.86 8
3.3970001 0.38 -1.857 8
3.5480001 0.38299999 -1.848 8
3.7160001 0.38699999 -1.844 9
3.8970001 0.39300001 -1.841 8
3.1229999 0.36000001 -1.858 7
3.28 0.36399999 -1.86 7
3.431 0.36700001 -1.855 8
3.5899999 0.37 -1.849 9
3.7509999 0.37400001 -1.841 9
3.938 0.37900001 -1.839 9
3.1589999 0.34900001 -1.859 7
3.3080001 0.35100001 -1.8559999 8
3.4660001 0.354 -1.853 9
3.6340001 0.35800001 -1.851 8
3.8010001 0.361 -1.844 9
3.98 0.36399999 -1.837 9
3.2 0.33700001 -1.862 7
3.345 0.33899999 -1.855 9
3.5109999 0.34200001 -1.8559999 8
3.6730001 0.34400001 -1.849 8
3.8380001 0.347 -1.839 9
4.0300002 0.35100001 -1.8380001 9
3.234 0.32499999 -1.859 7
3.391 0.32699999 -1.859 8
3.549 0.329 -1.853 9
3.7190001 0.331 -1.85 8
3.891 0.333 -1.842 9
4.0809999 0.336 -1.837 9
3.276 0.31299999 -1.8609999 8
3.431 0.315 -1.858 9
3.5899999 0.31600001 -1.852 9
3.756 0.317 -1.845 9
3.9349999 0.31900001 -1.839 9
4.1350002 0.322 -1.8380001 9
3.3080001 0.301 -1.8559999 7
3.471 0.30199999 -1.857 9
3.635 0.303 -1.852 9
3.8039999 0.30399999 -1.845 9
3.9909999 0.30599999 -1.842 10
4.1929998 0.30899999 -1.839 10
3.352 0.289 -1.858 7
3.5139999 0.28999999 -1.8559999 9
3.684 0.29100001 -1.853 8
3.8440001 0.29100001 -1.841 9
4.0430002 0.29300001 -1.841 10
4.2470002 0.294 -1.8380001 10
3.388 0.27599999 -1.854 8
3.5650001 0.278 -1.859 9
3.73 0.278 -1.852 9
3.9030001 0.278 -1.844 9
4.0910001 0.278 -1.8380001 9
4.3119998 0.28 -1.84 11
3.4360001 0.26499999 -1.8559999 8
3.598 0.264 -1.851 9
3.7750001 0.26499999 -1.849 9
3.9549999 0.264 -1.8430001 9
4.152 0.26499999 -1.839 10
4.3709998 0.266 -1.839 10
3.4809999 0.252 -1.855 8
3.6459999 0.252 -1.851 10
3.8329999 0.252 -1.852 9
4.006 0.25099999 -1.841 9
4.2150002 0.25099999 -1.841 11
4.4289999 0.252 -1.836 11
3.53 0.23999999 -1.8559999 8
3.7 0.23999999 -1.852 9
3.8770001 0.23899999 -1.847 9
4.0679998 0.23800001 -1.8430001 9
4.2709999 0.237 -1.8380001 11
4.4910002 0.237 -1.834 10
3.575 0.228 -1.854 8
3.75 0.227 -1.852 10
3.9349999 0.226 -1.848 9
4.1290002 0.22499999 -1.8430001 9
4.3439999 0.22400001 -1.842 11
4.5609999 0.223 -1.834 10
3.6300001 0.21600001 -1.8559999 9
3.806 0.215 -1.852 9
3.9860001 0.213 -1.845 10
4.1900001 0.211 -1.8430001 10
4.4050002 0.20999999 -1.839 11
4.6279998 0.208 -1.832 11
3.6819999 0.204 -1.8559999 9
3.8599999 0.20200001 -1.852 9
4.0450001 0.2 -1.845 10
4.2509999 0.198 -1.842 11
4.473 0.19599999 -1.839 10
4.7010002 0.19400001 -1.831 10
3.7349999 0.192 -1.8559999 8
3.9089999 0.189 -1.847 10
4.1090002 0.18700001 -1.845 10
4.3169999 0.184 -1.841 11
4.5409999 0.182 -1.836 11
4.776 0.17900001 -1.829 11
3.793 0.18000001 -1.8559999 9
3.9760001 0.176 -1.85 10
4.1700001 0.17299999 -1.844 11
4.3800001 0.17 -1.8380001 11
4.6069999 0.167 -1.8329999 11
4.8569999 0.164 -1.829 11
3.855 0.168 -1.857 9
4.0300002 0.164 -1.846 10
4.237 0.16 -1.8430001 11
4.4640002 0.15700001 -1.842 11
4.6859999 0.153 -1.8329999 11
4.9359999 0.149 -1.826 11
3.908 0.155 -1.854 9
4.098 0.15099999 -1.847 10
4.3099999 0.147 -1.844 11
4.5370002 0.14300001 -1.841 11
4.7659998 0.139 -1.832 11
5.027 0.13500001 -1.827 12
3.96 0.142 -1.849 8
4.1620002 0.138 -1.846 11
4.3870001 0.134 -1.846 11
4.6040001 0.12899999 -1.837 11
4.8470001 0.125 -1.83 11
5.1230001 0.12 -1.827 12
4.026 0.13 -1.849 9
4.2280002 0.126 -1.844 11
4.4549999 0.121 -1.8430001 11
4.684 0.116 -1.836 11
4.9359999 0.11 -1.83 11
5.2150002 0.105 -1.826 11
4.0869999 0.118 -1.846 10
4.3000002 0.113 -1.844 11
4.5349998 0.108 -1.844 11
4.763 0.102 -1.8329999 10
5.0289998 0.096000001 -1.83 12
5.3169999 0.090000004 -1.825 12
4.1560001 0.105 -1.846 10
4.3769999 0.1 -1.845 10
4.6100001 0.093999997 -1.841 11
4.8540001 0.088 -1.835 11
5.1129999 0.081 -1.825 11
5.4109998 0.074000001 -1.821 12
4.2319999 0.093000002 -1.847 10
4.4439998 0.086999997 -1.84 11
4.6789999 0.081 -1.835 11
4.9390001 0.074000001 -1.832 12
5.2160001 0.067000002 -1.826 11
5.5170002 0.059 -1.819 12
4.3039999 0.081 -1.846 10
4.5289998 0.075000003 -1.842 11
4.77 0.068000004 -1.836 11
5.0359998 0.061000001 -1.8329999 11
5.3239999 0.052999999 -1.827 12
5.6329999 0.044 -1.8200001 12
4.382 0.068999998 -1.846 10
4.612 0.061999999 -1.842 11
4.8540001 0.054000001 -1.834 11
5.1230001 0.046 -1.8279999 11
5.4320002 0.037999999 -1.827 12
5.743 0.028999999 -1.816 12
4.4650002 0.057 -1.847 10
4.6849999 0.048999999 -1.836 10
4.9450002 0.041000001 -1.832 12
5.2350001 0.033 -1.831 11
5.5279999 0.023 -1.8200001 12
5.869 0.013 -1.8150001 13
4.5430002 0.044 -1.845 11
4.7839999 0.035999998 -1.839 11
5.0500002 0.028000001 -1.834 11
5.342 0.018999999 -1.83 11
5.6469998 0.0089999996 -1.8200001 12
5.9829998 -0.001 -1.809 12
4.6230001 0.032000002 -1.842 10
4.8629999 0.023 -1.8329999 12
5.1560001 0.014 -1.835 12
5.4429998 0.0040000002 -1.825 11
5.7849998 -0.0049999999 -1.823 12
6.112 -0.017000001 -1.806 13
4.717 0.018999999 -1.8430001 10
4.9629998 0.0099999998 -1.8329999 11
5.2610002 0.001 -1.8329999 12
5.573 -0.0089999996 -1.8279999 11
5.8829999 -0.02 -1.812 12
6.27 -0.033 -1.809 12
4.8039999 0.0070000002 -1.84 10
5.066 -0.001 -1.8329999 11
5.3769999 -0.012 -1.834 11
5.684 -0.023 -1.823 11
6.0380001 -0.035 -1.817 12
6.4169998 -0.048999999 -1.806 11
4.8870001 -0.0040000002 -1.834 10
5.1700001 -0.014 -1.831 12
5.4780002 -0.025 -1.8279999 12
5.8109999 -0.037 -1.821 11
6.184 -0.050999999 -1.816 12
6.5830002 -0.064999998 -1.806 12
4.9920001 -0.017000001 -1.835 11
5.2849998 -0.027000001 -1.832 10
5.5999999 -0.039000001 -1.827 12
5.9559999 -0.052000001 -1.824 11
6.3330002 -0.066 -1.8150001 11
6.7480001 -0.081 -1.804 13
5.0939999 -0.028999999 -1.834 11
5.3940001 -0.039999999 -1.83 12
5.724 -0.052000001 -1.826 12
6.0840001 -0.066 -1.8200001 11
6.4790001 -0.079999998 -1.811 12
6.915 -0.097000003 -1.801 13
5.2160001 -0.041000001 -1.837 11
5.5029998 -0.052999999 -1.825 12
5.8590002 -0.066 -1.825 13
6.2259998 -0.079999998 -1.817 12
6.6399999 -0.096000001 -1.809 13
7.0939999 -0.113 -1.798 12
5.3179998 -0.052999999 -1.832 11
5.625 -0.064999998 -1.823 12
5.9970002 -0.079000004 -1.823 12
6.381 -0.093999997 -1.8150001 11
6.8119998 -0.111 -1.807 11
7.296 -0.13 -1.7970001 12
5.4299998 -0.064999998 -1.829 11
5.7610002 -0.078000002 -1.824 12
6.1370001 -0.093000002 -1.821 12
6.546 -0.109 -1.8150001 11
6.9970002 -0.127 -1.806 13
7.494 -0.147 -1.793 12
5.553 -0.077 -1.8279999 11
5.8959999 -0.090999998 -1.822 12
6.2849998 -0.106 -1.818 11
6.7150002 -0.123 -1.812 12
7.1999998 -0.14300001 -1.806 12
7.717 -0.164 -1.7920001 12
5.6859999 -0.089000002 -1.8279999 11
6.0380001 -0.104 -1.821 12
6.4380002 -0.12 -1.8150001 11
6.8839998 -0.138 -1.808 12
7.3969998 -0.15800001 -1.802 12
7.9429998 -0.18000001 -1.7869999 13
5.8169999 -0.101 -1.826 11
6.1810002 -0.116 -1.817 12
6.6079998 -0.133 -1.814 12
7.0749998 -0.152 -1.806 11
7.5929999 -0.17399999 -1.795 11
8.1960001 -0.198 -1.786 12
5.9559999 -0.113 -1.824 11
6.3390002 -0.12899999 -1.816 12
6.777 -0.147 -1.8099999 12
7.2709999 -0.167 -1.803 11
7.8260002 -0.19 -1.794 12
8.4499998 -0.21600001 -1.781 12
6.1059999 -0.125 -1.823 11
6.5 -0.142 -1.813 12
6.9559999 -0.16 -1.806 12
7.4889998 -0.182 -1.802 11
8.0649996 -0.206 -1.79 11
8.7180004 -0.233 -1.775 12
6.2550001 -0.13699999 -1.819 12
6.6659999 -0.154 -1.809 12
7.1539998 -0.17399999 -1.8049999 12
7.7129998 -0.197 -1.8 10
8.3149996 -0.222 -1.786 12
8.9969997 -0.25 -1.768 13
6.4159999 -0.148 -1.817 11
6.8520002 -0.16599999 -1.808 12
7.355 -0.18700001 -1.801 12
7.9499998 -0.211 -1.7970001 11
8.5719995 -0.23800001 -1.779 12
9.2889996 -0.26800001 -1.7589999 12
6.5949998 -0.16 -1.817 12
7.0339999 -0.178 -1.803 12
7.5780001 -0.20100001 -1.799 12
8.184 -0.226 -1.79 11
8.849 -0.25400001 -1.772 13
9.6309996 -0.28600001 -1.7539999 12
6.7690001 -0.171 -1.813 12
7.244 -0.191 -1.802 11
7.8189998 -0.214 -1.798 11
8.4259996 -0.23999999 -1.781 12
9.1389999 -0.27000001 -1.765 12
9.9860001 -0.30500001 -1.748 12
6.9510002 -0.182 -1.809 12
7.4770002 -0.204 -1.804 10
8.0530005 -0.228 -1.793 11
8.7089996 -0.255 -1.778 13
9.4630003 -0.28600001 -1.7589999 12
10.371 -0.32300001 -1.7410001 13
7.1440001 -0.193 -1.8049999 12
7.671 -0.215 -1.793 12
8.2980003 -0.23999999 -1.786 12
8.9840002 -0.26899999 -1.768 12
9.8059998 -0.30199999 -1.753 12
10.769 -0.34200001 -1.7309999 12
7.3540001 -0.204 -1.802 11
7.9070001 -0.227 -1.79 12
8.5670004 -0.25299999 -1.78 12
9.2819996 -0.28299999 -1.7589999 12
10.175 -0.31900001 -1.745 13
11.225 -0.36199999 -1.724 13
7.573 -0.215 -1.799 11
8.1590004 -0.23800001 -1.786 11
8.8409996 -0.266 -1.773 13
9.6239996 -0.29699999 -1.7539999 12
10.572 -0.33500001 -1.737 13
11.696 -0.38100001 -1.714 13
7.823 -0.22499999 -1.8 11
8.415 -0.249 -1.78 12
9.1350002 -0.278 -1.765 12
9.9809999 -0.31200001 -1.748 13
11.001 -0.352 -1.729 13
12.219 -0.40099999 -1.705 15
8.0640001 -0.235 -1.796 12
8.6990004 -0.25999999 -1.777 13
9.4560003 -0.28999999 -1.7589999 12
10.376 -0.32600001 -1.743 13
11.457 -0.36899999 -1.719 13
12.8 -0.421 -1.6950001 14
8.302 -0.244 -1.7869999 11
8.9770002 -0.271 -1.767 12
9.8050003 -0.303 -1.752 12
10.782 -0.34 -1.733 13
11.96 -0.38600001 -1.71 15
13.448 -0.44299999 -1.686 14
8.5679998 -0.25299999 -1.78 12
9.2799997 -0.28099999 -1.7589999 12
10.178 -0.315 -1.745 13
11.239 -0.35499999 -1.726 13
12.517 -0.403 -1.7 15
14.149 -0.465 -1.674 15
8.8509998 -0.26199999 -1.773 12
9.6239996 -0.29100001 -1.753 12
10.574 -0.32600001 -1.7359999 13
11.737 -0.36899999 -1.7180001 14
13.135 -0.421 -1.6900001 14
14.973 -0.48899999 -1.664 14
9.1630001 -0.271 -1.767 12
9.9980001 -0.301 -1.748 12
11.019 -0.338 -1.729 13
12.251 -0.38299999 -1.705 14
13.82 -0.43900001 -1.6799999 17
15.842 -0.51200002 -1.649 15
9.4849997 -0.27900001 -1.76 12
10.386 -0.31 -1.74 14
11.487 -0.34900001 -1.719 14
12.874 -0.398 -1.699 15
14.593 -0.45899999 -1.67 14
16.714001 -0.53399998 -1.623 15
9.8520002 -0.28600001 -1.755 13
10.806 -0.31900001 -1.7309999 13
12.008 -0.36000001 -1.71 15
13.525 -0.412 -1.688 15
15.464 -0.47799999 -1.66 15
17.761 -0.55699998 -1.6 11
10.22 -0.29300001 -1.7460001 13
11.263 -0.32800001 -1.724 13
12.583 -0.37099999 -1.7029999 15
14.214 -0.42500001 -1.674 17
16.323999 -0.495 -1.638 15
18.938999 -0.58200002 -1.573 13
10.621 -0.29899999 -1.737 13
11.754 -0.33500001 -1.714 14
13.213 -0.382 -1.693 14
15.062 -0.44100001 -1.6670001 14
17.264999 -0.51200002 -1.6109999 13
20.365 -0.611 -1.55 15
11.065 -0.30399999 -1.73 13
12.291 -0.34200001 -1.7029999 15
13.897 -0.391 -1.682 17
15.909 -0.45300001 -1.649 14
18.355 -0.52899998 -1.585 12
21.957001 -0.639 -1.517 14
11.544 -0.30899999 -1.721 13
12.892 -0.34900001 -1.6950001 14
14.602 -0.39899999 -1.665 15
16.799999 -0.46399999 -1.623 14
19.695999 -0.54900002 -1.562 14
23.860001 -0.671 -1.484 9
12.062 -0.31200001 -1.712 14
13.562 -0.354 -1.686 16
15.495 -0.40900001 -1.6569999 15
17.811001 -0.47400001 -1.596 11
21.204 -0.56900001 -1.536 16
26.566999 -0.71899998 -1.47 11
12.63 -0.315 -1.7029999 13
14.253 -0.35800001 -1.6720001 15
16.377001 -0.41499999 -1.637 15
19.033001 -0.486 -1.574 13
22.978001 -0.59100002 -1.507 13
28.916 -0.74800003 -1.401 23
13.269 -0.317 -1.694 15
15.047 -0.361 -1.66 15
17.292999 -0.41800001 -1.608 14
20.386 -0.495 -1.545 15
24.913 -0.60900003 -1.461 6
29.615999 -0.727 -1.232 12
13.958 -0.317 -1.684 15
15.93 -0.36300001 -1.645 14
18.431999 -0.42199999 -1.585 12
22.054001 -0.50700003 -1.5190001 14
27.572001 -0.63599998 -1.427 21
29.636 -0.68599999 -1.03 41
14.672 -0.31400001 -1.666 15
16.813 -0.361 -1.619 14
19.753 -0.42500001 -1.562 14
23.958 -0.51599997 -1.484 8
29.222 -0.63 -1.311 31
29.596001 -0.639 -0.82700002 49
15.55 -0.31 -1.6569999 13
17.819 -0.35600001 -1.591 11
21.229 -0.42399999 -1.5319999 16
26.796 -0.53600001 -1.476 21
29.584999 -0.59100002 -1.125 59
29.589001 -0.58999997 -0.625 75
16.417999 -0.303 -1.633 14
19.045 -0.34999999 -1.569 13
23.046 -0.42300001 -1.5039999 12
28.951 -0.53100002 -1.397 28
29.618 -0.54100001 -0.926 34
29.65 -0.54000002 -0.426 22
17.377001 -0.292 -1.609 11
20.42 -0.34200001 -1.541 15
25.049999 -0.417 -1.465 7
29.485001 -0.48800001 -1.223 14
0 0 0 0
33.859001 -0.55400002 -0.25999999 37
18.462999 -0.27900001 -1.584 12
21.972 -0.329 -1.51 16
27.549 -0.40900001 -1.425 26
33.182999 -0.48800001 -1.154 43
38.939999 -0.56699997 -0.69700003 53
70.192001 -1.012 -0.072999999 18
19.806 -0.26199999 -1.563 14
23.771 -0.31099999 -1.472 8
29.162001 -0.37599999 -1.312 30
33.978001 -0.43200001 -0.95300001 44
38.98 -0.48800001 -0.43599999 13
38.951 -0.47999999 0.22 45
21.232 -0.23999999 -1.5319999 16
26.382999 -0.29300001 -1.457 12
32.748001 -0.35600001 -1.255 40
34.646999 -0.36899999 -0.74199998 7
40.368 -0.41999999 -0.186 57
38.983002 -0.396 0.47499999 73
22.969999 -0.212 -1.503 13
28.579 -0.257 -1.387 29
34.078999 -0.29699999 -1.0779999 44
39.013 -0.329 -0.57700002 35
39.007999 -0.31799999 0.077 85
38.887001 -0.30500001 0.73199999 1
25.122999 -0.177 -1.476 8
29.361 -0.199 -1.229 10
0 0 0 0
39.063 -0.23899999 -0.31999999 92
39.716999 -0.23 0.34099999 64
39.037998 -0.213 0.98900002 80
27.427999 -0.131 -1.428 20
33.269001 -0.148 -1.1720001 45
37.801998 -0.155 -0.69800001 12
39.07 -0.146 -0.067000002 9
39.070999 -0.131 0.588 106
50.508999 -0.15000001 1.607 1
29.177999 -0.071000002 -1.329 23
34.497002 -0.07 -0.991 52
39.116001 -0.063000001 -0.46599999 53
39.104 -0.046999998 0.189 34
39.167 -0.029999999 0.84600002 62
53.48 -0.018999999 2.049 13
32.396999 0.0020000001 -1.261 38
35.361 0.017000001 -0.78399998 47
50.601002 0.048999999 -0.27200001 13
39.271 0.056000002 0.44600001 55
39.159 0.074000001 1.098 40
54.189999 0.12800001 2.427 38
33.736 0.090000004 -1.0930001 42
38.909 0.122 -0.61000001 56
39.174999 0.142 0.039999999 14
39.18 0.162 0.69499999 99
100.596 0.472 3.4719999 31
102.682 0.537 5.2620001 34
35.02 0.189 -0.90499997 47
40.632 0.241 -0.37200001 3
39.241001 0.25400001 0.29499999 79
39.217999 0.27599999 0.94999999 103
101.521 0.77399999 4.1599998 35
103.441 0.847 5.9629998 27
34.016998 0.28 -0.65899998 1
48.499001 0.42699999 -0.131 74
39.807999 0.373 0.55299997 63
40.647999 0.40599999 1.242 10
101.072 1.069 4.7729998 10
102.94 1.154 6.5809999 26
0 0 0 0
40.709999 0.47799999 0.14399999 2
48.389 0.59799999 0.97399998 21
85.212997 1.108 3.135 31
101.939 1.393 5.4510002 32
102.413 1.469 7.1869998 25
40.717999 0.57700002 -0.273 46
39.405998 0.58499998 0.389 55
40.752998 0.63200003 1.079 48
102.178 1.654 4.4029999 28
102.555 1.733 6.1279998 10
104.097 1.837 7.9629998 23
40.619999 0.704 -0.016000001 59
40.797001 0.73500001 0.65700001 38
85.018997 1.5930001 2.7809999 31
104.294 2.029 5.1409998 14
103.52 2.0899999 6.8239999 29
104.349 2.188 8.6199999 32
39.404999 0.80900002 0.226 35
40.834 0.86799997 0.90799999 23
85.130997 1.875 3.3039999 17
0 0 0 0
105.374 2.4860001 7.5900002 11
0 0 0 0
40.860001 0.97500002 0.486 43
40.858002 1.006 1.159 54
102.784 2.615 4.618 18
0 0 0 0
0 0 0 0
0 0 0 0
40.898998 1.1160001 0.73500001 44
84.533997 2.378 2.9130001 33
104.477 3.026 5.3239999 26
0 0 0 0
0 0 0 0
65.517998 2.0739999 6.6090002 11
85.348999 2.632 2.0510001 18
83.605003 2.6489999 3.3829999 14
0 0 0 0
0 0 0 0
0 0 0 0
64.819 2.2950001 6.9260001 34
84.350998 2.9070001 2.529 18
0 0 0 0
0 0 0 0
0 0 0 0
64.902 2.48 6.2329998 44
66.616997 2.615 7.513 28
84.893997 3.2409999 3.0469999 28
0 0 0 0
0 0 0 0
65.063004 2.6760001 5.553 9
66.542 2.806 6.7859998 4
0 0 0 0
85.805 3.6070001 3.5840001 7
0 0 0 0
0 0 0 0
66.271004 2.9890001 6.0440001 4
62 2.8640001 6.6859999 19
63.306 2.9960001 7.8850002 4
0 0 0 0
0 0 0 0
0 0 0 0
67.205002 3.306 6.5190001 35
61.963001 3.119 7.0409999 48
63.169998 3.2539999 8.2349997 37
0 0 0 0
65.416 3.3440001 4.5630002 29
67.255997 3.5120001 5.7969999 9
0 0 0 0
61.689999 3.3659999 7.3649998 29
61.460999 3.4300001 8.3660002 54
65.519997 3.5510001 3.872 16
67.223999 3.72 5.0739999 46
67.188004 3.7969999 6.178 8
62.292 3.595 6.7589998 5
61.699001 3.6359999 7.7199998 32
61.971001 3.7309999 8.7910004 40
67.056999 3.9170001 4.3379998 28
67.226997 4.007 5.4499998 7
0 0 0 0
61.861 3.8380001 7.0560002 17
61.560001 3.9000001 8.0500002 49
61.911999 4.0029998 9.1309996 45
0 0 0 0
0 0 0 0
66.462997 4.3340001 6.8499999 37
62.319 4.1430001 7.4530001 22
61.806999 4.1919999 8.4219999 48
66.676003 4.6149998 10.204 34
0 0 0 0
63.667999 4.3559999 5.862 5
63.318001 4.415 6.8730001 14
61.915001 4.401 7.7490001 44
61.679001 4.4710002 8.7480001 36
63.325001 4.6810002 10.045 5
64.875999 4.651 5.2680001 10
63.669998 4.6490002 6.2119999 52
62.098 4.618 7.0809999 6
51.036999 3.868 6.6680002 65
63.514999 4.9050002 9.3579998 24
63.418999 4.993 10.41 25
63.98 4.8870001 5.5440001 67
66.594002 5.1750002 6.8579998 4
50.839001 4.0219998 6.073 42
50.574001 4.0749998 6.8800001 66
51.355999 4.2150002 7.8439999 42
63.536999 5.3099999 10.772 35
65.417 5.3060002 6.0170002 3
64.998001 5.3610001 7.039 14
50.284 4.2199998 6.2740002 58
50.360001 4.302 7.119 58
51.212002 4.4520001 8.0939999 48
63.235001 5.598 11.06 11
65.376999 5.6160002 6.3540001 5
50.418999 4.4039998 5.7249999 15
50.073002 4.4499998 6.513 61
50.203999 4.5370002 7.362 74
63.118999 5.8049998 10.313 39
63.262001 5.9229999 11.403 5
0 0 0 0
50.652 4.6750002 6.0139999 29
50.133999 4.7049999 6.7789998 72
51.110001 4.8779998 7.7610002 43
51.647999 5.013 8.7069998 5
0 0 0 0
52.153 4.9980001 5.6079998 4
50.914001 4.9559999 6.3060002 48
50.751999 5.0209999 7.1240001 65
51.367001 5.1659999 8.0649996 70
51.694 5.2870002 8.9829998 35
30.124001 3.1329999 5.744 32
50.632 5.1090002 5.698 31
50.168999 5.1399999 6.4660001 66
51.040001 5.3130002 7.421 55
30.639 3.2409999 4.9660001 1
30.469 3.277 5.4499998 7
30.136 3.2950001 5.901 42
50.492001 5.3559999 5.934 21
50.548 5.4439998 6.7680001 38
30.264 3.3099999 4.552 16
30.211 3.3570001 5.0479999 44
30.177999 3.4089999 5.552 37
30.396 3.49 6.1079998 44
51.326 5.7160001 6.2859998 21
51.348999 5.8049998 7.1300001 28
30.297001 3.477 4.7080002 42
30.021 3.4990001 5.165 54
29.701 3.517 5.6100001 53
29.625999 3.5639999 6.099 25
30.278999 3.5339999 3.8529999 52
30.247 3.582 4.3449998 48
30.09 3.6170001 4.8210001 43
30.035 3.665 5.3140001 50
30.193001 3.744 5.8530002 37
30.214001 3.8050001 6.3709998 32
50.051998 6.1149998 6.6100001 4
49.577999 6.145 7.3610001 20
30.353001 3.816 5.0089998 35
30.266001 3.862 5.5 34
30.639999 3.97 6.086 9
30.799999 4.0539999 6.6440001 16
51.125 6.5289998 6.9920001 5
48.683998 6.303 7.4559999 44
30.347 3.9860001 5.151 18
30.193001 4.0250001 5.631 22
30.777 4.164 6.2600002 12
31.785999 4.3670001 7.0100002 3
48.946999 6.5240002 6.9180002 8
48.394001 6.5380001 7.6339998 62
48.277 6.6160002 8.4180002 64
50.993 7.0879998 9.7460003 18
0 0 0 0
27.969999 4.007 6.3010001 9
48.338001 6.7199998 7.053 34
48.285 6.803 7.8390002 56
48.459 6.921 8.6719999 66
0 0 0 0
0 0 0 0
27.924999 4.1659999 6.421 46
48.313 6.993 7.2649999 44
48.205002 7.072 8.0430002 54
48.263 7.178 8.8570004 74
0 0 0 0
0 0 0 0
28.02 4.349 6.572 31
48.450001 7.2940001 7.4959998 40
48.146 7.3439999 8.243 69
49.070999 7.585 9.2189999 52
0 0 0 0
0 0 0 0
27.964001 4.5100002 6.6849999 40
47.764999 7.473 7.5939999 55
47.823002 7.5799999 8.3929996 59
49.008999 7.8730001 9.4230003 16
0 0 0 0
0 0 0 0
28.099001 4.7049999 6.8429999 44
47.410999 7.7020001 7.7399998 57
47.855 7.8740001 8.6040001 56
0 0 0 0
0 0 0 0
28.039 4.802 6.4640002 30
28.089001 4.8800001 6.9629998 32
47.555 8.0170002 7.9629998 62
48.023998 8.1969995 8.8360004 50
0 0 0 0
0 0 0 0
0 0 0 0
27.847 5.0159998 7.0250001 52
48.126999 8.4099998 8.2539997 52
49.175999 8.6999998 9.2489996 61
0 0 0 0
0 0 0 0
0 0 0 0
27.775999 5.1830001 7.1269999 57
47.876999 8.6669998 8.4040003 65
0 0 0 0
0 0 0 0
0 0 0 0
28.237 5.381 6.8709998 2
27.82 5.3740001 7.256 30
48.069 9.007 8.6280003 57
49.217999 9.3319998 9.6529999 21
0 0 0 0
0 0 0 0
0 0 0 0
27.85 5.5609999 7.3769999 3
48.82 9.4560003 8.948 80
0 0 0 0
0 0 0 0
0 0 0 0
0 0 0 0
33.521999 6.9190001 9.0170002 44
48.806999 9.7679996 9.1300001 54
0 0 0 0
0 0 0 0
0 0 0 0
30.691999 6.4520001 7.8340001 16
0 0 0 0
49.015999 10.129 9.3479996 77
0 0 0 0
0 0 0 0
0 0 0 0
30.735001 6.6690001 7.9650002 37
31.132999 6.8449998 8.618 39
48.567001 10.355 9.4379997 12
0 0 0 0
0 0 0 0
30.74 6.7919998 7.5430002 4
30.66 6.8610001 8.0600004 37
30.209999 6.8509998 8.4790001 52
0 0 0 0
0 0 0 0
34.605999 7.7859998 8.0190001 4
31.679001 7.2150002 7.8889999 29
30.875 7.1199999 8.2309999 43
30.062 7.0240002 8.5489998 36
0 0 0 0
33.237 7.6139998 7.25 32
31.187 7.2280002 7.335 3
30.312 7.1100001 7.6550002 37
29.834999 7.086 8.0600004 41
29.941 7.2049999 8.6260004 37
0 0 0 0
33.272999 7.849 7.3709998 43
31.200001 7.4460001 7.4460001 21
29.674 7.1659999 7.598 35
28.797001 7.0409999 7.882 34
29.701 7.3569999 8.6619997 36
33.332001 8.0030003 6.9289999 19
29.858999 7.2490001 6.7119999 1
31.066 7.6269999 7.5170002 39
28.851 7.1669998 7.4840002 53
28.6 7.1929998 7.9260001 33
29.389 7.487 8.6750002 36
30.183001 7.4549999 6.3709998 25
30.989 7.7360001 7.066 27
29.570999 7.467 7.2529998 36
28.642 7.3179998 7.526 37
28.322001 7.3260002 7.9450002 36
28.804001 7.5450001 8.6009998 35
30.139999 7.651 6.454 52
30.653999 7.8660002 7.085 38
29.299 7.6040001 7.2779999 34
28.561001 7.4990001 7.5960002 47
27.962999 7.4320002 7.9369998 45
28.24 7.6020002 8.5279999 53
30.142 7.862 6.546 37
30.284 7.9850001 7.0929999 60
28.524 7.6040001 7.1750002 37
28.256001 7.6209998 7.605 38
27.848 7.6020002 7.993 32
28.309 7.8260002 8.6400003 46
30.197001 8.0889997 6.645 37
30.551001 8.2720003 7.2449999 38
27.955999 7.6539998 7.1170001 42
27.924999 7.7329998 7.6020002 35
27.809999 7.7950001 8.0699997 53
28.447001 8.0740004 8.7740002 35
30.715 8.4460001 6.8460002 44
28.358999 7.8790002 6.8070002 33
27.947001 7.8509998 7.1960001 32
28.006001 7.9580002 7.7069998 39
28.096001 8.0799999 8.2379999 33
29.332001 8.54 9.1379995 38
29.728001 8.3859997 6.7069998 21
28.138 8.0220003 6.8319998 34
28.15 8.1120005 7.3270001 33
27.965 8.151 7.777 54
27.879 8.2229996 8.257 44
30.610001 9.1420002 9.6300001 39
29.128 8.4280005 6.6500001 69
0 0 0 0
28.275 8.3549995 7.4380002 38
28.615 8.5530005 8.0380001 39
28.177 8.5220003 8.4280005 37
30.347 9.2910004 9.6370001 39
29.674999 8.8009996 6.8520002 37
29.52 8.8459997 7.3260002 44
28.075001 8.5039997 7.461 41
27.962999 8.5640001 7.9320002 37
28.146999 8.7229996 8.4969997 33
30.111 9.4449997 9.6470003 39
29.827 9.0620003 6.9590001 36
0 0 0 0
28.575001 8.8640003 7.6669998 36
28.313999 8.8830004 8.1070004 42
28.097 8.9189997 8.5579996 33
29.815001 9.5790005 9.6359997 42
30.097 9.3640003 7.0949998 37
28.115999 8.8369999 7.1170001 1
27.979 8.8870001 7.5770001 46
28.724001 9.2259998 8.2969999 36
30.167 9.8030005 9.2670002 39
29.915001 9.8409996 9.75 43
29.67 9.4490004 7.0630002 36
28.870001 9.29 7.3759999 36
27.874001 9.0629997 7.6170001 49
28.073 9.2290001 8.1789999 12
30.330999 10.088 9.3950005 23
29.656 9.9840002 9.7419996 3
29.055 9.4689999 6.9790001 35
28.273001 9.3070002 7.2859998 45
27.804001 9.25 7.6620002 50
28.072001 9.4429998 8.2460003 33
30.58 10.404 9.5469999 23
0 0 0 0
28.306 9.434 6.8600001 59
28.004999 9.427 7.2779999 49
28.184 9.5869999 7.829 36
28.094 9.6619997 8.3149996 34
30.688 10.675 9.6540003 9
0 0 0 0
28.201 9.6099997 6.8920002 63
27.938 9.6149998 7.3189998 45
28.145 9.7880001 7.8779998 52
28.733 10.101 8.5679998 36
0 0 0 0
0 0 0 0
28.247 9.8360004 6.9569998 46
28.951 10.181 7.6420002 38
28.379 10.084 8.0019999 42
28.705 10.309 8.6199999 35
0 0 0 0
0 0 0 0
29.712999 10.568 7.3709998 38
29.273001 10.514 7.7810001 37
28.058001 10.182 7.9650002 45
28.348 10.398 8.5710001 0
0 0 0 0
0 0 0 0
30.171 10.959 7.5380001 4
0 0 0 0
28.572001 10.587 8.1639996 24
0 0 0 0
0 0 0 0
0 0 0 0
29.476 10.931 7.4120002 30
31.768999 11.895 8.5559998 44
28.381001 10.734 8.1590004 31
0 0 0 0
0 0 0 0
0 0 0 0
29.306999 11.086 7.415 39
0 0 0 0
0 0 0 0
0 0 0 0
0 0 0 0
0 0 0 0
29.983999 11.569 7.6279998 53
30.169001 11.752 8.2189999 39
30.371 11.951 8.8299999 20
0 0 0 0
0 0 0 0
0 0 0 0
30.108999 11.847 7.7020001 44
30.091999 11.953 8.2390003 40
30.224001 12.127 8.8310003 38
0 0 0 0
0 0 0 0
0 0 0 0
30.15 12.091 7.7470002 41
29.910999 12.107 8.2270002 21
30.271999 12.376 8.8839998 19
0 0 0 0
0 0 0 0
0 0 0 0
29.789 12.169 7.6890001 41
29.681 12.24 8.1990004 2
31.393 13.073 9.2530003 43
0 0 0 0
0 0 0 0
0 0 0 0
29.676001 12.345 7.6900001 40
31.507 13.23 8.7379999 46
31.415001 13.321 9.2959995 45
0 0 0 0
0 0 0 0
0 0 0 0
29.201 12.368 7.5939999 37
31.200001 13.336 8.6820002 45
31.549 13.618 9.3690004 50
0 0 0 0
0 0 0 0
0 0 0 0
29.146 12.561 7.6020002 50
31.313999 13.621 8.7419996 46
31.978001 14.047 9.5249996 6
0 0 0 0
0 0 0 0
0 0 0 0
29.066999 12.743 7.6030002 38
30.929001 13.682 8.6590004 46
31.164 13.92 9.3100004 18
0 0 0 0
0 0 0 0
0 0 0 0
29.110001 12.977 7.6300001 23
30.514999 13.728 8.5609999 43
31.797001 14.445 9.5220003 48
0 0 0 0
0 0 0 0
0 0 0 0
31.091999 14.091 8.1660004 39
30.375999 13.89 8.54 42
0 0 0 0
0 0 0 0
0 0 0 0
0 0 0 0
30.818001 14.192 8.1059999 43
29.768999 13.833 8.3830004 47
0 0 0 0
0 0 0 0
0 0 0 0
0 0 0 0
29.268999 13.693 7.7049999 2
29.111 13.742 8.2069998 31
32.611 15.541 9.8149996 50
0 0 0 0
0 0 0 0
0 0 0 0
29.211 13.877 7.6950002 39
0 0 0 0
32.359001 15.655 9.7469997 18
0 0 0 0
0 0 0 0
0 0 0 0
29.145 14.052 7.6789999 41
28.599001 13.912 8.0710001 28
0 0 0 0
0 0 0 0
0 0 0 0
0 0 0 0
28.604 13.993 7.5359998 39
28.471001 14.053 8.0349998 37
32.167999 16.027 9.6969995 1
0 0 0 0
0 0 0 0
0 0 0 0
28.551001 14.169 7.5149999 40
28.518999 14.278 8.0469999 38
32.126999 16.237 9.6829996 1
0 0 0 0
0 0 0 0
0 0 0 0
28.653 14.419 7.5349998 39
28.398001 14.418 8.0039997 26
0 0 0 0
0 0 0 0
0 0 0 0
0 0 0 0
28.691 14.637 7.5339999 38
28.427999 14.63 8.0039997 9
0 0 0 0
0 0 0 0
0 0 0 0
0 0 0 0
29.462 15.232 7.7210002 41
30.622 15.969 8.6079998 45
0 0 0 0
0 0 0 0
0 0 0 0
0 0 0 0
28.966 15.17 7.572 41
30.445999 16.082001 8.5419998 45
0 0 0 0
0 0 0 0
0 0 0 0
0 0 0 0
28.819 15.284 7.513 40
30.266001 16.188999 8.4700003 45
0 0 0 0
0 0 0 0
0 0 0 0
0 0 0 0
28.785999 15.455 7.48 40
30.024 16.257 8.3760004 44
0 0 0 0
0 0 0 0
0 0 0 0
0 0 0 0
30.909 16.792 8.0019999 49
29.993 16.431999 8.3409996 44
30.052999 16.615 8.948 5
0 0 0 0
0 0 0 0
0 0 0 0
30.316 16.66 7.8169999 46
29.950001 16.597 8.2989998 44
0 0 0 0
0 0 0 0
0 0 0 0
0 0 0 0
30.41 16.900999 7.803 46
30.275999 16.965 8.3540001 48
0 0 0 0
0 0 0 0
0 0 0 0
0 0 0 0
30.34 17.042999 7.7449999 46
29.945999 16.959 8.2250004 38
0 0 0 0
0 0 0 0
0 0 0 0
0 0 0 0
30.452 17.283001 7.73 46
29.900999 17.108999 8.1689997 1
0 0 0 0
0 0 0 0
0 0 0 0
0 0 0 0
28.718 16.462999 7.2459998 24
30.891001 17.854 8.3929996 5
0 0 0 0
0 0 0 0
0 0 0 0
0 0 0 0
28.875 16.715 7.2379999 41
30.856001 18.004 8.335 15
0 0 0 0
0 0 0 0
0 0 0 0
0 0 0 0
28.756001 16.802999 7.1539998 41
31.077999 18.304001 8.3380003 29
0 0 0 0
0 0 0 0
0 0 0 0
0 0 0 0
28.679001 16.909 7.0819998 41
30.929001 18.379999 8.2410002 54
31.204 18.701 8.9370003 4
0 0 0 0
0 0 0 0
0 0 0 0
28.548 16.976 6.9920001 42
31.235001 18.719 8.2620001 34
31.223 18.871 8.882 7
0 0 0 0
0 0 0 0
0 0 0 0
28.568001 17.127001 6.9369998 41
28.910999 17.466 7.586 4
33.790001 20.587 9.5419998 3
0 0 0 0
0 0 0 0
0 0 0 0
28.607 17.285999 6.881 41
28.684999 17.465 7.4629998 14
30.819 18.923 8.6350002 29
0 0 0 0
0 0 0 0
0 0 0 0
28.617001 17.423 6.816 42
28.794001 17.662001 7.4229999 24
30.882999 19.101999 8.5799999 32
32.814999 20.48 9.7880001 11
0 0 0 0
0 0 0 0
28.812 17.665001 6.7930002 44
28.596001 17.664 7.303 17
30.813999 19.191 8.4860001 42
32.651001 20.518 9.6610003 45
0 0 0 0
0 0 0 0
29.212999 18.034 6.8099999 45
30.357 18.879 7.6739998 43
30.580999 19.171 8.3450003 36
30.73 19.436001 9.0150003 4
0 0 0 0
0 0 0 0
29.347 18.231001 6.763 46
30.129999 18.855 7.5349998 44
30.193001 19.046 8.1560001 47
30.855 19.634001 8.9680004 18
0 0 0 0
0 0 0 0
29.528 18.455 6.7220001 45
0 0 0 0
30.094 19.094999 8.0450001 46
30.773001 19.695 8.8579998 42
0 0 0 0
0 0 0 0
29.538 18.566 6.638 46
29.18 18.469999 7.132 5
30.121 19.216 7.9650002 48
30.232 19.452 8.6140003 47
0 0 0 0
0 0 0 0
29.319 18.524 6.4990001 44
29.639 18.858 7.1539998 31
30.164 19.34 7.8870001 48
30.312 19.6 8.5459995 48
29.962 19.554001 9.0749998 2
0 0 0 0
29.318001 18.614 6.408 44
29.240999 18.694 6.9660001 10
0 0 0 0
30.298 19.68 8.4460001 48
29.905001 19.603001 8.9619999 17
0 0 0 0
29.371 18.731001 6.3249998 17
29.09 18.677999 6.8369999 29
29.697001 19.211 7.5739999 46
30.259001 19.736 8.3380003 49
29.926001 19.695999 8.8719997 36
0 0 0 0
29.566999 18.933001 6.2680001 21
29.146999 18.790001 6.7509999 31
29.643999 19.252001 7.461 47
30.443001 19.931999 8.2860003 20
30.037001 19.841999 8.802 41
0 0 0 0
29.441999 18.924 6.1399999 4
29.235001 18.914 6.6719999 32
29.599001 19.290001 7.3470001 46
30.502001 20.038 8.1949997 7
30.011 19.889999 8.6890001 38
0 0 0 0
30.190001 19.471001 6.1880002 2
29.385 19.073999 6.5999999 25
29.604 19.354 7.243 46
29.285 19.297001 7.7620001 8
30.02 19.954 8.5819998 42
29.773001 19.976999 9.1459999 2
30.511999 19.736 6.145 21
0 0 0 0
29.688 19.461 7.152 46
28.941 19.120001 7.5630002 44
30.115999 20.066999 8.4960003 49
29.839001 20.068001 9.0539999 26
30.195 19.58 5.9710002 47
30.254 19.740999 6.5739999 48
30.083 19.764999 7.138 9
28.871 19.115 7.4380002 45
30.334999 20.254 8.4449997 44
29.854 20.117001 8.9440002 35
0 0 0 0
30.336 19.834999 6.4770002 33
30.43 20.032 7.1020002 8
28.884001 19.158001 7.329 44
30.309999 20.271999 8.3179998 26
29.888 20.17 8.8360004 32
30.693001 19.982 5.8340001 41
30.232 19.799999 6.336 43
29.118999 19.198999 6.6810002 4
29.237 19.42 7.302 47
30.091 20.150999 8.1370001 19
29.899 20.202 8.7159996 24
30.823 20.096001 5.737 23
29.216999 19.16 6.007 39
0 0 0 0
29.323999 19.497999 7.2059999 46
29.204 19.575001 7.776 33
30.096001 20.351 8.6490002 43
30.882999 20.156 5.625 7
29.261 19.207001 5.8979998 46
30.296 20.014 6.7059999 17
28.959 19.267 6.9949999 25
28.947001 19.412001 7.5869999 46
30.205 20.431 8.552 48
32.342999 21.122999 5.757 17
29.441999 19.334999 5.8140001 45
30.23 19.978001 6.566 26
29.038 19.325001 6.8930001 7
28.684 19.238001 7.3959999 44
30.177999 20.413 8.4130001 49
32.226002 21.052999 5.6020002 22
30.061001 19.746 5.809 49
0 0 0 0
30.385 20.218 7.0809999 3
28.733 19.264999 7.2849998 44
30.207001 20.424 8.29 49
32.203999 21.035999 5.4640002 28
30.714001 20.17 5.8049998 33
28.792999 19.021999 6.0089998 22
34.348 22.844999 7.855 16
28.732 19.253 7.1560001 44
28.513 19.264 7.6939998 2
32.25 21.056 5.3330002 35
0 0 0 0
28.92 19.091999 5.908 44
30.232 20.09 6.7789998 2
28.794001 19.275 7.0409999 44
28.497 19.229 7.5599999 24
32.305 21.076 5.1999998 37
32.039001 21.007999 5.7740002 30
29.200001 19.256001 5.8340001 45
30.233999 20.066 6.6440001 10
28.931 19.339001 6.9429998 27
28.563 19.243999 7.4450002 43
32.346001 21.076 5.0650001 20
32.115002 21.028999 5.6459999 32
29.525999 19.441999 5.7680001 39
28.725 19.033001 6.1799998 0
28.957001 19.322001 6.8140001 6
28.627001 19.25 7.3239999 37
32.759998 21.313999 4.9829998 12
32.182999 21.039 5.5139999 39
30.549999 20.079 5.8270001 29
28.775 19.028 6.059 14
0 0 0 0
28.708 19.26 7.2090001 42
33.083 21.482 4.8829999 9
32.248001 21.037001 5.3769999 35
30.830999 20.219 5.7379999 27
28.877001 19.051001 5.9439998 40
30.246 20.087999 6.8319998 1
28.76 19.243999 7.0819998 43
0 0 0 0
32.327 21.037001 5.2410002 44
0 0 0 0
29.208 19.216999 5.8740001 45
30.274 20.049 6.6919999 15
28.886 19.268999 6.9720001 30
0 0 0 0
32.415001 21.035999 5.1040001 39
32.686001 21.319 5.776 22
29.604 19.417 5.8130002 42
30.216 19.945 6.533 28
29.101999 19.346001 6.8800001 3
0 0 0 0
32.494999 21.021999 4.9660001 33
32.730999 21.277 5.6300001 34
30.514999 19.947001 5.8429999 28
29.906 19.669001 6.3189998 46
30.238001 20.025999 6.9990001 2
0 0 0 0
32.592999 21.011 4.8280001 35
32.778999 21.231001 5.4829998 21
30.865 20.098 5.7610002 30
29.983999 19.643 6.1869998 33
29.136999 19.216999 6.5970001 6
0 0 0 0
32.659 20.973 4.6810002 29
32.937 21.247 5.3499999 13
31.004 20.104 5.6350002 3
29.957001 19.540001 6.0320001 49
29.629 19.454 6.5580001 48
32.93 20.979 3.9449999 8
32.756001 20.947001 4.5380001 22
33.133999 21.282 5.2199998 19
32.862999 21.212999 5.8119998 11
30.166 19.584 5.9250002 47
30.288 19.790001 6.5489998 32
32.979 20.917999 3.796 22
32.834999 20.902 4.3930001 4
33.424999 21.368 5.105 27
33.041 21.226 5.6799998 21
30.334999 19.596001 5.8060002 30
30.299 19.695 6.3959999 32
33.040001 20.857 3.6459999 27
0 0 0 0
33.567001 21.351 4.967 23
0 0 0 0
30.427999 19.551001 5.6719999 26
30.346001 19.617001 6.2540002 14
33.16 20.827999 3.5039999 27
33.647999 21.205 4.1820002 2
33.575001 21.243 4.8039999 17
33.477001 21.278 5.4260001 12
30.410999 19.43 5.5170002 2
29.976 19.266001 6.0229998 15
33.293999 20.799999 3.359 28
33.634998 21.08 4.0180001 24
33.93 21.344 4.6900001 3
33.446999 21.136 5.257 10
32.026001 20.339001 5.6490002 22
30.424999 19.433001 5.9580002 10
33.389999 20.74 3.214 16
33.659 20.969999 3.859 28
34.272999 21.431 4.5700002 11
33.658001 21.138 5.125 15
32.074001 20.242001 5.4949999 9
30.521 19.368999 5.8210001 11
33.805 20.872 3.0929999 22
33.354 20.650999 3.6659999 24
34.466999 21.415001 4.4289999 5
34.123001 21.290001 5.027 12
32.212002 20.193001 5.3579998 29
30.584999 19.275999 5.6750002 34
33.870998 20.778 2.938 16
33.789001 20.785 3.55 39
33.091999 20.424999 4.0900002 26
32.723 20.275999 4.658 34
33.313999 20.737 5.3740001 20
30.565001 19.125 5.5149999 13
85.521004 52.112 7.0219998 20
33.784 20.639 3.3900001 3
33.483002 20.521 3.977 14
34.415001 21.173 4.7290001 16
33.369999 20.620001 5.2129998 17
33.556 20.84 5.8800001 30
86.238998 52.181 6.6680002 13
85.737 52.005001 8.1890001 22
33.828999 20.58 3.8540001 30
34.519001 21.076 4.572 11
33.418999 20.492001 5.052 29
32.761002 20.186001 5.573 27
85.900002 51.591 6.237 20
85.275002 51.334 7.7379999 24
85.957001 51.896 9.3760004 19
33.368 20.215 4.257 11
33.710999 20.506001 4.9289999 46
33.651001 20.566999 5.5560002 44
86.370003 51.473999 5.8709998 29
86.629997 51.741001 7.4530001 20
86.052002 51.536999 8.9709997 23
33.977001 20.417999 4.1680002 8
33.819 20.403999 4.7779999 38
33.682999 20.414 5.3899999 44
86.629997 51.222 5.4899998 10
86.522003 51.262001 7.04 23
86.237999 51.227001 8.5819998 32
0 0 0 0
33.528 20.054001 4.5700002 16
33.722 20.259001 5.2270002 35
86.605003 50.778999 5.086 36
0 0 0 0
86.473999 50.923 8.1920004 23
87.331001 51.577 9.8640003 28
0 0 0 0
34.445999 20.503 5.164 16
86.234001 50.119999 4.6630001 38
86.572998 50.408001 6.2329998 23
87.364998 50.987 7.8629999 17
87.181999 51.021999 9.4320002 27
0 0 0 0
33.488998 19.746 4.8530002 2
48.124001 27.719999 2.385 9
87.188004 50.301998 5.8730001 25
87.263 50.455002 7.4429998 20
87.891998 50.957001 9.0839996 26
91.629997 53.294998 11.142 26
0 0 0 0
47.944 27.358999 2.1589999 23
48.294998 27.6 3.0309999 11
87.714996 50.233002 7.0770001 24
87.558998 50.272999 8.6389999 19
91.848999 52.902 10.726 28
0 0 0 0
0 0 0 0
48.34 27.362 2.8169999 31
87.976997 49.891998 6.6919999 30
87.906998 49.976002 8.2659998 18
92.113998 52.525002 10.322 34
0 0 0 0
0 0 0 0
48.320999 27.077 2.6010001 23
87.549004 49.147999 6.2680001 19
85.875999 48.32 7.6799998 18
92.401001 52.141998 9.927 11
0 0 0 0
0 0 0 0
48.084 26.673 2.3789999 14
48.477001 26.934 3.2539999 25
86.024002 47.897999 7.302 32
86.491997 48.287998 8.8879995 33
0 0 0 0
0 0 0 0
0 0 0 0
47.962002 26.362 3.007 31
86.400002 47.584 6.9460001 25
86.814003 47.933998 8.5229998 29
87.478996 48.450001 10.154 7
48.879002 26.513 1.138 8
47.893002 25.999001 1.95 30
47.821999 25.995001 2.7850001 17
86.333 47.02 6.553 31
86.542 47.247002 8.1009998 22
87.114998 47.699001 9.7069998 20
76.469002 41.018002 1.459 5
48.213001 25.877001 1.756 23
47.731998 25.652 2.5739999 26
48.179001 25.937 3.4430001 9
85.850998 46.320999 7.6490002 29
87.166 47.165001 9.316 24
61.603001 32.667999 0.91500002 12
48.108002 25.523001 1.55 14
48.247002 25.625 2.3940001 18
48.584999 25.844999 3.2590001 17
86.191002 45.949001 7.3000002 31
87.919998 46.994999 8.9969997 28
53.304001 27.936001 0.57499999 4
0 0 0 0
48.644001 25.525999 2.21 17
48.608002 25.544001 3.0539999 27
86.122002 45.348 6.9159999 34
87.184998 46.021 8.5319996 25
51.862999 26.85 0.347 12
81.641998 42.283001 1.955 30
48.77 25.278999 2.01 27
48.402 25.118999 2.835 36
86.313004 44.879002 6.5549998 25
88.379997 46.061001 8.257 13
43.790001 22.392 0.12 2
81.688004 41.773998 1.6210001 37
0 0 0 0
48.591999 24.899 2.6440001 21
86.897003 44.602001 6.2340002 33
87.543999 45.033001 7.8039999 29
40.532001 20.464001 -0.048999999 8
61.645 31.128 0.98100001 6
88.007004 44.463001 2.9100001 21
87.904999 44.460999 4.4229999 22
88.313004 44.741001 5.9720001 10
88.038002 44.688999 7.4819999 32
40.208 20.039 -0.2 39
54.179001 27.002001 0.65600002 5
77.444 38.613998 2.2609999 4
0 0 0 0
88.558998 44.262001 5.6290002 7
89.040001 44.587002 7.1950002 27
36.581001 17.992001 -0.31799999 3
41.067001 20.195 0.33899999 3
0 0 0 0
166.705 82.074997 7.072 25
52.155998 25.711 3.105 4
38.070999 18.802 2.9219999 1
36.32 17.622999 -0.45100001 36
40.77 19.775 0.185 5
81.403999 39.493 1.756 26
0 0 0 0
41.647999 20.243999 2.319 4
41.884998 20.392 3.0480001 15
32.471001 15.538 -0.51800001 2
40.596001 19.417999 0.037 17
60.987999 29.173 1.087 14
65.504997 31.353001 2.2809999 9
41.066002 19.674999 2.128 9
37.799999 18.136999 2.602 13
32.366001 15.267 -0.63 37
32.405998 15.278 -0.085000001 5
61.136002 28.820999 0.86900002 21
32.291 15.229 1.0039999 12
32.245998 15.219 1.5470001 20
32.224998 15.231 2.0940001 26
32.223999 14.978 -0.74199998 35
32.435001 15.064 -0.20100001 61
32.369999 15.031 0.34200001 49
32.323002 15.013 0.88599998 42
32.333 15.031 1.433 26
32.319 15.042 1.978 22
31.99 14.648 -0.84399998 29
36.448002 16.674 -0.34999999 32
41.115002 18.802999 0.29300001 1
67.142998 30.711 1.605 4
41.485001 18.987 1.688 9
37.603001 17.23 2.165 47
30.041 13.543 -0.89399999 1
36.174 16.295 -0.47099999 55
37.271 16.782 0.13699999 51
37.321999 16.802999 0.76200002 75
37.411999 16.851999 1.39 57
37.984001 17.125999 2.0480001 33
29.863001 13.253 -0.98400003 9
35.896999 15.915 -0.58499998 56
37.460999 16.599001 0.013 3
62.338001 27.622 1.063 3
66.938004 29.671 2.2579999 14
37.318001 16.555 1.882 43
29.718 12.977 -1.072 17
33.639999 14.675 -0.65399998 1
0 0 0 0
0 0 0 0
51.426998 22.422001 1.564 8
37.478001 16.351 1.7640001 27
0 0 0 0
0 0 0 0
37.556999 16.101 -0.22499999 3
53.276001 22.832001 0.56199998 8
65.875999 28.233999 1.7869999 28
38.363998 16.452999 1.678 19
27.194 11.488 -1.145 5
31.725 13.385 -0.81099999 7
37.694 15.891 -0.34 13
53.222 22.426001 0.398 29
53.737999 22.639999 1.291 67
51.990002 21.913 2.109 25
26.216 10.887 -1.178 5
31.552999 13.084 -0.898 14
37.646999 15.595 -0.45100001 24
49.911999 20.666 0.22400001 1
60.053001 24.861 1.2589999 5
52.032001 21.547001 1.948 13
25.482 10.399 -1.217 5
31.356001 12.774 -0.98100001 18
36.382 14.806 -0.54000002 41
43.650002 17.750999 0.068000004 8
59.790001 24.309999 1.077 8
52.040001 21.16 1.79 2
24.669001 9.8879995 -1.244 5
29.656 11.867 -1.0089999 13
35.716 14.275 -0.62900001 45
40.257999 16.077 -0.050000001 4
59.391998 23.708 0.89700001 27
59.493999 23.752001 1.874 5
24.007 9.4490004 -1.273 6
29.475 11.581 -1.08 15
35.366001 13.877 -0.71799999 52
40.931 16.042999 -0.161 11
