# .PCD v0.7 - Point Cloud Data file format
VERSION 0.7
FIELDS x y z intensity
SIZE 4 4 4 4
TYPE F F F F
COUNT 1 1 1 1
WIDTH 1766
HEIGHT 1
VIEWPOINT 0 0 0 1 0 0 0
POINTS 1766
DATA ascii
0 0 0 0
77.860001 -0.49000001 3.0239999 8
62.636002 -0.36899999 3.346 12
32.594002 -0.16599999 -0.84100002 43
37.056 -0.175 -0.41800001 32
62.747002 -0.273 0.206 23
37.053001 -0.147 0.662 15
87.769997 -0.31400001 2.8469999 32
62.478001 -0.199 2.9400001 15
27.459999 -0.07 -0.88599998 1
32.298 -0.068999998 -0.57300001 16
37.138 -0.064999998 -0.117 63
37.103001 -0.050000001 0.42199999 71
0 0 0 0
75.193001 -0.039999999 3.0469999 4
27.559 -0.0020000001 -1.0700001 46
32.159 0.0089999996 -0.77999997 32
0 0 0 0
37.144001 0.041999999 0.17900001 89
43.275002 0.067000002 0.84100002 13
88.045998 0.175 2.994 23
27.101999 0.061999999 -1.233 36
27.504999 0.072999999 -0.84899998 12
32.870998 0.102 -0.53500003 2
39.758999 0.139 -0.064999998 1
43.091999 0.17 0.55599999 4
0 0 0 0
26.660999 0.12 -1.388 21
27.478001 0.13500001 -1.029 43
31.599001 0.169 -0.72100002 34
42.384998 0.24600001 -0.34999999 16
63.77 0.398 0.403 5
27.551001 0.184 0.57499999 7
24.709 0.164 -1.452 22
27.122999 0.192 -1.197 39
27.582001 0.207 -0.81400001 58
27.552 0.22 -0.41100001 92
27.514 0.23199999 -0.0089999996 64
27.473 0.244 0.39199999 45
22.43 0.19499999 -1.471 11
26.704 0.244 -1.359 23
27.434999 0.26300001 -0.99299997 85
27.493 0.27599999 -0.59299999 98
27.468 0.28799999 -0.19 92
27.451 0.301 0.20999999 48
20.658001 0.219 -1.494 13
24.889 0.27599999 -1.434 22
27.198 0.31400001 -1.168 44
27.452999 0.33000001 -0.77700001 102
27.457001 0.34299999 -0.375 101
27.445 0.35600001 0.025 61
19.212999 0.23899999 -1.521 13
22.483 0.28999999 -1.449 8
26.777 0.35800001 -1.331 24
27.363001 0.37900001 -0.958 65
27.434 0.39300001 -0.55800003 103
27.462999 0.40700001 -0.156 72
17.895 0.25299999 -1.54 11
20.756001 0.30399999 -1.479 13
25.039 0.37799999 -1.416 22
27.139999 0.42300001 -1.1339999 47
27.431 0.44100001 -0.74199998 88
27.472 0.456 -0.34200001 75
16.839001 0.26499999 -1.5650001 10
19.349001 0.31400001 -1.51 12
22.885 0.382 -1.448 8
26.841999 0.46200001 -1.303 30
27.385 0.486 -0.92799997 69
27.486 0.50099999 -0.528 75
15.874 0.27399999 -1.585 9
17.966999 0.31900001 -1.528 11
21.072001 0.384 -1.48 14
25.280001 0.47400001 -1.401 22
27.190001 0.523 -1.105 41
27.511 0.54400003 -0.71399999 57
15.015 0.27900001 -1.603 10
16.902 0.32300001 -1.553 10
19.625 0.38499999 -1.511 14
23.257 0.46799999 -1.446 7
26.921 0.55599999 -1.277 29
27.514 0.583 -0.89999998 55
14.232 0.28299999 -1.62 11
15.952 0.32499999 -1.577 9
18.145 0.37900001 -1.524 12
21.330999 0.45699999 -1.474 16
0 0 0 0
27.309999 0.61500001 -1.082 44
13.546 0.285 -1.637 11
15.067 0.32499999 -1.595 11
17.075001 0.377 -1.553 10
19.722 0.44600001 -1.501 14
23.58 0.54699999 -1.4450001 9
27.007 0.64099997 -1.256 28
12.896 0.285 -1.65 11
14.279 0.32300001 -1.612 11
16.084 0.37200001 -1.575 9
18.263 0.433 -1.516 11
21.51 0.52200001 -1.465 13
25.937 0.64399999 -1.386 27
12.331 0.28400001 -1.666 12
13.59 0.31999999 -1.631 12
15.2 0.36700001 -1.596 11
17.171 0.42399999 -1.545 10
19.889999 0.50199997 -1.494 14
24.23 0.62599999 -1.46 22
11.822 0.28200001 -1.681 12
12.94 0.31600001 -1.6440001 12
14.409 0.359 -1.613 11
16.201 0.414 -1.572 9
18.389 0.47999999 -1.5089999 12
21.711 0.57999998 -1.459 13
11.349 0.27900001 -1.696 12
12.376 0.31099999 -1.6619999 11
13.683 0.352 -1.63 12
15.293 0.40200001 -1.591 11
17.33 0.465 -1.543 11
20.059 0.551 -1.489 14
10.897 0.27399999 -1.7079999 12
11.857 0.30500001 -1.676 13
13.022 0.34299999 -1.643 13
14.474 0.38999999 -1.608 11
16.287001 0.44800001 -1.5650001 9
18.577999 0.52200001 -1.507 11
10.504 0.27000001 -1.721 12
11.372 0.29800001 -1.689 12
12.464 0.33399999 -1.661 13
13.758 0.37799999 -1.626 12
15.394 0.43200001 -1.587 10
17.402 0.49900001 -1.534 11
10.091 0.26300001 -1.728 12
10.929 0.29100001 -1.7029999 13
11.932 0.32499999 -1.676 13
13.107 0.36500001 -1.642 12
14.553 0.414 -1.603 11
16.393 0.477 -1.5599999 9
9.7150002 0.25600001 -1.733 13
10.537 0.28400001 -1.717 12
11.447 0.315 -1.689 13
12.539 0.35299999 -1.659 12
13.852 0.39899999 -1.623 12
15.5 0.456 -1.5829999 11
9.3739996 0.248 -1.7410001 11
10.122 0.27399999 -1.723 13
10.991 0.30500001 -1.701 13
11.983 0.34 -1.671 12
13.185 0.382 -1.6390001 12
14.651 0.43399999 -1.6 12
9.0360003 0.23999999 -1.745 11
9.7469997 0.26499999 -1.73 13
10.586 0.294 -1.715 12
11.497 0.32699999 -1.6849999 13
12.61 0.36700001 -1.656 12
13.93 0.414 -1.619 12
8.7390003 0.23100001 -1.753 12
9.3959999 0.255 -1.7359999 12
10.18 0.28299999 -1.723 13
11.05 0.31400001 -1.7 13
12.073 0.35100001 -1.6720001 12
13.266 0.39500001 -1.636 12
8.4530001 0.222 -1.758 12
9.066 0.244 -1.742 11
9.8210001 0.271 -1.733 12
10.637 0.301 -1.712 12
11.582 0.33500001 -1.686 13
12.693 0.37599999 -1.655 12
8.1759996 0.213 -1.761 11
8.7709999 0.234 -1.75 12
9.4569998 0.259 -1.738 12
10.243 0.287 -1.722 12
11.113 0.31900001 -1.697 12
12.142 0.35699999 -1.669 12
7.9239998 0.20299999 -1.766 11
8.4720001 0.223 -1.753 12
9.1260004 0.24600001 -1.744 12
9.8719997 0.273 -1.732 13
10.678 0.303 -1.707 12
11.63 0.338 -1.681 13
7.6880002 0.193 -1.771 10
8.1929998 0.211 -1.755 11
8.8170004 0.233 -1.749 12
9.5190001 0.259 -1.738 12
10.31 0.28799999 -1.721 12
11.184 0.31999999 -1.6950001 12
7.4419999 0.182 -1.7690001 12
7.954 0.2 -1.762 11
8.54 0.221 -1.756 12
9.1750002 0.244 -1.7410001 12
9.9280005 0.271 -1.729 13
10.76 0.30199999 -1.707 13
7.2270002 0.171 -1.773 13
7.6789999 0.18799999 -1.7589999 12
8.2510004 0.208 -1.757 11
8.8739996 0.23 -1.749 12
9.5819998 0.255 -1.738 13
10.362 0.28400001 -1.7180001 13
7.0349998 0.161 -1.779 11
7.473 0.177 -1.767 12
8.0129995 0.19499999 -1.765 11
8.5900002 0.21600001 -1.755 12
9.2469997 0.23899999 -1.742 12
9.9840002 0.266 -1.725 13
6.8590002 0.15000001 -1.785 11
7.2659998 0.16500001 -1.772 12
7.7529998 0.182 -1.7640001 12
8.3050003 0.20100001 -1.756 11
8.9259996 0.223 -1.7460001 12
9.6370001 0.248 -1.734 13
6.677 0.139 -1.788 12
7.0640001 0.153 -1.776 12
7.5159998 0.169 -1.766 12
8.0430002 0.18700001 -1.7589999 10
8.658 0.208 -1.756 13
9.3000002 0.23 -1.74 12
6.507 0.12800001 -1.7920001 11
6.8730001 0.141 -1.778 11
7.3280001 0.156 -1.775 12
7.8270001 0.17299999 -1.7690001 11
8.3669996 0.191 -1.757 12
8.9870005 0.213 -1.745 12
6.336 0.117 -1.794 10
6.7010002 0.12899999 -1.784 12
7.1139998 0.142 -1.776 13
7.5599999 0.15700001 -1.7640001 13
8.0889997 0.175 -1.757 10
8.7019997 0.19499999 -1.752 12
6.1789999 0.105 -1.796 12
6.527 0.116 -1.7869999 11
6.9330001 0.12899999 -1.7819999 12
7.3600001 0.14300001 -1.771 13
7.881 0.16 -1.768 11
8.4250002 0.178 -1.756 12
6.0349998 0.093999997 -1.8 11
6.3699999 0.104 -1.7920001 11
6.7550001 0.116 -1.7869999 12
7.1539998 0.12899999 -1.774 13
7.6160002 0.14399999 -1.7640001 12
8.1619997 0.161 -1.7589999 11
5.881 0.082000002 -1.799 10
6.2150002 0.092 -1.794 11
6.5900002 0.103 -1.7920001 11
6.9790001 0.115 -1.781 12
7.4159999 0.12899999 -1.771 13
7.9109998 0.14399999 -1.761 12
5.7470002 0.07 -1.802 11
6.0640001 0.079000004 -1.7970001 11
6.4169998 0.089000002 -1.7920001 11
6.8049998 0.101 -1.7869999 11
7.217 0.113 -1.776 13
7.6719999 0.127 -1.762 13
5.605 0.057999998 -1.801 11
5.9159999 0.066 -1.798 11
6.2620001 0.075999998 -1.795 10
6.6300001 0.086000003 -1.789 12
7.0180001 0.097000003 -1.777 12
7.4460001 0.11 -1.763 13
5.4860001 0.046 -1.8049999 11
5.7839999 0.054000001 -1.801 11
6.112 0.061999999 -1.798 12
6.4549999 0.071999997 -1.789 12
6.842 0.082000002 -1.7819999 12
7.2579999 0.093999997 -1.77 13
5.3670001 0.034000002 -1.807 10
5.6490002 0.041000001 -1.802 12
5.9699998 0.048999999 -1.8 13
6.296 0.057 -1.791 12
6.6690001 0.067000002 -1.784 11
7.0640001 0.077 -1.773 14
5.256 0.022 -1.809 11
5.5209999 0.028000001 -1.802 11
5.8239999 0.035999998 -1.799 12
6.1620002 0.043000001 -1.798 11
6.5159998 0.052000001 -1.79 13
6.8860002 0.061000001 -1.777 12
5.145 0.0099999998 -1.811 10
5.4109998 0.016000001 -1.807 11
5.6919999 0.022 -1.8 11
6.02 0.028999999 -1.799 11
6.362 0.037 -1.793 12
6.7270002 0.045000002 -1.783 11
5.0409999 -0.0020000001 -1.813 11
5.3010001 0.003 -1.8099999 11
5.573 0.0089999996 -1.803 12
5.8740001 0.015 -1.798 11
6.204 0.022 -1.793 11
6.5560002 0.028999999 -1.784 13
4.941 -0.014 -1.8150001 10
5.1880002 -0.0089999996 -1.811 12
5.4559999 -0.0040000002 -1.806 11
5.7509999 0.001 -1.802 10
6.0739999 0.0070000002 -1.799 11
6.401 0.014 -1.786 13
4.8460002 -0.026000001 -1.817 10
5.0879998 -0.022 -1.814 12
5.355 -0.017000001 -1.812 12
5.6110001 -0.012 -1.799 11
5.9289999 -0.0070000002 -1.798 13
6.2540002 -0.001 -1.789 12
4.7540002 -0.039000001 -1.819 10
4.9780002 -0.035 -1.812 11
5.2350001 -0.030999999 -1.8099999 12
5.4970002 -0.026000001 -1.802 12
5.7909999 -0.022 -1.7970001 13
6.0999999 -0.017000001 -1.788 12
4.6690001 -0.050999999 -1.823 10
4.882 -0.048 -1.814 11
5.1389999 -0.044 -1.814 12
5.3940001 -0.039999999 -1.807 12
5.6440001 -0.035999998 -1.791 11
5.967 -0.032000002 -1.789 12
4.585 -0.063000001 -1.825 10
4.7950001 -0.059999999 -1.817 11
5.0310001 -0.057999998 -1.813 12
5.2849998 -0.054000001 -1.808 11
5.5489998 -0.050999999 -1.799 12
5.8340001 -0.048 -1.79 11
4.494 -0.075000003 -1.823 9
4.704 -0.072999999 -1.818 11
4.9359999 -0.071000002 -1.8150001 11
5.178 -0.068000004 -1.809 12
5.4439998 -0.066 -1.804 12
5.7319999 -0.063000001 -1.798 12
4.415 -0.088 -1.825 10
4.6240001 -0.086000003 -1.821 11
4.8439999 -0.083999999 -1.816 11
5.0939999 -0.082000002 -1.816 12
5.3410001 -0.079999998 -1.807 12
5.6030002 -0.078000002 -1.796 12
4.335 -0.1 -1.824 10
4.5430002 -0.098999999 -1.823 10
4.7550001 -0.097999997 -1.817 11
4.9860001 -0.096000001 -1.812 12
5.2319999 -0.094999999 -1.806 13
5.4949999 -0.093999997 -1.798 12
4.2670002 -0.112 -1.8279999 10
4.4619999 -0.112 -1.823 10
4.6750002 -0.111 -1.8200001 11
4.895 -0.11 -1.814 11
5.138 -0.109 -1.809 12
5.3940001 -0.109 -1.802 12
4.191 -0.125 -1.827 10
4.3850002 -0.125 -1.824 10
4.5960002 -0.124 -1.822 10
4.8039999 -0.124 -1.814 11
5.0430002 -0.124 -1.8099999 12
5.2950001 -0.124 -1.8049999 12
4.125 -0.13699999 -1.83 9
4.316 -0.13699999 -1.827 10
4.5250001 -0.138 -1.827 11
4.7160001 -0.13699999 -1.813 10
4.9450002 -0.138 -1.809 11
5.204 -0.139 -1.808 12
4.0570002 -0.149 -1.83 9
4.2420001 -0.15000001 -1.827 10
4.4419999 -0.15099999 -1.825 11
4.6440001 -0.15099999 -1.818 11
4.875 -0.153 -1.816 11
5.1209998 -0.154 -1.813 12
3.9879999 -0.162 -1.829 9
4.1669998 -0.163 -1.825 10
4.3740001 -0.164 -1.8279999 11
4.5710001 -0.16500001 -1.821 10
4.7729998 -0.16599999 -1.8099999 11
5.0139999 -0.169 -1.809 10
3.9360001 -0.17399999 -1.834 9
4.105 -0.175 -1.8279999 10
4.2969999 -0.177 -1.826 10
4.4980001 -0.17900001 -1.824 11
4.7059999 -0.18099999 -1.817 11
4.9260001 -0.183 -1.809 12
3.8770001 -0.18700001 -1.836 9
4.0430002 -0.18799999 -1.829 10
4.23 -0.19 -1.8279999 10
4.4219999 -0.192 -1.822 11
4.6279998 -0.19499999 -1.817 10
4.848 -0.198 -1.812 12
3.8210001 -0.199 -1.837 9
3.984 -0.20100001 -1.831 10
4.1599998 -0.20299999 -1.827 10
4.3579998 -0.206 -1.825 10
4.5630002 -0.20999999 -1.822 11
4.7690001 -0.213 -1.813 12
3.7739999 -0.212 -1.8430001 9
3.925 -0.214 -1.832 9
4.1009998 -0.21699999 -1.829 10
4.2930002 -0.22 -1.827 10
4.493 -0.22400001 -1.823 11
4.6939998 -0.227 -1.8150001 11
3.711 -0.22400001 -1.839 8
3.8729999 -0.227 -1.835 9
4.04 -0.23 -1.829 10
4.2210002 -0.233 -1.825 10
4.4190001 -0.237 -1.822 10
4.6269999 -0.242 -1.818 11
3.665 -0.237 -1.8430001 8
3.809 -0.23899999 -1.832 10
3.9820001 -0.243 -1.83 10
4.165 -0.24699999 -1.8279999 10
4.3509998 -0.25099999 -1.822 10
4.5630002 -0.257 -1.821 11
3.612 -0.249 -1.8430001 8
3.763 -0.252 -1.836 8
3.9260001 -0.25600001 -1.831 9
4.0999999 -0.25999999 -1.827 9
4.2979999 -0.266 -1.827 10
4.4920001 -0.271 -1.821 10
3.566 -0.26100001 -1.845 8
3.714 -0.26499999 -1.8380001 10
3.881 -0.26899999 -1.836 9
4.0359998 -0.273 -1.824 9
4.2309999 -0.27900001 -1.825 10
4.428 -0.285 -1.822 10
3.5120001 -0.273 -1.842 8
3.6700001 -0.278 -1.841 10
3.8269999 -0.28200001 -1.836 9
3.9920001 -0.287 -1.83 9
4.171 -0.29300001 -1.825 10
4.3699999 -0.30000001 -1.825 10
3.467 -0.285 -1.8430001 8
3.6199999 -0.28999999 -1.841 9
3.7750001 -0.29499999 -1.836 9
3.934 -0.30000001 -1.8279999 9
4.1160002 -0.30700001 -1.827 9
4.3099999 -0.315 -1.826 10
3.4189999 -0.29699999 -1.841 8
3.579 -0.303 -1.844 8
3.7390001 -0.30899999 -1.8430001 9
3.8870001 -0.31400001 -1.831 9
4.0549998 -0.31999999 -1.825 10
4.243 -0.32800001 -1.823 10
3.3829999 -0.31 -1.846 8
3.5320001 -0.31600001 -1.844 8
3.6789999 -0.32100001 -1.8380001 9
3.8369999 -0.32699999 -1.832 9
4.0079999 -0.33500001 -1.8279999 10
4.1919999 -0.34299999 -1.826 9
3.3369999 -0.322 -1.844 7
3.487 -0.32800001 -1.844 9
3.6370001 -0.33399999 -1.84 9
3.7950001 -0.34099999 -1.835 8
3.9560001 -0.34799999 -1.8279999 9
4.1350002 -0.35699999 -1.824 10
3.3010001 -0.33399999 -1.847 8
3.4460001 -0.34 -1.845 9
3.6010001 -0.34799999 -1.845 10
3.747 -0.354 -1.835 8
3.908 -0.36199999 -1.829 9
4.0910001 -0.37200001 -1.8279999 10
3.26 -0.34599999 -1.846 8
3.404 -0.35299999 -1.845 9
3.5539999 -0.36000001 -1.8430001 9
3.7130001 -0.368 -1.841 9
3.8599999 -0.37599999 -1.829 9
4.0310001 -0.38499999 -1.824 9
3.2190001 -0.35800001 -1.845 7
3.3670001 -0.366 -1.846 7
3.513 -0.373 -1.8430001 8
3.6670001 -0.38100001 -1.84 9
3.8150001 -0.389 -1.829 8
3.9879999 -0.39899999 -1.827 9
3.191 -0.37099999 -1.849 7
3.3280001 -0.37799999 -1.846 8
3.4760001 -0.38600001 -1.845 9
3.6289999 -0.39500001 -1.842 9
3.783 -0.40400001 -1.835 9
3.9430001 -0.41299999 -1.827 9
3.1470001 -0.38100001 -1.844 7
3.2909999 -0.38999999 -1.846 8
3.4349999 -0.39899999 -1.844 9
3.5880001 -0.40799999 -1.841 8
3.7409999 -0.417 -1.836 8
3.9030001 -0.42699999 -1.83 9
3.122 -0.39399999 -1.85 7
3.256 -0.40200001 -1.846 8
3.3959999 -0.41100001 -1.842 8
3.552 -0.421 -1.8430001 9
3.6989999 -0.43099999 -1.835 9
3.8610001 -0.44100001 -1.83 9
3.0899999 -0.40700001 -1.851 6
3.223 -0.41499999 -1.847 8
3.368 -0.42500001 -1.847 8
3.5179999 -0.435 -1.845 9
3.6689999 -0.44499999 -1.84 9
3.8239999 -0.456 -1.8329999 9
3.0569999 -0.41800001 -1.85 7
3.188 -0.42699999 -1.846 8
3.3329999 -0.43700001 -1.847 7
3.4860001 -0.449 -1.847 8
3.632 -0.45899999 -1.84 9
3.789 -0.47 -1.835 9
3.0320001 -0.43099999 -1.854 7
3.1570001 -0.43900001 -1.847 8
3.2969999 -0.449 -1.845 8
3.45 -0.461 -1.847 8
3.5910001 -0.472 -1.8380001 8
3.756 -0.48500001 -1.837 9
2.9979999 -0.442 -1.851 6
3.135 -0.45300001 -1.852 8
3.2650001 -0.46200001 -1.846 8
3.411 -0.47400001 -1.844 8
3.5580001 -0.48500001 -1.839 9
3.721 -0.49900001 -1.8380001 8
2.974 -0.45500001 -1.854 7
3.1010001 -0.46399999 -1.85 8
3.2309999 -0.47400001 -1.844 7
3.3789999 -0.48699999 -1.844 8
3.5280001 -0.49900001 -1.841 8
3.691 -0.514 -1.84 9
2.0150001 -0.31900001 -1.268 13
3.069 -0.47600001 -1.848 7
3.2090001 -0.48800001 -1.848 8
3.348 -0.5 -1.844 8
3.5009999 -0.51300001 -1.8430001 8
3.654 -0.52700001 -1.839 8
1.7539999 -0.287 -1.114 3
3.046 -0.48899999 -1.85 7
3.181 -0.5 -1.848 7
3.3210001 -0.51300001 -1.845 8
3.47 -0.52700001 -1.8430001 8
3.625 -0.54100001 -1.84 8
1.5880001 -0.26899999 -1.018 2
3.0239999 -0.50199997 -1.853 7
3.154 -0.51300001 -1.848 7
3.2950001 -0.52600002 -1.846 8
3.4389999 -0.54000002 -1.842 8
3.602 -0.55599999 -1.844 8
1.556 -0.27200001 -1.005 2
3.0050001 -0.51499999 -1.8559999 7
3.1270001 -0.52499998 -1.848 7
3.2650001 -0.53799999 -1.844 8
3.4119999 -0.55299997 -1.842 8
3.5669999 -0.56900001 -1.841 8
1.525 -0.27500001 -0.99299997 2
2.9790001 -0.52700001 -1.8559999 7
3.1040001 -0.53799999 -1.848 7
3.2420001 -0.55199999 -1.846 8
3.3889999 -0.56699997 -1.845 8
3.536 -0.58200002 -1.839 8
1.499 -0.27900001 -0.98400003 2
0 0 0 0
3.0880001 -0.55199999 -1.853 7
3.217 -0.56400001 -1.845 7
3.3570001 -0.579 -1.841 8
3.5150001 -0.597 -1.842 8
1.4680001 -0.28099999 -0.97100002 2
0 0 0 0
3.062 -0.56400001 -1.851 8
3.1919999 -0.57700002 -1.844 7
3.339 -0.59299999 -1.844 8
3.4949999 -0.611 -1.844 8
1.45 -0.28600001 -0.96600002 3
1.702 -0.32800001 -1.084 6
3.0380001 -0.57599998 -1.849 7
3.174 -0.58999997 -1.846 8
3.3169999 -0.60699999 -1.844 8
3.4719999 -0.625 -1.845 8
0 0 0 0
1.587 -0.315 -1.017 4
3.0190001 -0.588 -1.85 7
3.1500001 -0.60299999 -1.845 8
3.296 -0.62 -1.844 8
3.45 -0.639 -1.845 7
0 0 0 0
1.562 -0.31900001 -1.008 5
3.0039999 -0.60100001 -1.852 6
3.135 -0.616 -1.847 7
3.276 -0.63300002 -1.844 8
3.4300001 -0.653 -1.845 8
0 0 0 0
1.529 -0.31999999 -0.99299997 6
2.9860001 -0.61400002 -1.852 6
3.119 -0.63 -1.849 7
3.2590001 -0.64700001 -1.846 7
3.4100001 -0.667 -1.845 8
0 0 0 0
1.517 -0.32600001 -0.991 7
2.9679999 -0.62599999 -1.852 6
3.0969999 -0.64099997 -1.846 7
3.24 -0.66000003 -1.845 7
3.3889999 -0.68000001 -1.8430001 8
0 0 0 0
1.501 -0.331 -0.986 7
2.9560001 -0.639 -1.854 6
3.086 -0.65499997 -1.849 7
3.2260001 -0.67400002 -1.846 7
3.3740001 -0.69400001 -1.844 7
0 0 0 0
0 0 0 0
2.9430001 -0.65100002 -1.855 6
3.073 -0.66799998 -1.85 7
3.207 -0.68599999 -1.844 8
3.3640001 -0.70899999 -1.847 7
0 0 0 0
0 0 0 0
0 0 0 0
3.0569999 -0.68099999 -1.849 6
3.191 -0.699 -1.8430001 7
3.348 -0.722 -1.847 8
0 0 0 0
0 0 0 0
0 0 0 0
3.0510001 -0.69499999 -1.853 7
3.1819999 -0.713 -1.846 7
3.335 -0.736 -1.846 7
0 0 0 0
0 0 0 0
1.796 -0.426 -1.147 2
3.0380001 -0.708 -1.853 6
3.1719999 -0.727 -1.846 7
3.326 -0.75099999 -1.848 8
0 0 0 0
0 0 0 0
1.6950001 -0.41100001 -1.087 2
3.0250001 -0.72000003 -1.851 6
3.165 -0.741 -1.848 7
3.313 -0.764 -1.847 8
0 0 0 0
0 0 0 0
1.585 -0.39199999 -1.02 2
3.013 -0.73199999 -1.849 6
3.151 -0.75400001 -1.846 7
3.299 -0.77700001 -1.844 7
0 0 0 0
0 0 0 0
1.549 -0.391 -0.99900001 2
3.006 -0.74599999 -1.851 6
3.1489999 -0.76899999 -1.85 7
3.2939999 -0.792 -1.846 8
0 0 0 0
0 0 0 0
1.528 -0.39300001 -0.98900002 2
2.9990001 -0.759 -1.85 7
3.1400001 -0.78200001 -1.848 7
3.2850001 -0.80599999 -1.845 7
0 0 0 0
0 0 0 0
1.525 -0.40000001 -0.98900002 2
2.994 -0.77200001 -1.852 7
3.1329999 -0.79500002 -1.848 7
3.28 -0.81999999 -1.846 8
0 0 0 0
0 0 0 0
1.521 -0.40599999 -0.98799998 2
2.99 -0.78500003 -1.852 7
3.128 -0.80800003 -1.848 7
3.2780001 -0.83499998 -1.847 7
0 0 0 0
0 0 0 0
1.5140001 -0.412 -0.98500001 2
2.984 -0.79799998 -1.851 7
3.1300001 -0.82300001 -1.851 7
3.2750001 -0.84899998 -1.848 7
0 0 0 0
0 0 0 0
1.505 -0.41600001 -0.98000002 2
2.9849999 -0.81199998 -1.853 6
3.1289999 -0.83700001 -1.852 7
3.279 -0.86500001 -1.851 7
0 0 0 0
0 0 0 0
1.5039999 -0.42300001 -0.98000002 2
2.984 -0.82499999 -1.854 6
3.1170001 -0.84799999 -1.846 7
3.2780001 -0.87900001 -1.851 7
0 0 0 0
0 0 0 0
1.508 -0.43099999 -0.98299998 2
2.9820001 -0.838 -1.853 6
3.1240001 -0.86400002 -1.85 7
3.2709999 -0.89099997 -1.847 7
0 0 0 0
0 0 0 0
1.508 -0.43799999 -0.98400003 2
2.98 -0.85000002 -1.852 7
3.1240001 -0.87699997 -1.85 7
3.2750001 -0.90600002 -1.848 7
0 0 0 0
0 0 0 0
1.508 -0.44400001 -0.98299998 1
2.9879999 -0.86500001 -1.8559999 7
3.1289999 -0.89200002 -1.852 7
3.276 -0.921 -1.847 8
0 0 0 0
0 0 0 0
1.527 -0.456 -0.995 1
2.9909999 -0.87900001 -1.8559999 7
3.1340001 -0.90600002 -1.852 8
3.2850001 -0.93699998 -1.85 8
0 0 0 0
0 0 0 0
1.526 -0.46200001 -0.99299997 1
2.9949999 -0.89200002 -1.8559999 6
3.1400001 -0.921 -1.853 7
3.2880001 -0.95099998 -1.849 8
0 0 0 0
0 0 0 0
1.527 -0.46900001 -0.99199998 0
3.003 -0.90700001 -1.858 7
3.141 -0.93400002 -1.851 7
3.3 -0.96700001 -1.851 8
0 0 0 0
0 0 0 0
0 0 0 0
3.007 -0.91900003 -1.8559999 6
3.148 -0.94800001 -1.851 7
3.306 -0.98100001 -1.85 8
0 0 0 0
0 0 0 0
0 0 0 0
3.0190001 -0.93400002 -1.859 7
3.158 -0.96200001 -1.852 7
3.3180001 -0.99699998 -1.852 7
0 0 0 0
0 0 0 0
0 0 0 0
3.027 -0.94800001 -1.859 7
3.171 -0.97799999 -1.854 7
3.3310001 -1.013 -1.853 7
0 0 0 0
0 0 0 0
1.476 -0.47499999 -0.94999999 0
3.03 -0.95899999 -1.855 7
3.1800001 -0.991 -1.853 7
3.3340001 -1.025 -1.849 8
0 0 0 0
0 0 0 0
2.901 -0.94400001 -1.86 6
3.0420001 -0.97299999 -1.8559999 7
3.1889999 -1.005 -1.851 7
3.3529999 -1.0420001 -1.852 7
0 0 0 0
0 0 0 0
2.911 -0.95599997 -1.86 7
3.0539999 -0.98699999 -1.8559999 7
3.2049999 -1.021 -1.853 7
3.372 -1.059 -1.854 8
0 0 0 0
0 0 0 0
2.9260001 -0.97100002 -1.8609999 7
3.0650001 -1 -1.854 8
3.2160001 -1.034 -1.85 8
3.3829999 -1.073 -1.851 8
0 0 0 0
0 0 0 0
2.938 -0.98400003 -1.86 7
3.0899999 -1.018 -1.8609999 7
3.24 -1.052 -1.855 7
3.4000001 -1.089 -1.851 8
0 0 0 0
1.448 -0.49700001 -0.95999998 0
2.957 -0.99800003 -1.863 7
3.099 -1.03 -1.8559999 7
3.256 -1.066 -1.854 8
3.4189999 -1.105 -1.851 8
0 0 0 0
0 0 0 0
2.971 -1.011 -1.862 6
3.1170001 -1.044 -1.857 7
3.2750001 -1.082 -1.854 8
3.4419999 -1.122 -1.852 8
0 0 0 0
0 0 0 0
2.9909999 -1.026 -1.863 7
3.1329999 -1.058 -1.855 7
3.2969999 -1.098 -1.855 7
3.46 -1.137 -1.85 8
0 0 0 0
0 0 0 0
3.0050001 -1.038 -1.8609999 6
3.154 -1.073 -1.855 7
3.319 -1.113 -1.8559999 8
3.4820001 -1.153 -1.85 8
0 0 0 0
1.41 -0.49900001 -0.91299999 0
3.0239999 -1.052 -1.86 7
3.177 -1.0880001 -1.857 7
3.3399999 -1.128 -1.854 8
3.5109999 -1.171 -1.851 8
0 0 0 0
2.8940001 -1.03 -1.862 6
3.043 -1.0650001 -1.859 7
3.2 -1.103 -1.857 7
3.3610001 -1.143 -1.852 8
3.536 -1.187 -1.85 8
0 0 0 0
2.9189999 -1.045 -1.864 6
3.0669999 -1.08 -1.86 7
3.2190001 -1.1160001 -1.854 7
3.3840001 -1.158 -1.851 8
3.562 -1.2029999 -1.85 8
0 0 0 0
2.9360001 -1.056 -1.8609999 6
3.0869999 -1.0930001 -1.858 7
3.2490001 -1.133 -1.8559999 7
3.4189999 -1.176 -1.854 9
3.5929999 -1.221 -1.85 8
1.4859999 -0.54699999 -0.98400003 1
2.961 -1.071 -1.862 7
3.1159999 -1.109 -1.86 7
3.276 -1.148 -1.8559999 8
3.4430001 -1.191 -1.852 8
3.6240001 -1.238 -1.85 8
0 0 0 0
2.984 -1.084 -1.8609999 7
3.142 -1.123 -1.86 8
3.3110001 -1.166 -1.86 8
3.4749999 -1.2079999 -1.853 8
3.6500001 -1.253 -1.846 8
1.393 -0.51700002 -0.90700001 0
3.007 -1.096 -1.859 8
3.171 -1.138 -1.86 8
3.335 -1.1799999 -1.8559999 8
3.5120001 -1.226 -1.854 8
3.6900001 -1.273 -1.848 8
2.8929999 -1.077 -1.868 6
3.0380001 -1.112 -1.8609999 8
3.2 -1.153 -1.859 7
3.3659999 -1.1950001 -1.8559999 8
3.54 -1.2410001 -1.851 8
3.7219999 -1.289 -1.846 9
2.915 -1.0880001 -1.864 7
3.0669999 -1.126 -1.8609999 8
3.227 -1.166 -1.858 8
3.3929999 -1.209 -1.852 8
3.5769999 -1.2589999 -1.852 8
3.76 -1.307 -1.845 9
2.9400001 -1.1 -1.862 7
3.0929999 -1.138 -1.858 8
3.2620001 -1.182 -1.859 8
3.4349999 -1.228 -1.8559999 7
3.6040001 -1.272 -1.846 8
3.796 -1.325 -1.8430001 9
2.9719999 -1.114 -1.863 7
3.132 -1.155 -1.863 8
3.302 -1.2 -1.862 8
3.4749999 -1.2460001 -1.858 8
3.651 -1.2920001 -1.851 8
3.8410001 -1.344 -1.844 9
3.0050001 -1.128 -1.865 7
3.164 -1.169 -1.862 7
3.3299999 -1.212 -1.858 8
3.5039999 -1.2589999 -1.853 8
3.6830001 -1.307 -1.846 9
3.888 -1.364 -1.845 10
3.0350001 -1.141 -1.863 7
3.1960001 -1.183 -1.86 8
3.3710001 -1.229 -1.86 8
3.546 -1.276 -1.854 8
3.7309999 -1.327 -1.848 9
3.938 -1.385 -1.847 10
3.066 -1.154 -1.862 7
3.237 -1.199 -1.863 8
3.4070001 -1.244 -1.859 8
3.5799999 -1.291 -1.851 8
3.7709999 -1.3430001 -1.846 9
3.9849999 -1.404 -1.846 10
3.1059999 -1.169 -1.864 7
3.27 -1.212 -1.86 8
3.4449999 -1.2589999 -1.857 8
3.625 -1.308 -1.851 8
3.819 -1.362 -1.846 9
4.0380001 -1.425 -1.847 9
3.1389999 -1.182 -1.862 7
3.316 -1.23 -1.864 8
3.4860001 -1.275 -1.8559999 8
3.6719999 -1.326 -1.852 9
3.8659999 -1.38 -1.845 10
4.0910001 -1.4450001 -1.846 10
3.177 -1.196 -1.8609999 7
3.355 -1.245 -1.863 9
3.5320001 -1.2920001 -1.857 8
3.7079999 -1.34 -1.846 9
3.9230001 -1.402 -1.848 10
4.1430001 -1.465 -1.844 10
3.2179999 -1.211 -1.862 8
3.395 -1.2589999 -1.8609999 8
3.575 -1.308 -1.8559999 9
3.7579999 -1.358 -1.846 10
3.9760001 -1.421 -1.847 9
4.2020001 -1.4859999 -1.844 10
3.26 -1.226 -1.862 8
3.4349999 -1.273 -1.859 9
3.6210001 -1.324 -1.855 9
3.8139999 -1.378 -1.848 10
4.0359998 -1.442 -1.849 10
4.257 -1.506 -1.842 10
3.302 -1.24 -1.8609999 7
3.4809999 -1.289 -1.858 8
3.668 -1.34 -1.854 9
3.868 -1.396 -1.848 9
4.0900002 -1.461 -1.847 10
4.3249998 -1.529 -1.844 10
3.345 -1.2539999 -1.86 8
3.5350001 -1.307 -1.8609999 8
3.717 -1.3559999 -1.851 9
3.928 -1.4170001 -1.85 9
4.152 -1.482 -1.848 10
4.3790002 -1.5470001 -1.8380001 10
3.398 -1.271 -1.863 8
3.5799999 -1.321 -1.858 9
3.767 -1.373 -1.849 9
3.9849999 -1.436 -1.849 10
4.21 -1.5 -1.845 10
4.454 -1.572 -1.841 10
3.4449999 -1.286 -1.863 8
3.628 -1.336 -1.8559999 9
3.822 -1.39 -1.849 9
4.0440001 -1.454 -1.849 10
4.2779999 -1.522 -1.846 10
4.5170002 -1.592 -1.837 10
3.493 -1.301 -1.8609999 8
3.675 -1.35 -1.853 9
3.888 -1.411 -1.853 10
4.1059999 -1.474 -1.848 10
4.335 -1.54 -1.841 11
4.5999999 -1.619 -1.84 11
3.539 -1.314 -1.858 8
3.7309999 -1.367 -1.853 9
3.9449999 -1.428 -1.851 10
4.171 -1.493 -1.848 10
4.4060001 -1.562 -1.841 10
4.671 -1.64 -1.837 11
3.596 -1.331 -1.859 8
3.786 -1.383 -1.851 9
4.006 -1.446 -1.85 10
4.2350001 -1.512 -1.846 9
4.4780002 -1.5829999 -1.839 10
4.7550001 -1.666 -1.8380001 11
3.6470001 -1.345 -1.857 8
3.8469999 -1.4 -1.852 9
4.0770001 -1.467 -1.853 10
4.3080001 -1.534 -1.847 10
4.5489998 -1.604 -1.837 11
4.8340001 -1.689 -1.836 11
3.7019999 -1.36 -1.855 8
3.914 -1.42 -1.854 10
4.138 -1.484 -1.85 11
4.375 -1.552 -1.844 10
4.6350002 -1.6289999 -1.839 11
4.9219999 -1.714 -1.835 11
3.76 -1.375 -1.854 9
3.9779999 -1.437 -1.853 11
4.2119999 -1.505 -1.852 10
4.4520001 -1.574 -1.844 10
4.7220001 -1.654 -1.84 10
5.0089998 -1.739 -1.834 10
3.8169999 -1.39 -1.852 8
4.0430002 -1.454 -1.853 11
4.2820001 -1.523 -1.851 10
4.5229998 -1.5930001 -1.841 11
4.809 -1.677 -1.84 11
5.0970001 -1.763 -1.831 10
3.8770001 -1.404 -1.85 9
4.1059999 -1.47 -1.849 11
4.3520002 -1.541 -1.848 11
4.6090002 -1.6160001 -1.842 11
4.8920002 -1.699 -1.837 12
5.1880002 -1.7869999 -1.827 11
3.9460001 -1.4220001 -1.851 9
4.1739998 -1.487 -1.847 11
4.4229999 -1.558 -1.845 10
4.6929998 -1.637 -1.841 10
4.98 -1.722 -1.835 11
5.276 -1.809 -1.822 11
4.0190001 -1.4400001 -1.853 9
4.2509999 -1.506 -1.848 10
4.5 -1.5779999 -1.8430001 11
4.7859998 -1.661 -1.8430001 11
5.0770001 -1.747 -1.834 10
5.3889999 -1.839 -1.823 11
4.0910001 -1.457 -1.853 10
4.3280001 -1.525 -1.848 11
4.5760002 -1.595 -1.839 11
4.8740001 -1.683 -1.841 11
5.1669998 -1.7690001 -1.83 11
5.5110002 -1.8710001 -1.825 11
4.1719999 -1.477 -1.8559999 9
4.4089999 -1.544 -1.848 11
4.6739998 -1.62 -1.8430001 11
4.9629998 -1.704 -1.8380001 11
5.2459998 -1.785 -1.8200001 11
5.6240001 -1.899 -1.823 12
4.2379999 -1.4910001 -1.851 10
4.4850001 -1.561 -1.845 11
4.763 -1.64 -1.842 11
5.0689998 -1.73 -1.839 10
5.3790002 -1.8200001 -1.827 11
5.7449999 -1.929 -1.822 11
4.3200002 -1.51 -1.852 10
4.5689998 -1.579 -1.844 12
4.8639998 -1.665 -1.844 11
5.1570001 -1.749 -1.8329999 10
5.5120001 -1.854 -1.8329999 10
5.8670001 -1.9579999 -1.8200001 10
4.3940001 -1.524 -1.848 10
4.6589999 -1.599 -1.844 11
4.954 -1.684 -1.841 11
5.2610002 -1.772 -1.832 11
5.6269999 -1.88 -1.831 12
5.9949999 -1.988 -1.818 10
4.474 -1.541 -1.846 10
4.7449999 -1.617 -1.841 11
5.0549998 -1.706 -1.84 11
5.3740001 -1.798 -1.832 10
5.737 -1.903 -1.826 11
6.1420002 -2.0220001 -1.819 10
4.5570002 -1.557 -1.844 10
4.8439999 -1.638 -1.842 11
5.1430001 -1.723 -1.834 11
5.5029998 -1.827 -1.835 10
5.8590002 -1.9299999 -1.822 12
6.2820001 -2.0539999 -1.817 10
4.6360002 -1.571 -1.839 9
4.9359999 -1.656 -1.8380001 11
5.2600002 -1.748 -1.836 10
5.6129999 -1.849 -1.83 12
5.9959998 -1.96 -1.822 11
6.427 -2.085 -1.813 11
4.7389998 -1.5930001 -1.842 10
5.0440001 -1.678 -1.84 12
5.368 -1.7690001 -1.8329999 11
5.737 -1.874 -1.829 11
6.1339998 -1.989 -1.8200001 11
6.5799999 -2.118 -1.811 10
4.8340001 -1.61 -1.841 10
5.1420002 -1.696 -1.836 11
5.4899998 -1.794 -1.834 11
5.8559999 -1.897 -1.824 10
6.277 -2.0179999 -1.818 11
6.7620001 -2.1589999 -1.814 11
4.9390001 -1.63 -1.841 11
5.2420001 -1.7130001 -1.832 11
5.6129999 -1.818 -1.8329999 12
5.9970002 -1.926 -1.824 11
6.434 -2.05 -1.818 10
6.934 -2.194 -1.812 11
5.0339999 -1.645 -1.8380001 11
5.3509998 -1.732 -1.829 11
5.7280002 -1.8380001 -1.8279999 12
6.1360002 -1.9529999 -1.823 11
6.585 -2.0799999 -1.814 11
7.1030002 -2.2279999 -1.807 12
5.1389999 -1.663 -1.836 11
5.4780002 -1.756 -1.831 11
5.8590002 -1.862 -1.827 11
6.2719998 -1.977 -1.818 10
6.7589998 -2.115 -1.8150001 11
7.2820001 -2.2620001 -1.802 11
5.2529998 -1.683 -1.836 10
5.605 -1.779 -1.831 11
5.9910002 -1.8839999 -1.823 12
6.4289999 -2.006 -1.817 11
6.9330001 -2.148 -1.813 11
7.5159998 -2.312 -1.809 10
5.3590002 -1.698 -1.832 10
5.724 -1.798 -1.8279999 12
6.1300001 -1.908 -1.822 11
6.585 -2.0339999 -1.8150001 11
7.0999999 -2.177 -1.807 11
7.7119999 -2.349 -1.803 10
5.4829998 -1.719 -1.832 10
5.855 -1.819 -1.826 11
6.283 -1.9349999 -1.822 11
6.7620001 -2.066 -1.816 11
7.3270001 -2.223 -1.814 10
7.928 -2.3889999 -1.801 10
5.6030002 -1.737 -1.831 11
5.9840002 -1.8380001 -1.822 11
6.434 -1.96 -1.8200001 11
6.9260001 -2.0940001 -1.812 11
7.5180001 -2.256 -1.811 11
8.1370001 -2.4260001 -1.794 11
5.7290001 -1.755 -1.829 11
6.118 -1.858 -1.818 11
6.5799999 -1.9809999 -1.814 11
7.1259999 -2.1289999 -1.814 11
7.7160001 -2.289 -1.8049999 11
8.3780003 -2.4690001 -1.791 11
5.8590002 -1.773 -1.827 11
6.2690001 -1.881 -1.818 11
6.7519999 -2.0090001 -1.814 12
7.2950001 -2.154 -1.807 11
7.9159999 -2.3210001 -1.799 11
8.618 -2.51 -1.785 11
6 -1.793 -1.826 10
6.4229999 -1.903 -1.816 11
6.9349999 -2.0380001 -1.814 11
7.5079999 -2.1900001 -1.808 11
8.1409998 -2.3570001 -1.795 11
8.8950005 -2.559 -1.784 11
6.1350002 -1.8099999 -1.823 11
6.573 -1.9220001 -1.812 11
7.1139998 -2.0639999 -1.812 11
7.698 -2.217 -1.802 10
8.3649998 -2.392 -1.789 11
9.1669998 -2.6040001 -1.779 12
6.2880001 -1.831 -1.823 11
6.7340002 -1.944 -1.809 12
7.2989998 -2.0899999 -1.809 12
7.9130001 -2.2490001 -1.8 11
8.6230001 -2.434 -1.788 12
9.4580002 -2.6530001 -1.775 12
6.4400001 -1.849 -1.8200001 11
6.921 -1.97 -1.811 11
7.506 -2.1199999 -1.809 11
8.1210003 -2.276 -1.793 11
8.8730001 -2.47 -1.7819999 12
9.7670002 -2.7019999 -1.77 12
6.5939999 -1.8660001 -1.817 10
7.0949998 -1.9910001 -1.807 11
7.698 -2.1429999 -1.803 10
8.3549995 -2.309 -1.789 11
9.1499996 -2.5109999 -1.778 12
10.099 -2.7539999 -1.765 13
6.7509999 -1.883 -1.813 12
7.2810001 -2.013 -1.804 12
7.908 -2.1700001 -1.799 12
8.6099997 -2.3440001 -1.786 12
9.4490004 -2.556 -1.775 12
10.452 -2.809 -1.761 13
6.9330001 -1.904 -1.813 11
7.4910002 -2.04 -1.806 10
8.125 -2.1949999 -1.794 11
8.8629999 -2.3770001 -1.781 13
9.7449999 -2.596 -1.768 12
10.841 -2.8699999 -1.758 13
7.145 -1.931 -1.819 10
7.6900001 -2.0610001 -1.801 10
8.3500004 -2.221 -1.789 11
9.1389999 -2.4130001 -1.778 13
10.091 -2.6459999 -1.767 12
11.253 -2.9319999 -1.755 14
7.323 -1.947 -1.8150001 10
7.908 -2.086 -1.8 11
8.5959997 -2.2490001 -1.785 12
9.4209995 -2.447 -1.773 12
10.426 -2.6900001 -1.761 13
11.678 -2.994 -1.75 13
7.5100002 -1.964 -1.8099999 11
8.1099997 -2.1040001 -1.793 12
8.8459997 -2.276 -1.781 12
9.7220001 -2.483 -1.768 13
10.813 -2.744 -1.7589999 14
12.124 -3.0569999 -1.743 14
7.6999998 -1.979 -1.8049999 11
8.3290005 -2.1229999 -1.7869999 12
9.1090002 -2.3039999 -1.776 13
10.035 -2.52 -1.763 12
11.188 -2.79 -1.752 14
12.574 -3.115 -1.732 13
7.9050002 -1.995 -1.801 11
8.573 -2.1459999 -1.784 12
9.3950005 -2.3340001 -1.773 13
10.38 -2.5599999 -1.7589999 13
11.635 -2.8499999 -1.751 14
13.047 -3.1760001 -1.721 13
8.1049995 -2.0090001 -1.795 11
8.8190002 -2.1670001 -1.78 12
9.6859999 -2.362 -1.768 13
10.757 -2.6040001 -1.758 14
12.076 -2.9030001 -1.747 14
13.533 -3.233 -1.706 14
8.3240004 -2.0239999 -1.79 11
9.0670004 -2.1860001 -1.774 13
9.9910002 -2.3900001 -1.763 13
11.14 -2.6459999 -1.755 14
12.501 -2.9489999 -1.735 15
14.112 -3.3069999 -1.697 13
8.5699997 -2.0420001 -1.789 12
9.3459997 -2.2090001 -1.771 13
10.331 -2.4230001 -1.76 13
11.556 -2.6900001 -1.751 15
12.924 -2.9890001 -1.719 15
14.686 -3.3740001 -1.683 12
8.7959995 -2.0539999 -1.7819999 12
9.6269999 -2.23 -1.766 13
10.678 -2.4530001 -1.756 13
11.987 -2.734 -1.747 15
13.4 -3.0350001 -1.705 14
15.361 -3.457 -1.674 12
9.0539999 -2.0699999 -1.779 13
9.9329996 -2.2520001 -1.762 13
11.055 -2.487 -1.753 14
12.4 -2.7679999 -1.7359999 15
13.951 -3.0929999 -1.697 14
16.070999 -3.54 -1.6619999 9
9.3290005 -2.086 -1.777 14
10.242 -2.2709999 -1.756 14
11.454 -2.52 -1.75 15
12.826 -2.8010001 -1.722 15
14.525 -3.1489999 -1.6849999 13
16.843 -3.628 -1.649 11
9.5950003 -2.0969999 -1.771 13
10.583 -2.2939999 -1.7539999 14
11.859 -2.5510001 -1.745 15
13.259 -2.8299999 -1.707 15
15.163 -3.214 -1.677 11
17.747 -3.737 -1.643 12
9.8850002 -2.1110001 -1.767 14
10.939 -2.316 -1.75 14
12.281 -2.5799999 -1.738 16
13.772 -2.8710001 -1.698 15
15.82 -3.2739999 -1.664 11
18.669001 -3.839 -1.63 13
10.188 -2.1229999 -1.762 14
11.306 -2.336 -1.7460001 15
12.686 -2.5999999 -1.726 16
14.311 -2.911 -1.687 13
16.533001 -3.339 -1.652 10
19.646 -3.941 -1.613 14
10.478 -2.1300001 -1.7539999 14
11.717 -2.3610001 -1.745 15
13.108 -2.619 -1.7130001 15
14.909 -2.9560001 -1.678 12
17.341999 -3.4130001 -1.641 11
20.686001 -4.0440001 -1.591 11
10.829 -2.1440001 -1.752 14
12.113 -2.3770001 -1.738 15
13.559 -2.6389999 -1.699 15
15.507 -2.9949999 -1.665 12
18.195999 -3.4890001 -1.63 12
21.844 -4.1570001 -1.5700001 10
11.185 -2.154 -1.749 14
12.488 -2.3840001 -1.725 17
14.074 -2.665 -1.691 14
16.194 -3.0420001 -1.655 10
19.15 -3.5710001 -1.618 13
23.421 -4.336 -1.567 20
11.551 -2.164 -1.745 15
12.895 -2.3940001 -1.715 15
14.608 -2.6889999 -1.6799999 14
16.902 -3.085 -1.643 11
20.118999 -3.645 -1.601 14
24.832001 -4.4660001 -1.541 22
11.959 -2.175 -1.743 15
13.313 -2.3989999 -1.701 16
15.195 -2.7149999 -1.67 13
17.687 -3.1329999 -1.631 12
21.205999 -3.727 -1.5829999 11
25.408001 -4.4330001 -1.454 18
12.318 -2.1719999 -1.732 16
13.762 -2.404 -1.689 15
15.788 -2.734 -1.658 10
18.517 -3.1800001 -1.618 13
22.403 -3.8180001 -1.566 12
26.021 -4.401 -1.367 5
12.698 -2.1689999 -1.722 15
14.252 -2.4119999 -1.679 14
16.455 -2.7590001 -1.648 10
19.462999 -3.237 -1.608 14
23.726999 -3.914 -1.548 21
29.135 -4.7680001 -1.396 33
13.096 -2.164 -1.711 15
14.764 -2.4159999 -1.668 13
17.139999 -2.78 -1.635 11
20.351 -3.2720001 -1.587 15
25.315001 -4.0370002 -1.535 23
29.804001 -4.7150002 -1.295 44
13.496 -2.155 -1.699 16
15.31 -2.421 -1.658 12
17.856001 -2.7980001 -1.622 12
21.402 -3.323 -1.572 11
25.556999 -3.934 -1.436 24
30.243999 -4.6170001 -1.181 53
13.937 -2.1459999 -1.689 14
15.894 -2.4230001 -1.647 11
18.650999 -2.816 -1.609 13
22.659 -3.3900001 -1.563 10
26.094 -3.8710001 -1.352 9
26.205999 -3.8540001 -0.91000003 29
14.397 -2.135 -1.679 14
16.518999 -2.424 -1.638 10
19.532 -2.839 -1.599 14
23.889999 -3.4400001 -1.544 21
26.107 -3.7260001 -1.242 48
26.113001 -3.694 -0.79699999 66
14.889 -2.122 -1.669 13
17.153 -2.4200001 -1.626 11
20.391001 -2.846 -1.581 15
25.157 -3.48 -1.52 23
29.686001 -4.066 -1.2869999 35
30.490999 -4.1389999 -0.80400002 1
15.39 -2.1029999 -1.6569999 12
17.854 -2.414 -1.615 12
21.405001 -2.8640001 -1.568 13
25.658001 -3.4000001 -1.443 24
30.191999 -3.961 -1.1849999 59
31.764999 -4.1290002 -0.70999998 1
15.935 -2.0829999 -1.647 10
18.549 -2.398 -1.598 12
22.48 -2.8759999 -1.554 13
25.945 -3.2850001 -1.352 19
31.009001 -3.8859999 -1.091 48
35.506001 -4.4070001 -0.653 31
16.52 -2.062 -1.638 10
19.330999 -2.3859999 -1.587 13
23.76 -2.901 -1.5470001 21
28.781 -3.4760001 -1.386 33
31.461 -3.7590001 -0.98500001 36
35.620998 -4.2150002 -0.51800001 45
17.141001 -2.0369999 -1.63 11
20.118 -2.362 -1.5700001 14
24.624001 -2.858 -1.505 21
29.296 -3.362 -1.296 38
0 0 0 0
46.998001 -5.2789998 -0.50599998 18
17.743999 -2 -1.6160001 11
21.011999 -2.3399999 -1.557 14
25.723 -2.8299999 -1.472 23
30.243 -3.289 -1.224 45
0 0 0 0
50.068001 -5.322 -0.354 7
18.378 -1.959 -1.602 12
21.983999 -2.313 -1.545 13
25.934999 -2.694 -1.387 23
30.941 -3.175 -1.137 38
35.463001 -3.595 -0.71100003 45
37.370998 -3.744 -0.12800001 17
19.115999 -1.92 -1.5930001 13
23.261 -2.3039999 -1.548 20
0 0 0 0
30.985001 -2.99 -1.027 37
34.044998 -3.243 -0.56300002 2
36.011002 -3.3889999 0 97
19.774 -1.864 -1.576 14
24.128 -2.243 -1.52 21
0 0 0 0
32.140999 -2.905 -0.954 42
37.459 -3.3399999 -0.49200001 30
37.474998 -3.2950001 0.127 10
20.594999 -1.812 -1.568 15
24.903999 -2.1589999 -1.4809999 25
29.753 -2.5409999 -1.275 46
0 0 0 0
48.001999 -3.983 -0.47099999 15
37.583 -3.0739999 0.249 31
21.455 -1.755 -1.5599999 16
25.948999 -2.0880001 -1.456 24
30.268 -2.398 -1.198 41
33.577999 -2.6170001 -0.77399999 46
0 0 0 0
37.687 -2.848 0.37 37
22.216 -1.676 -1.541 12
26.190001 -1.942 -1.3839999 24
30.646999 -2.234 -1.113 52
31.334999 -2.2460001 -0.62300003 11
37.794998 -2.665 -0.132 29
82.142998 -5.6919999 1.058 9
23.431 -1.618 -1.549 20
26.820999 -1.818 -1.331 26
31.004 -2.0639999 -1.03 52
35.479 -2.3180001 -0.597 2
66.227997 -4.2480001 -0.029999999 27
0 0 0 0
24.177 -1.515 -1.523 21
27.454 -1.686 -1.279 15
31.552 -1.897 -0.95300001 38
43.408001 -2.5580001 -0.60100001 22
36.175999 -2.089 0.088 105
82.160004 -4.6490002 1.54 17
24.738001 -1.39 -1.484 22
0 0 0 0
32.122002 -1.727 -0.87800002 45
36.307999 -1.908 -0.40000001 39
39.066002 -2.007 0.205 2
36.366001 -1.8279999 0.78100002 13
25.841 -1.285 -1.476 24
29.823999 -1.446 -1.217 55
32.833 -1.553 -0.80599999 44
39.222 -1.808 -0.32499999 1
72.496002 -3.2609999 0.574 6
36.383999 -1.594 0.87800002 78
26.309 -1.138 -1.4299999 21
30.107 -1.266 -1.147 60
30.115 -1.23 -0.65899998 3
48.119999 -1.9069999 -0.27200001 4
36.500999 -1.403 0.384 32
36.504002 -1.3609999 0.97399998 34
26.572001 -0.97500002 -1.374 25
30.648001 -1.087 -1.087 36
32.313 -1.107 -0.62300003 2
36.720001 -1.217 -0.115 15
36.605999 -1.169 0.47600001 85
36.615002 -1.127 1.067 58
26.934999 -0.80900002 -1.323 19
31.299999 -0.90399998 -1.0319999 38
0 0 0 0
36.681999 -0.97500002 -0.026000001 4
36.717999 -0.935 0.56400001 101
36.735001 -0.89300001 1.155 31
27.413 -0.64399999 -1.281 4
31.445999 -0.70099998 -0.96200001 51
36.810001 -0.778 -0.53399998 34
62.580002 -1.248 0.098999999 96
36.84 -0.69300002 0.64999998 73
36.824001 -0.65100002 1.2410001 67
27.742001 -0.46700001 -1.232 1
31.163 -0.48800001 -0.88300002 37
36.921001 -0.53500003 -0.45300001 35
62.806999 -0.84100002 0.236 101
36.941002 -0.45199999 0.73100001 15
62.862 -0.69800001 2.2520001 11
27.568001 -0.28 -1.164 1
32.605 -0.294 -0.85399997 44
37.021 -0.292 -0.37599999 45
40.064999 -0.26699999 0.235 1
0 0 0 0
75.117996 -0.33500001 2.8440001 4
27.569 -0.093000002 -1.1059999 42
32.405998 -0.074000001 -0.78200001 28
37.144001 -0.043000001 -0.30199999 19
37.144001 0 0.29100001 8
0 0 0 0
77.958 0.177 3.102 8
27.518999 0.093000002 -1.049 47
32.761002 0.147 -0.727 26
27.542 0.154 -0.171 80
27.462 0.184 0.266 50
27.424 0.214 0.70300001 52
27.445999 0.244 1.141 39
27.379 0.27700001 -0.99400002 89
27.424999 0.30899999 -0.55800003 115
27.423 0.33899999 -0.121 89
27.468 0.36899999 0.315 40
27.462 0.40000001 0.75199997 34
27.393 0.428 1.186 42
27.4 0.46399999 -0.94700003 80
27.548 0.49599999 -0.514 2
33.598999 0.64200002 -0.093000002 2
33.916 0.685 0.44400001 6
33.926998 0.72100002 0.98299998 9
52.841 1.183 2.3710001 32
27.66 0.65799999 -0.91100001 22
37.780998 0.93800002 -0.64499998 52
34.007 0.88200003 -0.041000001 1
33.042999 0.89300001 0.484 39
34.077999 0.95700002 1.039 8
52.615002 1.536 2.4400001 49
30.938999 0.94599998 -0.97299999 49
37.772999 1.196 -0.58899999 50
34.138 1.118 0.0070000002 8
33.223999 1.124 0.53299999 41
33.342999 1.163 1.063 16
52.771999 1.897 2.5190001 51
31.906 1.1950001 -0.95899999 41
37.613998 1.451 -0.53500003 51
33.548 1.3279999 0.052000001 41
32.764 1.331 0.56900001 39
33.066002 1.3789999 1.097 27
52.549999 2.2490001 2.576 34
31.521999 1.4 -0.90700001 35
34.313 1.559 -0.44600001 9
34.047001 1.5829999 0.093999997 41
32.790001 1.558 0.60900003 41
33 1.605 1.1339999 13
53.056 2.6389999 2.6630001 41
33.415001 1.7180001 -0.92199999 46
32.970001 1.727 -0.38999999 1
33.007 1.762 0.12800001 39
32.881001 1.79 0.64700001 41
32.681999 1.814 1.158 36
32.895 1.86 1.6849999 0
33.383999 1.9450001 -0.88700002 43
37.230999 2.207 -0.403 49
33.022999 1.99 0.161 38
32.643002 2.0009999 0.67400002 39
33.248001 2.0739999 1.21 24
32.929001 2.0880001 1.7180001 1
33.755001 2.2019999 -0.866 42
33.171001 2.197 -0.329 2
33.261002 2.237 0.192 40
32.834999 2.2420001 0.70599997 39
33.071999 2.2909999 1.232 34
48.780998 3.4330001 2.586 40
31.048 2.244 -0.77100003 0
37.081001 2.7149999 -0.33899999 50
33.138 2.4590001 0.21699999 39
33.09 2.4890001 0.73699999 33
33.174999 2.5320001 1.261 6
48.858002 3.779 2.6259999 5
31.113001 2.4679999 -0.75099999 1
36.917 2.964 -0.31200001 50
32.817001 2.6659999 0.237 14
33.018002 2.7149999 0.75700003 39
48.681999 4.0539999 1.881 41
48.544998 4.0949998 2.6389999 47
34.214001 2.9549999 -0.80599999 50
36.584999 3.1960001 -0.28799999 49
32.869999 2.9030001 0.255 35
33.008999 2.947 0.77499998 39
33.356998 3.0120001 1.307 5
87.879997 8.0249996 4.8239999 62
33.078999 3.092 -0.764 32
36.597 3.4530001 -0.27200001 49
32.855999 3.1300001 0.26899999 38
32.728001 3.1500001 0.78200001 38
82.666 8.0360003 3.273 12
83.537003 8.2089996 4.619 39
34.646 3.4820001 -0.78799999 46
36.183998 3.6689999 -0.257 48
32.858002 3.3610001 0.28 30
32.972 3.405 0.79799998 39
32.987999 3.441 1.316 6
83.768997 8.8260002 4.658 45
34.562 3.72 -0.778 47
36.182999 3.927 -0.249 48
32.566002 3.563 0.285 10
32.759998 3.615 0.79900002 38
32.733002 3.645 1.312 14
83.464996 9.3800001 4.6560001 35
34.432999 3.954 -0.77100003 43
36.262001 4.1939998 -0.24600001 51
38.408001 4.4770002 0.34 1
33.300999 3.9130001 0.81599998 9
32.727001 3.878 1.3150001 3
83.780998 10.009 4.6810002 42
34.544998 4.2129998 -0.77399999 49
35.827 4.401 -0.243 47
85.912003 10.631 0.759 44
59.277 7.3870001 1.452 28
83.955002 10.544 3.372 35
83.785004 10.608 4.6789999 45
34.391998 4.4419999 -0.77499998 45
35.620998 4.6279998 -0.24600001 49
85.918999 11.242 0.74699998 37
59.264999 7.8060002 1.443 35
82.889 11 3.3180001 29
83.796997 11.205 4.6680002 29
34.401001 4.6919999 -0.78299999 46
35.548 4.875 -0.25400001 46
61.702999 8.5150003 0.52200001 2
60.77 8.4379997 1.465 2
71.039001 9.9309998 2.826 46
71.706001 10.095 3.977 11
34.294998 4.9229999 -0.79299998 45
35.493 5.125 -0.266 47
61.606998 8.9429998 0.5 3
70.818001 10.34 1.683 48
70.988998 10.434 2.799 48
71.821999 10.624 3.9579999 37
34.168999 5.1500001 -0.80599999 44
35.201 5.3330002 -0.28099999 47
38.424999 5.8520002 0.29300001 2
70.762001 10.835 1.648 47
70.836998 10.911 2.76 49
71.540001 11.089 3.9089999 37
33.903999 5.3540001 -0.81999999 45
34.926998 5.54 -0.29899999 46
38.144001 6.0819998 0.27000001 1
70.959999 11.374 1.613 9
70.991997 11.443 2.7260001 43
71.388 11.576 3.8599999 8
33.657001 5.5609999 -0.838 45
34.493 5.723 -0.31999999 44
60.93 10.157 0.389 20
42.195999 7.0679998 0.93000001 6
42.064999 7.0840001 1.586 11
85.083 14.409 4.5430002 44
33.405998 5.7610002 -0.85900003 45
34.445 5.9640002 -0.347 44
37.514999 6.5240002 0.208 6
42.016998 7.342 0.89200002 50
42.009998 7.3779998 1.55 26
61.02 10.773 3.21 7
32.972 5.9289999 -0.87900001 42
34.650002 6.2529998 -0.382 45
37.143002 6.7290001 0.17200001 8
61.269001 11.144 1.244 47
42.007999 7.6750002 1.513 30
71.348 13.101 3.6889999 43
29.367001 5.4920001 -0.81400001 1
34.549999 6.4840002 -0.41600001 44
36.521 6.8779998 0.132 15
71.843002 13.581 1.388 28
40.831001 7.7529998 1.429 3
29.356001 5.599 1.489 5
29.214001 5.6739998 -0.84299999 39
34.467999 6.7150002 -0.45500001 45
36.546001 7.145 0.090000004 14
0 0 0 0
29.322001 5.777 0.99299997 28
29.264 5.7909999 1.451 41
28.934 5.8299999 -0.87199998 45
29.240999 5.9089999 -0.42199999 66
29.177999 5.915 0.035 79
29.125 5.9239998 0.493 64
29.128 5.947 0.95099998 40
71.420998 14.646 3.4560001 45
28.959999 6.0450001 -0.91299999 54
29.065001 6.0840001 -0.461 100
29.122 6.1149998 -0.0040000002 89
70.137001 14.777 1.092 3
40.804001 8.6280003 1.277 4
68.668999 14.576 3.2309999 40
29.037001 6.2750001 -0.95999998 39
34.591999 7.493 -0.60000002 49
35.376999 7.6830001 -0.057 48
65.456001 14.262 0.92400002 16
68.177002 14.906 2.036 46
68.546997 15.044 3.1270001 38
28.979 6.4749999 -1.006 30
35.219002 7.8850002 -0.66799998 47
35.675999 8.0050001 -0.114 47
65.454002 14.73 0.82099998 28
40.903 9.2340002 1.158 52
68.550003 15.529 3.023 35
28.801001 6.6409998 -1.049 15
35.16 8.1230001 -0.727 49
35.738998 8.2779999 -0.17399999 9
40.967999 9.5120001 0.44600001 20
40.650002 9.467 1.084 58
69.167999 16.164 2.937 12
28.790001 6.8499999 -1.102 24
34.188999 8.1470003 -0.76899999 52
39.551998 9.4440002 -0.26499999 3
60.216 14.412 0.54799998 9
40.915001 9.8199997 1.0190001 41
40.905998 9.849 1.665 3
28.740999 7.0450001 -1.1569999 22
33.339001 8.1859999 -0.81400001 44
38.328999 9.4289999 -0.329 4
44.926998 11.075 0.324 19
55.361 13.683 1.276 27
80.783997 20.028 3.1400001 20
28.639 7.2280002 -1.212 24
32.82 8.2950001 -0.86900002 42
38.104 9.6459999 -0.405 25
44.321999 11.242 0.23100001 52
55.478001 14.109 1.169 10
66.224998 16.889999 2.4449999 10
0 0 0 0
32.546001 8.4610004 -0.93099999 42
37.569 9.7810001 -0.479 44
44.348999 11.569 0.13699999 66
70.503998 18.437 1.339 7
55.554001 14.569 1.9349999 4
27.002001 7.21 -1.265 28
32.144001 8.5900002 -0.99299997 40
37.058998 9.9169998 -0.55599999 53
43.75 11.728 0.037999999 56
45.028 12.096 0.755 2
53.423 14.385 1.7460001 17
26.612 7.2979999 -1.311 24
0 0 0 0
36.151001 9.934 -0.62699997 50
43.657001 12.015 -0.061999999 45
45.141998 12.448 0.65399998 11
53.931 14.906 1.64 5
25.145 7.0780001 -1.302 6
29.193001 8.2229996 -1.045 18
35.037998 9.8789997 -0.69499999 50
0 0 0 0
45.212002 12.79 0.546 2
53.689999 15.219 1.506 12
24.349001 7.0310001 -1.325 6
29.139 8.4169998 -1.118 23
34.210999 9.8909998 -0.76599997 46
40.778999 11.802 -0.259 14
58.169998 16.863001 0.55900002 19
51.881001 15.07 1.327 6
23.504999 6.9559999 -1.344 6
28.546 8.4519997 -1.173 31
33.515999 9.9309998 -0.83999997 47
39.213001 11.629 -0.35299999 16
55.937 16.614 0.391 7
58.429001 17.386 1.344 20
22.823999 6.9200001 -1.37 8
27.344999 8.2910004 -1.201 28
33.015999 10.018 -0.91799998 43
37.756001 11.467 -0.44400001 15
38.43 11.687 0.164 0
81.848999 24.93 1.665 5
22.018999 6.835 -1.387 11
26.962 8.3690004 -1.263 18
0 0 0 0
34.187 10.624 -0.5 4
51.935001 16.159 0.078000002 27
59.141998 18.431 1.039 12
21.35 6.7810001 -1.41 17
25.247 8.0170002 -1.2589999 5
29.593 9.3999996 -0.99699998 9
0 0 0 0
42.800999 13.615 -0.059999999 2
52.616001 16.761 0.773 65
20.639999 6.704 -1.4299999 17
24.297001 7.8870001 -1.288 6
29.479 9.5719995 -1.084 20
34.280998 11.136 -0.70499998 46
41.191002 13.391 -0.18000001 3
62.117001 20.219999 0.73000002 13
19.964001 6.6269999 -1.448 15
23.416 7.7680001 -1.316 5
0 0 0 0
33.792 11.215 -0.80199999 47
39.803001 13.218 -0.29800001 13
58.181 19.344 0.50400001 6
19.209999 6.5149999 -1.459 14
22.496 7.6230001 -1.34 7
27.572001 9.3409996 -1.192 26
33.166 11.236 -0.89300001 44
35.756001 12.121 -0.382 12
52.556 17.836 0.29100001 4
18.594 6.4380002 -1.477 14
21.754 7.526 -1.3710001 15
26.542999 9.1789999 -1.238 8
30.771 10.641 -0.93300003 8
35.122002 12.15 -0.491 49
51.564999 17.853001 0.116 11
17.978001 6.3520002 -1.493 13
20.971001 7.4029999 -1.395 17
24.987 8.8149996 -1.252 5
29.889 10.543 -1.008 20
34.702999 12.244 -0.602 42
35.748001 12.62 -0.037 1
17.396999 6.2690001 -1.5089999 12
20.224001 7.2800002 -1.419 15
23.969 8.6199999 -1.286 6
29.643 10.658 -1.104 24
34.256001 12.317 -0.713 47
35.540001 12.786 -0.15899999 70
16.862 6.1929998 -1.526 11
19.429001 7.1269999 -1.4349999 15
23.018999 8.4390001 -1.3200001 6
27.92 10.231 -1.141 20
30.719 11.256 -0.74900001 27
35.313999 12.946 -0.28299999 24
16.292999 6.099 -1.538 11
18.726999 7 -1.456 14
22.134001 8.2650003 -1.352 11
0 0 0 0
30.495001 11.379 -0.85600001 30
30.733 11.473 -0.35600001 64
15.677 5.9790001 -1.543 10
18.101999 6.8920002 -1.478 13
21.253 8.0819998 -1.381 16
25.389 9.6470003 -1.227 5
30.167 11.461 -0.95999998 25
30.584999 11.62 -0.46799999 71
15.148 5.882 -1.553 9
17.461 6.7670002 -1.4960001 12
20.318001 7.8649998 -1.4 17
24.197001 9.3590002 -1.2640001 5
29.951 11.578 -1.067 23
34.459 13.322 -0.65700001 30
14.7 5.8099999 -1.568 9
16.857 6.651 -1.5140001 12
19.525999 7.6919999 -1.425 15
23.093 9.0880003 -1.299 5
28.211 11.096 -1.117 18
30.657 12.057 -0.70499998 2
14.241 5.7270002 -1.581 8
16.247 6.52 -1.529 11
18.797001 7.533 -1.451 15
22.183001 8.8789997 -1.339 8
0 0 0 0
30.514 12.201 -0.824 3
13.801 5.645 -1.5930001 8
15.578 6.3579998 -1.533 10
18.104 7.3759999 -1.473 14
21.278 8.658 -1.373 13
25.482 10.36 -1.217 5
30.322001 12.322 -0.94 16
13.387 5.5669999 -1.605 7
15.034 6.237 -1.545 9
17.462 7.23 -1.497 13
20.309 8.3959999 -1.397 12
24.099001 9.9530001 -1.252 4
