# .PCD v0.7 - Point Cloud Data file format
VERSION 0.7
FIELDS x y z intensity
SIZE 4 4 4 4
TYPE F F F F
COUNT 1 1 1 1
WIDTH 1775
HEIGHT 1
VIEWPOINT 0 0 0 1 0 0 0
POINTS 1775
DATA ascii
25.573 -3.7279999 5.0500002 68
25.596001 -3.7420001 5.448 25
28.983999 -4.2529998 6.6230001 40
28.614 -4.2140002 6.9899998 38
27.812 -4.1129999 7.2389998 48
29.174 -4.3330002 8.0649996 5
26.190001 -3.6719999 5.0430002 30
25.743999 -3.619 5.3520002 64
29.099001 -4.1059999 6.5019999 39
28.799999 -4.0780001 6.8889999 33
27.865 -3.961 7.1090002 41
27.365999 -3.9089999 7.4239998 50
26.200001 -3.5309999 4.9169998 64
25.955999 -3.507 5.2670002 59
26.197001 -3.552 5.7220001 14
28.504 -3.8800001 6.6729999 33
27.844999 -3.8050001 6.9590001 30
27.541 -3.779 7.3249998 43
26.455999 -3.4230001 4.8319998 73
26.115 -3.388 5.1669998 39
26.216 -3.4130001 5.592 37
28.698 -3.7490001 6.5689998 31
0 0 0 0
27.694 -3.6459999 7.217 40
26.782 -3.323 4.756 42
26.33 -3.2750001 5.0739999 61
26.167 -3.2650001 5.4439998 56
28.972 -3.628 6.4780002 12
28.766001 -3.6170001 6.8850002 39
27.66 -3.4920001 7.0599999 52
26.052999 -3.098 4.4920001 36
26.042999 -3.1040001 4.8839998 72
26.489 -3.1670001 5.3740001 52
26.504 -3.178 5.7839999 2
28.479 -3.428 6.6620002 34
28.566999 -3.4530001 7.1339998 42
0 0 0 0
26.141001 -2.9820001 4.7649999 63
25.950001 -2.9690001 5.1259999 25
26.434 -3.0350001 5.6300001 1
29.027 -3.3429999 6.6329999 10
28.306 -3.2739999 6.915 44
0 0 0 0
26.478001 -2.8870001 4.6869998 16
26.030001 -2.8469999 5.0019999 46
29.468 -3.233 6.1149998 26
29.257 -3.22 6.5250001 30
28.194 -3.1159999 6.7309999 42
0 0 0 0
26.469 -2.757 4.5440001 1
26.048 -2.72 4.8649998 51
25.724001 -2.6949999 5.1989999 0
29.257 -3.075 6.3649998 50
28.263 -2.9809999 6.5900002 19
0 0 0 0
0 0 0 0
26.107 -2.599 4.7329998 34
25.983 -2.5929999 5.1059999 12
29.41 -2.9460001 6.2329998 43
0 0 0 0
0 0 0 0
0 0 0 0
26.351 -2.4960001 4.632 1
26.125 -2.4820001 4.9879999 4
29.537001 -2.8150001 6.092 1
29.32 -2.803 6.5009999 21
0 0 0 0
0 0 0 0
29.448 -2.652 5.0110002 1
29.409 -2.655 5.4489999 5
0 0 0 0
29.264 -2.6600001 6.323 5
0 0 0 0
0 0 0 0
0 0 0 0
29.344999 -2.5139999 5.27 57
0 0 0 0
0 0 0 0
0 0 0 0
28.235001 -2.283 4.0650001 0
28.372 -2.2980001 4.507 14
28.636999 -2.3239999 4.9780002 1
0 0 0 0
0 0 0 0
28.000999 -2.1370001 3.457 122
28.004999 -2.142 3.8710001 123
27.999001 -2.145 4.2859998 117
28.041 -2.152 4.7129998 99
28.031 -2.1559999 5.1350002 68
28.006001 -2.161 5.559 76
27.999001 -2.0179999 3.2980001 3
0 0 0 0
0 0 0 0
0 0 0 0
0 0 0 0
0 0 0 0
27.568001 -1.872 3.086 16
0 0 0 0
0 0 0 0
0 0 0 0
0 0 0 0
0 0 0 0
0 0 0 0
0 0 0 0
0 0 0 0
0 0 0 0
0 0 0 0
0 0 0 0
101.532 -6.0799999 10.17 10
0 0 0 0
0 0 0 0
0 0 0 0
0 0 0 0
0 0 0 0
101.872 -5.7049999 9.5939999 23
0 0 0 0
0 0 0 0
0 0 0 0
0 0 0 0
0 0 0 0
101.77 -5.3189998 8.9779997 25
102.19 -5.3410001 10.502 24
0 0 0 0
0 0 0 0
0 0 0 0
0 0 0 0
102.07 -4.9590001 8.382 32
101.135 -4.915 9.7790003 26
102.855 -5.0009999 11.454 30
64.491997 -3.1359999 8.132 38
0 0 0 0
0 0 0 0
101.558 -4.5780001 7.7280002 25
102.301 -4.6079998 9.2700005 28
63.581001 -2.8629999 6.6900001 23
63.483002 -2.8570001 7.6100001 58
64.348999 -2.898 8.6680002 39
0 0 0 0
101.147 -4.2090001 7.0710001 36
102.613 -4.2680001 8.665 19
102.211 -4.2470002 10.122 29
63.374001 -2.6329999 7.2080002 53
63.366001 -2.632 8.1420002 51
63.855999 -2.651 9.1529999 31
102.163 -3.9100001 6.5079999 13
101.115 -3.8640001 7.9060001 29
102.361 -3.9089999 9.4980001 30
63.645 -2.427 6.8379998 19
63.465 -2.418 7.7529998 41
63.061001 -2.402 8.6400003 52
100.936 -3.5380001 5.8039999 25
100.991 -3.5320001 7.2639999 25
102.454 -3.576 8.8590002 19
102.347 -3.566 10.347 7
63.41 -2.207 7.3449998 27
62.039001 -2.1559999 8.1029997 54
102.463 -3.2690001 5.2420001 13
101.444 -3.2279999 6.6570001 18
101.546 -3.2219999 8.1389999 33
102.404 -3.243 9.7030001 22
64.443001 -2.036 7.052 20
62.161999 -1.959 7.7189999 38
82.886002 -2.3940001 3.7149999 7
100.521 -2.8940001 5.9580002 26
100.775 -2.8929999 7.4400001 25
0 0 0 0
0 0 0 0
62.008999 -1.7640001 7.3060002 9
82.978996 -2.1559999 3.1930001 25
102.684 -2.655 5.4299998 14
0 0 0 0
102.254 -2.6210001 8.3809996 22
0 0 0 0
65.363998 -1.6619999 7.276 10
39.321999 -0.91000003 1.2589999 42
82.793999 -1.9069999 3.846 7
100.816 -2.3110001 6.1490002 10
103.835 -2.3659999 7.8400002 11
103.309 -2.3410001 9.3100004 11
63.834 -1.438 6.6880002 3
39.358002 -0.80400002 1.0039999 37
83.263 -1.6900001 3.326 30
0 0 0 0
102.525 -2.053 7.0710001 10
103.195 -2.052 8.6230001 8
0 0 0 0
39.379002 -0.70300001 0.74800003 37
39.403999 -0.69800001 1.319 20
84.116997 -1.477 4.0339999 7
0 0 0 0
104.162 -1.798 8.0319996 8
0 0 0 0
0 0 0 0
83.787003 -1.275 2.256 14
83.014999 -1.25 3.441 17
103.069 -1.534 5.7639999 21
0 0 0 0
0 0 0 0
68.928001 -0.89700001 0.40599999 20
39.462002 -0.50599998 0.80199999 28
82.517998 -1.045 2.8770001 18
0 0 0 0
0 0 0 0
0 0 0 0
50.944 -0.54900002 -0.032000002 4
39.485001 -0.41800001 0.54500002 19
82.890999 -0.86000001 2.3410001 16
84.005997 -0.85600001 3.595 23
0 0 0 0
0 0 0 0
34.908001 -0.301 -0.255 0
68.859001 -0.579 0.49200001 22
84.246002 -0.69099998 1.822 23
0 0 0 0
0 0 0 0
0 0 0 0
33.118999 -0.21799999 -0.46200001 7
39.580002 -0.252 0.017999999 30
39.555 -0.242 0.59100002 30
0 0 0 0
0 0 0 0
0 0 0 0
33.037998 -0.153 -0.685 39
39.536999 -0.17399999 -0.24699999 5
39.584 -0.16500001 0.32499999 46
83.521004 -0.32800001 1.895 18
83.863998 -0.308 3.1210001 22
0 0 0 0
32.580002 -0.092 -0.89600003 49
0 0 0 0
39.612 -0.092 0.057999998 11
0 0 0 0
83.134003 -0.15099999 2.54 14
0 0 0 0
29.766001 -0.033 -1.02 1
34.085999 -0.028999999 -0.67400002 44
45.469002 -0.027000001 -0.241 23
68.592003 -0.022 0.63200003 10
84.206001 -0.0040000002 1.999 9
83.313004 0.018999999 3.188 26
28.48 0.013 -1.1720001 29
32.707001 0.024 -0.87099999 38
0 0 0 0
67.480003 0.086999997 0.16599999 6
0 0 0 0
0 0 0 0
0 0 0 0
31.686001 0.071000002 -1.061 37
0 0 0 0
45.411999 0.12800001 -0.197 13
38.041 0.118 0.38699999 1
84.124001 0.28799999 2.0810001 14
25.188 0.082999997 -1.382 12
28.441999 0.103 -1.147 28
32.756001 0.12800001 -0.84500003 41
34.708 0.147 -0.38999999 3
37.944 0.17200001 0.126 45
0 0 0 0
22.688999 0.104 -1.403 8
0 0 0 0
31.754999 0.16599999 -1.039 38
0 0 0 0
38.005001 0.223 -0.13699999 26
37.944 0.236 0.41499999 78
20.792 0.119 -1.433 14
25.146 0.152 -1.364 11
28.764 0.184 -1.14 26
32.905998 0.221 -0.82599998 39
36.964001 0.26100001 -0.38800001 14
37.963001 0.28200001 0.153 74
19.355 0.131 -1.469 13
22.638 0.161 -1.385 9
27.726999 0.206 -1.2920001 27
31.937 0.249 -1.021 39
34.811001 0.28400001 -0.60500002 47
37.985001 0.324 -0.106 75
18.094999 0.139 -1.499 12
20.886999 0.167 -1.423 15
25.732 0.215 -1.375 19
29.073999 0.25400001 -1.128 26
32.618 0.29800001 -0.792 41
37.555 0.35699999 -0.36500001 11
16.947001 0.14399999 -1.524 10
19.414 0.17200001 -1.46 13
22.997999 0.212 -1.391 10
27.872 0.26699999 -1.277 24
31.964001 0.31900001 -0.99900001 37
34.691002 0.36000001 -0.579 46
15.971 0.147 -1.55 11
18.143 0.17299999 -1.492 12
21.08 0.20900001 -1.423 15
25.857 0.26699999 -1.365 24
29.075001 0.31200001 -1.109 11
32.639 0.36300001 -0.76999998 41
15.119 0.147 -1.573 11
17 0.17200001 -1.518 10
19.559 0.206 -1.4579999 14
23.09 0.25299999 -1.38 9
27.936001 0.317 -1.261 26
31.837 0.375 -0.972 50
14.309 0.146 -1.592 12
16.000999 0.17 -1.5420001 10
18.24 0.20100001 -1.488 12
21.169001 0.242 -1.415 11
25.936001 0.308 -1.353 24
29.155001 0.359 -1.094 9
13.618 0.14399999 -1.6109999 12
15.123 0.16599999 -1.5650001 11
17.101999 0.19499999 -1.516 10
19.673 0.233 -1.452 14
23.322001 0.28600001 -1.378 8
27.976 0.35600001 -1.244 20
12.994 0.14 -1.631 12
14.328 0.161 -1.585 13
16.103001 0.18799999 -1.541 11
18.364 0.223 -1.485 12
21.323999 0.26800001 -1.411 11
26.049999 0.34 -1.34 24
12.432 0.13600001 -1.649 13
13.629 0.155 -1.605 12
15.234 0.18000001 -1.566 12
17.187 0.211 -1.511 10
19.796 0.25299999 -1.449 14
23.421 0.31 -1.37 7
11.874 0.13 -1.661 13
13.022 0.148 -1.626 13
14.42 0.171 -1.584 13
16.188 0.2 -1.538 11
18.466999 0.237 -1.48 12
21.43 0.285 -1.403 13
11.359 0.123 -1.67 13
12.458 0.141 -1.6440001 14
13.713 0.161 -1.604 13
15.292 0.18700001 -1.5599999 12
17.322001 0.221 -1.51 11
19.882999 0.264 -1.441 14
10.867 0.115 -1.677 12
11.903 0.132 -1.656 13
13.084 0.152 -1.623 12
14.496 0.175 -1.581 13
16.306999 0.205 -1.536 11
18.568001 0.244 -1.474 12
10.443 0.107 -1.686 12
11.379 0.122 -1.664 14
12.527 0.141 -1.643 14
13.789 0.163 -1.602 12
15.389 0.19 -1.558 12
17.393 0.22400001 -1.503 11
10.042 0.097999997 -1.6950001 13
10.907 0.113 -1.675 12
11.962 0.13 -1.656 14
13.141 0.15000001 -1.62 12
14.572 0.17399999 -1.579 13
16.377001 0.204 -1.531 12
9.7060003 0.090000004 -1.709 9
10.469 0.102 -1.683 12
11.445 0.118 -1.666 14
12.566 0.13699999 -1.638 13
13.853 0.15899999 -1.597 12
15.478 0.186 -1.5549999 12
9.3699999 0.079999998 -1.717 7
10.075 0.092 -1.691 13
10.971 0.106 -1.674 13
12.036 0.123 -1.654 14
13.224 0.14300001 -1.617 13
14.666 0.167 -1.575 12
9.0299997 0.07 -1.721 12
9.7480001 0.082000002 -1.707 8
10.536 0.093999997 -1.682 12
11.523 0.11 -1.665 14
12.669 0.12800001 -1.6390001 13
13.948 0.149 -1.595 13
8.7250004 0.059999999 -1.726 11
9.3870001 0.07 -1.711 8
10.126 0.082000002 -1.691 13
11.027 0.096000001 -1.6720001 13
12.11 0.112 -1.653 14
13.296 0.131 -1.615 13
8.4460001 0.048999999 -1.733 11
9.0469999 0.059 -1.715 12
9.809 0.07 -1.7079999 11
10.587 0.082000002 -1.6799999 12
11.593 0.097000003 -1.664 13
12.743 0.114 -1.637 13
8.1890001 0.039000001 -1.7410001 11
8.7460003 0.046999998 -1.722 11
9.4370003 0.057 -1.711 8
10.176 0.067000002 -1.688 13
11.102 0.081 -1.6720001 13
12.171 0.096000001 -1.649 14
7.954 0.028000001 -1.749 10
8.4709997 0.035 -1.729 11
9.0970001 0.044 -1.715 11
9.8570004 0.054000001 -1.706 11
10.654 0.064999998 -1.6799999 12
11.656 0.079000004 -1.661 13
7.7129998 0.016000001 -1.753 10
8.2180004 0.023 -1.737 11
8.8000002 0.030999999 -1.723 11
9.4919996 0.039000001 -1.711 8
10.25 0.048999999 -1.689 13
11.164 0.061000001 -1.669 13
7.4970002 0.0049999999 -1.7589999 10
7.974 0.011 -1.744 10
8.5249996 0.017000001 -1.73 11
9.1560001 0.025 -1.715 11
9.9200001 0.034000002 -1.705 14
10.712 0.044 -1.677 12
7.2820001 -0.0060000001 -1.763 11
7.7389998 -0.001 -1.749 10
8.2770004 0.0040000002 -1.739 11
8.8509998 0.011 -1.72 12
9.5570002 0.017999999 -1.709 7
10.312 0.027000001 -1.686 13
7.0710001 -0.017999999 -1.763 12
7.5310001 -0.013 -1.756 10
8.0349998 -0.0080000004 -1.745 11
8.5869999 -0.003 -1.73 12
9.217 0.003 -1.7130001 10
9.9619999 0.0099999998 -1.697 13
6.9000001 -0.029999999 -1.771 11
7.309 -0.026000001 -1.757 11
7.7989998 -0.022 -1.749 10
8.3269997 -0.017000001 -1.7359999 11
8.9130001 -0.012 -1.7180001 11
9.6330004 -0.0049999999 -1.707 8
6.7160001 -0.041000001 -1.773 12
7.1129999 -0.037999999 -1.761 11
7.5929999 -0.035 -1.757 10
8.1110001 -0.030999999 -1.748 12
8.6529999 -0.027000001 -1.728 12
9.283 -0.022 -1.709 10
6.5500002 -0.054000001 -1.777 11
6.9180002 -0.050999999 -1.763 12
7.369 -0.048999999 -1.758 11
7.848 -0.045000002 -1.7460001 10
8.3909998 -0.041999999 -1.734 11
9 -0.039000001 -1.72 12
6.3839998 -0.066 -1.778 11
6.7459998 -0.064000003 -1.768 12
7.1719999 -0.061999999 -1.762 12
7.6399999 -0.059999999 -1.7539999 10
8.165 -0.057 -1.745 11
8.7189999 -0.055 -1.726 12
6.23 -0.078000002 -1.7819999 11
6.5879998 -0.077 -1.774 11
6.98 -0.075999998 -1.765 13
7.421 -0.074000001 -1.757 11
7.9330001 -0.072999999 -1.751 11
8.4659996 -0.071000002 -1.735 12
6.085 -0.090999998 -1.785 11
6.4169998 -0.090000004 -1.775 11
6.8039999 -0.090000004 -1.77 12
7.2160001 -0.089000002 -1.76 12
7.7160001 -0.089000002 -1.757 10
8.2189999 -0.088 -1.742 11
5.9429998 -0.104 -1.788 11
6.2670002 -0.103 -1.779 11
6.632 -0.104 -1.773 11
7.027 -0.103 -1.763 12
7.4860001 -0.104 -1.757 12
7.9619999 -0.104 -1.742 12
5.79 -0.116 -1.784 12
6.1269999 -0.117 -1.784 12
6.4749999 -0.117 -1.777 12
6.8520002 -0.118 -1.767 12
7.2849998 -0.119 -1.761 11
7.7519999 -0.12 -1.749 11
5.6830001 -0.12899999 -1.793 11
5.987 -0.13 -1.786 13
6.3260002 -0.131 -1.781 12
6.6950002 -0.133 -1.774 12
7.0939999 -0.134 -1.763 12
7.527 -0.13600001 -1.75 11
5.566 -0.142 -1.7970001 11
5.8470001 -0.14300001 -1.7869999 11
6.1799998 -0.145 -1.784 12
6.5289998 -0.147 -1.775 11
6.9099998 -0.149 -1.765 12
7.3239999 -0.15099999 -1.752 11
5.4400001 -0.154 -1.7970001 11
5.7160001 -0.156 -1.788 12
6.0380001 -0.15899999 -1.786 13
6.3850002 -0.162 -1.781 11
6.7470002 -0.164 -1.77 12
7.151 -0.168 -1.7589999 11
5.3309999 -0.167 -1.799 11
5.5949998 -0.169 -1.791 11
5.9029999 -0.17299999 -1.788 12
6.2350001 -0.176 -1.7819999 12
6.5929999 -0.18000001 -1.775 12
6.9710002 -0.184 -1.762 11
5.23 -0.18000001 -1.804 11
5.4809999 -0.183 -1.793 12
5.7800002 -0.18700001 -1.791 12
6.0960002 -0.19 -1.785 12
6.4460001 -0.19499999 -1.779 12
6.8109999 -0.199 -1.768 11
5.1069999 -0.193 -1.799 10
5.375 -0.19599999 -1.7970001 12
5.6500001 -0.2 -1.79 12
5.9679999 -0.205 -1.788 13
6.2940001 -0.20999999 -1.78 12
6.6479998 -0.215 -1.77 12
5.0219998 -0.206 -1.8049999 10
5.2680001 -0.20999999 -1.799 11
5.5349998 -0.214 -1.793 11
5.8369999 -0.219 -1.789 13
6.1430001 -0.22400001 -1.779 13
6.494 -0.23 -1.772 13
4.9289999 -0.219 -1.808 11
5.1729999 -0.22400001 -1.804 12
5.4429998 -0.229 -1.801 13
5.71 -0.234 -1.79 13
6.0300002 -0.23999999 -1.7869999 13
6.3509998 -0.24600001 -1.775 12
4.836 -0.23199999 -1.808 10
5.0770001 -0.237 -1.806 13
5.3390002 -0.243 -1.803 11
5.5900002 -0.248 -1.79 12
5.8979998 -0.255 -1.7869999 12
6.204 -0.26100001 -1.775 12
4.7550001 -0.245 -1.812 11
4.9790001 -0.25 -1.806 11
5.2309999 -0.25600001 -1.803 12
5.4879999 -0.26199999 -1.794 12
5.7750001 -0.26899999 -1.788 12
6.0700002 -0.27599999 -1.776 13
4.6750002 -0.25799999 -1.8150001 10
4.8829999 -0.26300001 -1.806 12
5.1430001 -0.271 -1.808 11
5.3769999 -0.27700001 -1.795 11
5.6700001 -0.285 -1.793 13
5.9460001 -0.292 -1.779 12
4.6030002 -0.27200001 -1.821 9
4.7969999 -0.27700001 -1.807 12
5.0409999 -0.28400001 -1.807 11
5.2880001 -0.29100001 -1.8 12
5.546 -0.29899999 -1.791 13
5.8299999 -0.30700001 -1.7819999 12
4.5190001 -0.285 -1.8200001 10
4.7189999 -0.29100001 -1.811 11
4.9450002 -0.29800001 -1.807 12
5.1929998 -0.30599999 -1.803 11
5.4520001 -0.31400001 -1.796 13
5.7249999 -0.32300001 -1.7869999 13
4.4489999 -0.29899999 -1.824 10
4.6469998 -0.30500001 -1.816 11
4.855 -0.31200001 -1.807 12
5.0999999 -0.31999999 -1.8049999 11
5.3530002 -0.329 -1.798 12
5.6170001 -0.33899999 -1.789 12
4.3699999 -0.31099999 -1.822 10
4.5710001 -0.31900001 -1.818 12
4.7740002 -0.32499999 -1.809 12
5.0100002 -0.33500001 -1.806 12
5.2620001 -0.34400001 -1.802 12
5.5229998 -0.35499999 -1.794 12
4.309 -0.32499999 -1.827 10
4.5 -0.33199999 -1.821 11
4.7010002 -0.34 -1.812 11
4.9190001 -0.34900001 -1.8049999 10
5.1669998 -0.359 -1.802 12
5.4130001 -0.36899999 -1.7920001 12
4.2350001 -0.338 -1.825 10
4.4260001 -0.34599999 -1.821 11
4.6329999 -0.354 -1.817 11
4.8369999 -0.36300001 -1.807 10
5.0809999 -0.37400001 -1.8049999 11
5.3369999 -0.38499999 -1.8 12
4.1659999 -0.34999999 -1.825 10
4.3629999 -0.36000001 -1.825 10
4.5560002 -0.368 -1.817 11
4.7589998 -0.377 -1.808 12
4.994 -0.38800001 -1.8049999 11
5.2410002 -0.40000001 -1.801 12
4.1030002 -0.36300001 -1.826 9
4.289 -0.37200001 -1.823 11
4.4889998 -0.382 -1.8200001 11
4.6820002 -0.391 -1.809 11
4.9120002 -0.403 -1.807 11
5.1550002 -0.41600001 -1.802 12
4.0419998 -0.377 -1.827 9
4.2280002 -0.38600001 -1.825 11
4.4219999 -0.396 -1.822 12
4.6170001 -0.40599999 -1.814 11
4.829 -0.417 -1.806 11
5.0760002 -0.43099999 -1.806 12
3.9849999 -0.38999999 -1.829 9
4.1700001 -0.40000001 -1.8279999 10
4.362 -0.41100001 -1.826 10
4.5510001 -0.421 -1.817 11
4.7540002 -0.43200001 -1.808 11
4.987 -0.44600001 -1.804 11
3.9330001 -0.403 -1.832 8
4.1020002 -0.41299999 -1.826 10
4.289 -0.42399999 -1.823 12
4.4879999 -0.435 -1.8200001 11
4.6880002 -0.447 -1.811 11
4.9120002 -0.461 -1.807 11
3.888 -0.41800001 -1.837 8
4.0440001 -0.42699999 -1.827 10
4.2290001 -0.43799999 -1.825 11
4.4229999 -0.44999999 -1.821 10
4.6209998 -0.46200001 -1.813 11
4.835 -0.47600001 -1.807 12
3.8340001 -0.43099999 -1.8380001 8
3.9879999 -0.44 -1.827 9
4.1760001 -0.45199999 -1.8279999 10
4.3579998 -0.46399999 -1.821 10
4.559 -0.477 -1.816 10
4.7690001 -0.49200001 -1.8099999 11
3.78 -0.44400001 -1.837 8
3.944 -0.454 -1.8329999 9
4.1129999 -0.46599999 -1.826 10
4.3060002 -0.479 -1.825 10
4.4959998 -0.49200001 -1.818 11
4.698 -0.50599998 -1.8099999 11
3.724 -0.456 -1.835 9
3.8859999 -0.46700001 -1.831 9
4.0549998 -0.479 -1.826 10
4.2379999 -0.49200001 -1.822 10
4.434 -0.50700003 -1.819 10
4.632 -0.52200001 -1.811 11
3.6830001 -0.47 -1.839 8
3.8440001 -0.48199999 -1.836 9
4.006 -0.493 -1.829 9
4.1890001 -0.50800002 -1.827 9
4.3720002 -0.52100003 -1.819 11
4.579 -0.53799999 -1.816 11
3.6389999 -0.484 -1.841 9
3.793 -0.495 -1.836 10
3.9530001 -0.50700003 -1.829 10
4.1350002 -0.52200001 -1.827 10
4.322 -0.537 -1.823 10
4.5159998 -0.55199999 -1.817 10
3.5969999 -0.49700001 -1.8430001 8
3.7520001 -0.509 -1.839 9
3.9030001 -0.51999998 -1.829 10
4.0770001 -0.53500003 -1.826 10
4.2639999 -0.551 -1.822 10
4.4559999 -0.56699997 -1.817 10
3.55 -0.50999999 -1.841 8
3.7079999 -0.523 -1.84 8
3.8610001 -0.53500003 -1.8329999 9
4.0279999 -0.54900002 -1.827 9
4.2090001 -0.565 -1.823 9
4.3959999 -0.58200002 -1.816 10
3.503 -0.52200001 -1.84 8
3.658 -0.53500003 -1.8380001 9
3.816 -0.54900002 -1.834 9
3.9760001 -0.56300002 -1.826 9
4.1570001 -0.57999998 -1.823 9
4.3499999 -0.59799999 -1.8200001 10
3.4690001 -0.53600001 -1.8430001 8
3.6170001 -0.54900002 -1.839 9
3.7739999 -0.56300002 -1.835 9
3.9349999 -0.57800001 -1.829 9
4.1139998 -0.59500003 -1.827 10
4.302 -0.61400002 -1.823 10
3.434 -0.55000001 -1.846 8
3.5799999 -0.56300002 -1.842 9
3.734 -0.57700002 -1.837 9
3.888 -0.59200001 -1.829 9
4.0630002 -0.60900003 -1.825 10
4.257 -0.62900001 -1.826 10
3.391 -0.56199998 -1.844 8
3.5420001 -0.57700002 -1.8430001 9
3.698 -0.59200001 -1.84 9
3.845 -0.60600001 -1.83 9
4.0180001 -0.62400001 -1.826 9
4.2010002 -0.64300001 -1.823 10
3.358 -0.57599998 -1.846 8
3.5039999 -0.58999997 -1.844 9
3.648 -0.60399997 -1.836 10
3.8069999 -0.62099999 -1.832 9
3.9690001 -0.63700002 -1.824 9
4.1620002 -0.65899998 -1.827 10
3.322 -0.588 -1.847 8
3.4719999 -0.60399997 -1.847 9
3.6140001 -0.61900002 -1.839 9
3.7690001 -0.63499999 -1.8329999 8
3.9319999 -0.653 -1.8279999 10
4.112 -0.67299998 -1.825 10
3.2869999 -0.602 -1.847 7
3.4300001 -0.61699998 -1.844 8
3.573 -0.63200003 -1.837 9
3.727 -0.64899999 -1.832 9
3.8889999 -0.667 -1.827 10
4.0710001 -0.68900001 -1.827 9
3.2550001 -0.61500001 -1.848 8
3.3970001 -0.63 -1.845 9
3.5450001 -0.64700001 -1.842 8
3.6919999 -0.66299999 -1.834 9
3.8499999 -0.68199998 -1.8279999 9
4.0250001 -0.70300001 -1.825 10
3.2260001 -0.62800002 -1.849 7
3.3740001 -0.64499998 -1.851 8
3.5120001 -0.66100001 -1.842 8
3.6619999 -0.67799997 -1.837 9
3.8169999 -0.69700003 -1.83 9
3.9860001 -0.71799999 -1.825 9
3.194 -0.64099997 -1.849 7
3.336 -0.65799999 -1.848 9
3.4809999 -0.67500001 -1.845 9
3.632 -0.69300002 -1.84 8
3.779 -0.71100003 -1.829 9
3.9489999 -0.73299998 -1.826 10
3.1659999 -0.65399998 -1.85 7
3.306 -0.671 -1.849 9
3.4460001 -0.68800002 -1.8430001 8
3.5969999 -0.70700002 -1.839 9
3.753 -0.727 -1.834 9
3.915 -0.74800003 -1.827 9
3.1389999 -0.66799998 -1.852 7
3.2780001 -0.685 -1.849 8
3.4189999 -0.70300001 -1.845 9
3.5680001 -0.722 -1.841 9
3.7190001 -0.741 -1.834 8
3.8789999 -0.76300001 -1.827 9
3.112 -0.68000001 -1.852 7
3.2460001 -0.69700003 -1.847 8
3.3900001 -0.71600002 -1.845 9
3.539 -0.736 -1.842 8
3.688 -0.75599998 -1.834 9
3.855 -0.77899998 -1.831 9
3.0810001 -0.69199997 -1.849 7
3.2190001 -0.70999998 -1.848 8
3.365 -0.73000002 -1.847 8
3.506 -0.74900001 -1.84 9
3.6570001 -0.76999998 -1.834 9
3.8199999 -0.79299998 -1.83 9
3.0650001 -0.70700002 -1.855 7
3.2 -0.72500002 -1.852 8
3.3340001 -0.74299997 -1.845 8
3.484 -0.76499999 -1.8430001 9
3.635 -0.78600001 -1.8380001 9
3.7869999 -0.80800003 -1.829 8
3.0439999 -0.72100002 -1.857 7
3.178 -0.74000001 -1.854 8
3.3139999 -0.75800002 -1.849 7
3.464 -0.77999997 -1.847 9
3.6099999 -0.80199999 -1.84 9
3.7609999 -0.824 -1.831 8
3.0190001 -0.73400003 -1.8559999 7
3.1530001 -0.75300002 -1.854 8
3.2869999 -0.77200001 -1.848 7
3.441 -0.79500002 -1.849 8
3.5840001 -0.81599998 -1.84 9
3.7409999 -0.83999997 -1.834 9
2.993 -0.74599999 -1.854 7
3.128 -0.76499999 -1.853 7
3.2690001 -0.787 -1.851 8
3.411 -0.80800003 -1.846 8
3.559 -0.83099997 -1.84 9
3.717 -0.85600001 -1.836 9
2.9779999 -0.75999999 -1.859 7
3.1099999 -0.77999997 -1.855 8
3.2449999 -0.80000001 -1.85 8
3.3859999 -0.82099998 -1.845 8
3.536 -0.84600002 -1.841 8
3.6949999 -0.87099999 -1.837 8
2.9560001 -0.77200001 -1.857 7
3.0910001 -0.79299998 -1.8559999 8
3.2260001 -0.81400001 -1.851 9
3.3670001 -0.83600003 -1.847 9
3.5150001 -0.86000001 -1.841 9
3.678 -0.88800001 -1.84 9
2.9349999 -0.78500003 -1.8559999 7
3.0710001 -0.80599999 -1.8559999 8
3.2049999 -0.82700002 -1.851 8
3.3499999 -0.85100001 -1.848 9
3.493 -0.87400001 -1.841 9
3.654 -0.903 -1.839 8
0 0 0 0
3.056 -0.81999999 -1.858 7
3.1830001 -0.83999997 -1.849 8
3.3299999 -0.86500001 -1.848 8
3.473 -0.889 -1.841 9
3.6340001 -0.91799998 -1.839 8
0 0 0 0
3.039 -0.83399999 -1.859 7
3.171 -0.85500002 -1.853 8
3.312 -0.87900001 -1.848 8
3.4590001 -0.90499997 -1.8430001 9
3.619 -0.93400002 -1.841 8
0 0 0 0
3.0220001 -0.847 -1.859 7
3.158 -0.87 -1.855 7
3.2969999 -0.89399999 -1.85 8
3.4400001 -0.91900003 -1.8430001 9
3.6010001 -0.949 -1.841 8
1.602 -0.46700001 -1.0369999 2
3.003 -0.86000001 -1.857 7
3.1370001 -0.88200003 -1.852 8
3.28 -0.90799999 -1.849 8
3.427 -0.935 -1.845 9
3.5880001 -0.96600002 -1.844 8
1.517 -0.45100001 -0.98699999 2
2.9949999 -0.875 -1.8609999 7
3.1270001 -0.898 -1.855 8
3.2639999 -0.92199999 -1.849 8
3.4189999 -0.95200002 -1.848 9
3.569 -0.98000002 -1.842 9
1.497 -0.454 -0.97899997 2
2.977 -0.88599998 -1.858 7
3.1110001 -0.91100001 -1.854 7
3.2550001 -0.93800002 -1.851 8
3.401 -0.96499997 -1.846 8
3.5580001 -0.99599999 -1.8430001 8
1.48 -0.45699999 -0.972 2
2.971 -0.90200001 -1.862 7
3.102 -0.92500001 -1.8559999 8
3.2420001 -0.95200002 -1.851 8
3.3940001 -0.98199999 -1.85 8
3.5450001 -1.011 -1.8430001 8
0 0 0 0
2.9560001 -0.91399997 -1.86 7
3.095 -0.94 -1.858 8
3.2320001 -0.96600002 -1.852 8
3.3770001 -0.995 -1.847 9
3.5369999 -1.028 -1.845 8
0 0 0 0
2.9460001 -0.92699999 -1.86 7
3.079 -0.95200002 -1.855 7
3.2219999 -0.98100001 -1.853 8
3.3699999 -1.011 -1.848 8
3.5250001 -1.043 -1.844 9
0 0 0 0
2.9349999 -0.94 -1.859 8
3.0739999 -0.96799999 -1.858 8
3.214 -0.99599999 -1.853 8
3.3670001 -1.027 -1.852 8
3.517 -1.059 -1.845 8
0 0 0 0
2.9260001 -0.95300001 -1.859 7
3.0650001 -0.98100001 -1.858 8
3.2079999 -1.01 -1.854 8
3.3510001 -1.04 -1.847 9
3.51 -1.074 -1.845 8
0 0 0 0
2.9230001 -0.96799999 -1.862 7
3.056 -0.99400002 -1.8559999 8
3.194 -1.023 -1.85 8
3.3469999 -1.056 -1.848 8
3.5020001 -1.09 -1.844 8
0 0 0 0
2.9119999 -0.98000002 -1.859 7
3.05 -1.008 -1.8559999 8
3.194 -1.039 -1.853 7
3.3410001 -1.071 -1.848 9
3.503 -1.108 -1.847 8
0 0 0 0
2.911 -0.99400002 -1.862 7
3.0439999 -1.022 -1.8559999 8
3.1930001 -1.0549999 -1.855 8
3.339 -1.087 -1.85 9
3.497 -1.123 -1.846 8
0 0 0 0
2.911 -1.01 -1.864 7
3.0469999 -1.039 -1.86 7
3.1830001 -1.067 -1.852 8
3.3380001 -1.103 -1.851 8
3.4920001 -1.138 -1.845 8
0 0 0 0
2.9070001 -1.023 -1.864 7
3.0450001 -1.053 -1.86 8
3.184 -1.0829999 -1.854 8
3.3369999 -1.118 -1.851 8
3.4909999 -1.154 -1.845 8
0 0 0 0
2.9000001 -1.035 -1.8609999 7
3.039 -1.066 -1.858 8
3.1800001 -1.097 -1.852 8
3.3340001 -1.133 -1.85 8
3.49 -1.17 -1.844 8
0 0 0 0
2.898 -1.048 -1.86 7
3.0439999 -1.082 -1.8609999 7
3.187 -1.114 -1.8559999 8
3.3329999 -1.148 -1.849 8
3.4949999 -1.187 -1.846 8
0 0 0 0
2.904 -1.064 -1.864 6
3.043 -1.095 -1.86 8
3.1860001 -1.128 -1.855 8
3.3399999 -1.166 -1.852 8
3.5020001 -1.206 -1.848 8
0 0 0 0
2.904 -1.077 -1.863 6
3.043 -1.109 -1.859 7
3.1900001 -1.1440001 -1.8559999 8
3.3369999 -1.179 -1.848 8
3.5009999 -1.22 -1.846 8
0 0 0 0
2.905 -1.09 -1.863 6
3.0480001 -1.124 -1.86 7
3.198 -1.16 -1.858 8
3.3499999 -1.198 -1.853 8
3.5090001 -1.238 -1.847 8
1.42 -0.55000001 -0.95599997 0
2.908 -1.104 -1.863 6
3.0510001 -1.138 -1.86 7
3.1960001 -1.173 -1.854 8
3.349 -1.211 -1.849 8
3.5150001 -1.2539999 -1.847 8
1.423 -0.55699998 -0.95700002 0
2.915 -1.119 -1.864 7
3.053 -1.152 -1.858 8
3.197 -1.187 -1.851 8
3.3629999 -1.23 -1.853 8
3.5280001 -1.273 -1.849 8
0 0 0 0
2.9170001 -1.132 -1.862 7
3.062 -1.1670001 -1.859 7
3.2079999 -1.2029999 -1.853 8
3.3659999 -1.244 -1.85 8
3.54 -1.291 -1.85 8
0 0 0 0
2.927 -1.146 -1.864 7
3.069 -1.182 -1.859 7
3.2260001 -1.222 -1.858 8
3.3800001 -1.262 -1.852 8
3.549 -1.308 -1.849 8
0 0 0 0
2.9330001 -1.16 -1.863 7
3.0780001 -1.196 -1.859 8
3.2320001 -1.2359999 -1.8559999 8
3.3900001 -1.278 -1.851 8
3.5599999 -1.324 -1.848 8
0 0 0 0
2.937 -1.1720001 -1.86 7
3.092 -1.2130001 -1.8609999 8
3.2509999 -1.255 -1.86 8
3.4030001 -1.295 -1.852 8
3.5739999 -1.342 -1.848 8
1.448 -0.59399998 -0.96100003 0
2.9560001 -1.1900001 -1.865 7
3.102 -1.227 -1.8609999 8
3.2650001 -1.271 -1.8609999 8
3.418 -1.312 -1.852 8
3.586 -1.358 -1.846 9
2.8239999 -1.1670001 -1.868 7
2.964 -1.2029999 -1.863 7
3.1140001 -1.242 -1.86 7
3.277 -1.2869999 -1.86 8
3.4349999 -1.329 -1.853 9
3.5969999 -1.374 -1.8430001 8
2.8340001 -1.181 -1.867 7
2.9779999 -1.2180001 -1.864 7
3.125 -1.256 -1.859 8
3.2850001 -1.3 -1.8559999 9
3.4489999 -1.345 -1.851 8
3.622 -1.3940001 -1.846 8
2.849 -1.1950001 -1.869 6
2.9860001 -1.229 -1.86 7
3.145 -1.273 -1.8609999 8
3.3050001 -1.317 -1.858 8
3.4619999 -1.36 -1.848 9
3.6400001 -1.4119999 -1.845 9
2.8640001 -1.21 -1.87 6
3.003 -1.245 -1.8609999 7
3.1600001 -1.288 -1.86 8
3.319 -1.332 -1.8559999 9
3.483 -1.378 -1.849 8
3.6600001 -1.4299999 -1.844 9
2.8759999 -1.222 -1.867 6
3.0239999 -1.261 -1.864 8
3.1789999 -1.304 -1.86 8
3.339 -1.349 -1.8559999 9
3.51 -1.398 -1.852 8
3.6860001 -1.449 -1.845 8
2.8889999 -1.235 -1.865 7
3.0439999 -1.277 -1.865 8
3.197 -1.319 -1.86 8
3.3570001 -1.364 -1.854 8
3.527 -1.413 -1.848 8
3.71 -1.4680001 -1.844 8
2.905 -1.248 -1.864 7
3.056 -1.289 -1.8609999 8
3.22 -1.336 -1.8609999 8
3.385 -1.3839999 -1.857 8
3.5539999 -1.433 -1.85 9
3.737 -1.487 -1.845 9
2.931 -1.265 -1.868 7
3.079 -1.306 -1.862 8
3.2379999 -1.351 -1.859 9
3.4130001 -1.402 -1.859 8
3.5799999 -1.451 -1.85 8
3.7639999 -1.506 -1.8430001 9
2.9489999 -1.279 -1.867 7
3.1040001 -1.322 -1.864 8
3.27 -1.37 -1.863 9
3.4330001 -1.4170001 -1.855 9
3.6059999 -1.4680001 -1.848 8
3.8010001 -1.529 -1.847 9
2.9679999 -1.2920001 -1.865 7
3.1259999 -1.337 -1.863 8
3.2920001 -1.385 -1.8609999 9
3.454 -1.432 -1.852 9
3.6340001 -1.4859999 -1.847 9
3.8299999 -1.5470001 -1.845 9
2.9909999 -1.307 -1.865 7
3.1470001 -1.351 -1.8609999 8
3.3110001 -1.399 -1.857 9
3.4879999 -1.452 -1.855 9
3.661 -1.5039999 -1.845 10
3.872 -1.571 -1.849 9
3.0150001 -1.321 -1.865 7
3.1719999 -1.3660001 -1.8609999 8
3.3440001 -1.4170001 -1.859 9
3.5209999 -1.471 -1.8559999 9
3.7 -1.525 -1.848 10
3.9059999 -1.591 -1.847 9
3.039 -1.335 -1.864 7
3.2 -1.382 -1.8609999 9
3.3740001 -1.4349999 -1.86 9
3.546 -1.4859999 -1.852 9
3.7290001 -1.5420001 -1.845 9
3.941 -1.61 -1.846 9
3.069 -1.352 -1.865 7
3.2320001 -1.399 -1.863 9
3.405 -1.451 -1.86 9
3.576 -1.503 -1.85 9
3.7739999 -1.5650001 -1.849 9
3.9790001 -1.631 -1.845 9
3.0929999 -1.365 -1.863 8
3.266 -1.4170001 -1.864 9
3.4349999 -1.4680001 -1.858 9
3.609 -1.52 -1.849 9
3.8110001 -1.584 -1.848 9
4.0229998 -1.653 -1.845 9
3.1300001 -1.383 -1.867 7
3.2950001 -1.432 -1.862 9
3.467 -1.484 -1.8559999 9
3.6470001 -1.539 -1.849 9
3.8559999 -1.6059999 -1.85 9
4.0650001 -1.674 -1.844 10
3.158 -1.397 -1.865 8
3.3239999 -1.446 -1.86 8
3.506 -1.503 -1.858 9
3.684 -1.557 -1.848 9
3.888 -1.623 -1.844 10
4.1100001 -1.696 -1.8430001 9
3.1919999 -1.413 -1.865 8
3.3570001 -1.462 -1.858 9
3.546 -1.521 -1.858 9
3.7260001 -1.577 -1.848 9
3.9430001 -1.648 -1.849 9
4.165 -1.721 -1.845 9
3.2190001 -1.425 -1.8609999 8
3.395 -1.479 -1.858 9
3.5780001 -1.536 -1.854 9
3.777 -1.6 -1.852 9
3.98 -1.665 -1.845 10
4.2119999 -1.742 -1.844 9
3.2550001 -1.441 -1.8609999 8
3.438 -1.498 -1.8609999 9
3.6170001 -1.554 -1.853 9
3.8299999 -1.623 -1.855 9
4.0359998 -1.689 -1.848 10
4.2610002 -1.7640001 -1.841 9
3.2980001 -1.46 -1.864 8
3.477 -1.515 -1.86 9
3.658 -1.571 -1.851 9
3.868 -1.6390001 -1.851 9
4.0809999 -1.709 -1.845 9
4.3169999 -1.788 -1.841 10
3.336 -1.475 -1.863 9
3.516 -1.531 -1.858 9
3.698 -1.5880001 -1.849 9
3.9170001 -1.66 -1.851 9
4.1329999 -1.73 -1.844 10
4.3699999 -1.8099999 -1.8380001 10
3.3740001 -1.49 -1.8609999 8
3.559 -1.548 -1.858 9
3.744 -1.6059999 -1.848 9
3.971 -1.681 -1.852 10
4.1929998 -1.755 -1.846 9
4.428 -1.8329999 -1.837 10
3.4159999 -1.506 -1.8609999 8
3.5999999 -1.564 -1.855 9
3.7980001 -1.627 -1.85 9
4.0170002 -1.7 -1.848 9
4.2509999 -1.777 -1.845 10
4.4949999 -1.86 -1.8380001 10
3.4649999 -1.525 -1.863 9
3.6429999 -1.58 -1.853 10
3.8540001 -1.649 -1.852 9
4.079 -1.723 -1.85 10
4.3070002 -1.799 -1.8430001 9
4.5609999 -1.885 -1.8380001 11
3.507 -1.54 -1.862 9
3.6919999 -1.598 -1.852 9
3.9100001 -1.67 -1.853 9
4.132 -1.743 -1.848 10
4.3649998 -1.821 -1.84 10
4.6209998 -1.908 -1.834 10
3.556 -1.558 -1.862 8
3.747 -1.618 -1.854 10
3.9660001 -1.6900001 -1.853 9
4.1900001 -1.7640001 -1.847 9
4.4299998 -1.844 -1.84 10
4.71 -1.941 -1.84 10
3.598 -1.572 -1.857 9
3.799 -1.636 -1.853 10
4.0229998 -1.711 -1.853 9
4.2519999 -1.786 -1.846 10
4.4920001 -1.8660001 -1.836 10
4.776 -1.964 -1.835 11
3.6500001 -1.589 -1.858 8
3.855 -1.655 -1.853 9
4.0809999 -1.73 -1.851 10
4.3130002 -1.807 -1.844 9
4.573 -1.895 -1.84 11
4.855 -1.992 -1.835 11
3.698 -1.605 -1.855 9
3.9170001 -1.677 -1.855 9
4.1430001 -1.751 -1.85 10
4.381 -1.83 -1.8430001 10
4.6529999 -1.9220001 -1.841 10
4.9359999 -2.02 -1.834 11
3.753 -1.622 -1.854 9
3.9779999 -1.696 -1.855 9
4.211 -1.773 -1.851 10
4.4400001 -1.848 -1.8380001 10
4.7309999 -1.948 -1.841 10
5.0219998 -2.0480001 -1.834 11
3.8080001 -1.6390001 -1.853 9
4.0380001 -1.715 -1.853 9
4.2750001 -1.794 -1.849 10
4.5180001 -1.874 -1.84 10
4.8070002 -1.973 -1.839 11
5.0809999 -2.066 -1.822 10
3.865 -1.656 -1.851 8
4.098 -1.733 -1.851 10
4.3410001 -1.814 -1.847 9
4.605 -1.902 -1.8430001 11
4.888 -1.999 -1.837 11
5.1789999 -2.098 -1.824 10
3.9230001 -1.673 -1.849 8
4.165 -1.753 -1.851 10
4.4060001 -1.8329999 -1.8430001 10
4.6789999 -1.925 -1.84 10
4.9429998 -2.013 -1.824 10
5.2859998 -2.132 -1.826 10
3.9990001 -1.697 -1.854 9
4.2280002 -1.771 -1.847 9
4.48 -1.855 -1.842 11
4.7620001 -1.95 -1.839 11
5.0619998 -2.052 -1.8329999 11
5.3839998 -2.1630001 -1.824 10
4.0710001 -1.7180001 -1.8559999 9
4.303 -1.793 -1.848 10
4.5650001 -1.88 -1.844 11
4.8509998 -1.977 -1.84 10
5.145 -2.076 -1.8279999 10
5.4959998 -2.198 -1.825 9
4.1329999 -1.734 -1.852 9
4.3740001 -1.812 -1.845 11
4.6430001 -1.902 -1.842 11
4.947 -2.0050001 -1.841 10
5.257 -2.1099999 -1.832 10
5.6059999 -2.23 -1.824 9
4.2010002 -1.752 -1.85 9
4.441 -1.83 -1.841 10
4.7389998 -1.9299999 -1.845 10
5.0359998 -2.03 -1.839 11
5.3600001 -2.1400001 -1.831 10
5.7179999 -2.263 -1.823 9
4.2729998 -1.771 -1.849 9
4.5310001 -1.855 -1.844 11
4.8130002 -1.949 -1.84 10
5.1230001 -2.053 -1.835 10
5.4640002 -2.1689999 -1.829 9
5.842 -2.299 -1.823 10
4.349 -1.79 -1.848 9
4.6069999 -1.874 -1.84 10
4.9120002 -1.976 -1.842 10
5.2249999 -2.0810001 -1.834 10
5.5669999 -2.1960001 -1.825 9
5.9619999 -2.332 -1.8200001 10
4.4250002 -1.809 -1.846 10
4.697 -1.898 -1.842 11
4.993 -1.9960001 -1.836 11
5.3270001 -2.108 -1.8329999 10
5.691 -2.2309999 -1.827 9
6.099 -2.3710001 -1.821 11
4.5050001 -1.8279999 -1.845 9
4.7810001 -1.918 -1.839 11
5.1009998 -2.0239999 -1.8380001 10
5.4439998 -2.1389999 -1.834 9
5.8060002 -2.2609999 -1.823 10
6.2220001 -2.4030001 -1.816 10
4.5840001 -1.846 -1.842 10
4.8800001 -1.943 -1.84 11
5.204 -2.05 -1.8380001 9
5.5430002 -2.1630001 -1.829 9
5.934 -2.2950001 -1.823 10
6.3559999 -2.438 -1.812 11
4.6659999 -1.865 -1.839 10
4.9699998 -1.964 -1.837 11
5.3049998 -2.075 -1.835 10
5.6609998 -2.1930001 -1.8279999 10
6.0679998 -2.3299999 -1.822 11
6.5040002 -2.477 -1.8099999 11
4.756 -1.885 -1.8380001 10
5.0609999 -1.984 -1.8329999 11
5.415 -2.1010001 -1.834 9
5.789 -2.2249999 -1.8279999 10
6.1999998 -2.362 -1.819 11
6.6440001 -2.5109999 -1.8049999 11
4.8569999 -1.908 -1.84 10
5.1690001 -2.0090001 -1.834 11
5.5300002 -2.128 -1.8329999 10
5.9109998 -2.2539999 -1.825 10
6.336 -2.395 -1.816 10
6.8140001 -2.5550001 -1.806 11
4.9460001 -1.927 -1.836 10
5.277 -2.0339999 -1.834 10
5.6389999 -2.152 -1.829 10
6.0469999 -2.286 -1.825 11
6.4780002 -2.4289999 -1.813 10
6.9780002 -2.596 -1.802 12
5.0450001 -1.948 -1.835 10
5.382 -2.056 -1.831 10
5.7690001 -2.1819999 -1.83 10
6.178 -2.3150001 -1.821 11
6.6389999 -2.467 -1.812 11
7.1430001 -2.6340001 -1.7970001 12
5.1609998 -1.973 -1.8380001 10
5.5 -2.0810001 -1.83 9
5.8889999 -2.207 -1.825 11
6.3070002 -2.342 -1.8150001 14
6.7950001 -2.5020001 -1.808 12
7.3410001 -2.6830001 -1.798 11
5.2610002 -1.992 -1.834 10
5.618 -2.105 -1.829 10
6.02 -2.2349999 -1.824 11
6.4580002 -2.3759999 -1.814 11
6.9640002 -2.5409999 -1.807 12
7.5489998 -2.734 -1.799 11
5.381 -2.017 -1.836 9
5.7379999 -2.1289999 -1.826 10
6.1599998 -2.2639999 -1.822 11
6.6020002 -2.405 -1.809 11
7.1360002 -2.579 -1.803 12
7.7389998 -2.776 -1.794 11
5.4879999 -2.036 -1.831 9
5.8629999 -2.1530001 -1.823 11
6.289 -2.2880001 -1.816 12
6.7670002 -2.441 -1.808 12
7.336 -2.625 -1.8049999 11
7.9330001 -2.8180001 -1.7869999 11
5.605 -2.0569999 -1.83 10
5.987 -2.1760001 -1.8200001 12
6.4349999 -2.3169999 -1.814 11
6.9330001 -2.4749999 -1.8049999 12
7.5159998 -2.6619999 -1.799 10
8.1520004 -2.8659999 -1.783 11
5.7309999 -2.0799999 -1.829 10
6.1329999 -2.204 -1.8200001 12
6.585 -2.345 -1.8099999 11
7.1090002 -2.5109999 -1.803 12
7.7080002 -2.701 -1.794 11
8.3879995 -2.918 -1.78 11
5.8629999 -2.1040001 -1.8279999 10
6.263 -2.2260001 -1.8150001 11
6.744 -2.375 -1.808 12
7.2919998 -2.5469999 -1.8 12
7.9250002 -2.7460001 -1.793 12
8.6300001 -2.9690001 -1.776 10
5.98 -2.1210001 -1.822 11
6.402 -2.2490001 -1.8099999 12
6.914 -2.4070001 -1.806 12
7.4899998 -2.586 -1.799 11
8.1219997 -2.783 -1.784 11
8.8970003 -3.027 -1.774 11
6.1269999 -2.1459999 -1.823 11
6.5650001 -2.2780001 -1.8099999 12
7.0910001 -2.4389999 -1.804 12
7.6830001 -2.6210001 -1.795 11
8.3549995 -2.829 -1.781 11
9.1540003 -3.0780001 -1.767 11
6.2579999 -2.165 -1.817 12
6.7080002 -2.299 -1.803 11
7.2789998 -2.473 -1.803 10
7.882 -2.6559999 -1.789 11
8.5979996 -2.875 -1.777 11
9.4589996 -3.141 -1.766 11
6.408 -2.188 -1.8150001 11
6.8829999 -2.329 -1.803 12
7.4660001 -2.5039999 -1.799 11
8.0880003 -2.691 -1.783 11
8.8549995 -2.924 -1.773 10
9.7629995 -3.2019999 -1.761 12
6.5549998 -2.2090001 -1.811 12
7.0580001 -2.3570001 -1.801 12
7.658 -2.5350001 -1.795 11
8.3240004 -2.733 -1.781 12
9.1090002 -2.9690001 -1.767 10
10.09 -3.267 -1.758 12
6.7059999 -2.2290001 -1.807 11
7.2210002 -2.3789999 -1.794 11
7.8470001 -2.563 -1.788 11
8.5670004 -2.776 -1.778 11
9.4049997 -3.0239999 -1.765 11
10.415 -3.3269999 -1.751 11
6.8759999 -2.2539999 -1.806 11
7.4310002 -2.414 -1.7970001 10
8.0690002 -2.599 -1.786 11
8.809 -2.8150001 -1.773 11
9.7069998 -3.079 -1.762 11
10.77 -3.3940001 -1.745 11
7.0500002 -2.2780001 -1.804 11
7.6420002 -2.447 -1.798 12
8.2889996 -2.632 -1.7819999 11
9.0710001 -2.8570001 -1.7690001 11
10.031 -3.1370001 -1.7589999 12
11.131 -3.457 -1.7359999 11
7.2249999 -2.3 -1.801 11
7.8210001 -2.4679999 -1.789 11
8.5129995 -2.6630001 -1.776 12
9.3470001 -2.901 -1.7640001 11
10.351 -3.1900001 -1.752 12
11.542 -3.533 -1.732 11
7.4159999 -2.3239999 -1.8 10
8.0179996 -2.4909999 -1.783 11
8.7690001 -2.7019999 -1.774 12
9.6199999 -2.941 -1.757 11
10.701 -3.2479999 -1.748 11
11.947 -3.602 -1.722 12
7.6030002 -2.346 -1.796 10
8.2270002 -2.516 -1.777 11
8.9619999 -2.7190001 -1.758 28
9.9499998 -2.994 -1.757 12
11.037 -3.2980001 -1.7359999 12
12.398 -3.6800001 -1.714 12
7.8169999 -2.3729999 -1.796 11
8.4549999 -2.5439999 -1.774 11
9.2799997 -2.7690001 -1.763 11
10.264 -3.04 -1.751 12
11.418 -3.3570001 -1.729 12
12.878 -3.7609999 -1.707 12
8.0109997 -2.391 -1.79 12
8.6999998 -2.5739999 -1.771 11
9.5690002 -2.8080001 -1.76 11
10.596 -3.086 -1.744 13
11.842 -3.4230001 -1.724 12
13.405 -3.8499999 -1.699 11
8.2080002 -2.408 -1.7819999 12
8.948 -2.602 -1.766 12
9.868 -2.846 -1.756 11
10.949 -3.1340001 -1.738 13
12.28 -3.49 -1.717 12
13.972 -3.944 -1.692 11
8.4230003 -2.427 -1.776 11
9.2060003 -2.6300001 -1.762 11
10.179 -2.8840001 -1.751 12
11.325 -3.184 -1.732 12
12.733 -3.5539999 -1.7079999 12
14.589 -4.046 -1.686 11
8.658 -2.45 -1.773 11
9.4709997 -2.6559999 -1.756 11
10.495 -2.9200001 -1.745 13
11.708 -3.2320001 -1.724 13
13.203 -3.619 -1.697 12
15.191 -4.1360002 -1.6720001 12
8.8940001 -2.4690001 -1.7690001 12
9.7609997 -2.687 -1.753 11
10.838 -2.9590001 -1.739 12
12.116 -3.283 -1.717 13
13.735 -3.694 -1.6900001 11
15.816 -4.2259998 -1.656 11
9.151 -2.4920001 -1.766 12
10.061 -2.7160001 -1.749 12
11.18 -2.994 -1.7309999 14
12.554 -3.336 -1.709 13
14.298 -3.7720001 -1.682 12
16.479 -4.3169999 -1.637 10
9.4029999 -2.51 -1.76 12
10.361 -2.7409999 -1.742 12
11.56 -3.0339999 -1.726 13
13.021 -3.391 -1.702 12
14.943 -3.8640001 -1.679 12
17.214001 -4.421 -1.6210001 11
9.6800003 -2.5309999 -1.757 12
10.694 -2.7720001 -1.738 14
11.935 -3.069 -1.717 13
13.473 -3.438 -1.6900001 12
15.498 -3.9260001 -1.661 12
18.082001 -4.5500002 -1.61 12
9.9469995 -2.5469999 -1.75 12
11.018 -2.796 -1.7309999 14
12.348 -3.108 -1.711 13
14.023 -3.5020001 -1.684 13
16.101999 -3.9920001 -1.642 10
19.021999 -4.684 -1.597 14
10.255 -2.5680001 -1.747 12
11.361 -2.8199999 -1.723 13
12.779 -3.1459999 -1.702 13
14.582 -3.562 -1.676 13
16.777 -4.0679998 -1.625 11
19.931999 -4.8000002 -1.573 14
10.555 -2.5840001 -1.7410001 13
11.733 -2.8469999 -1.7180001 13
13.241 -3.187 -1.6950001 14
15.166 -3.6210001 -1.666 13
17.552999 -4.1599998 -1.612 12
20.976 -4.9369998 -1.553 16
10.866 -2.598 -1.734 13
12.105 -2.869 -1.709 13
13.71 -3.223 -1.686 14
15.684 -3.658 -1.645 12
18.407 -4.2610002 -1.601 13
22.069 -5.0739999 -1.528 7
11.202 -2.615 -1.73 13
12.518 -2.8959999 -1.704 13
14.219 -3.2620001 -1.677 13
16.266001 -3.7019999 -1.627 10
19.271 -4.3530002 -1.5829999 14
23.458 -5.2620001 -1.5140001 21
11.538 -2.6270001 -1.723 13
12.933 -2.9189999 -1.696 15
14.759 -3.303 -1.669 13
16.98 -3.7690001 -1.617 11
20.165001 -4.4429998 -1.563 15
25.219 -5.5170002 -1.511 27
11.888 -2.638 -1.716 14
13.364 -2.9389999 -1.687 13
15.282 -3.332 -1.655 14
17.721001 -3.8329999 -1.605 12
21.212999 -4.5539999 -1.5470001 14
26.754 -5.7020001 -1.482 29
12.247 -2.6459999 -1.7079999 13
13.817 -2.9590001 -1.679 14
15.794 -3.3529999 -1.637 14
18.490999 -3.8940001 -1.59 13
22.101999 -4.619 -1.512 8
27.341999 -5.6719999 -1.393 14
12.647 -2.6589999 -1.7029999 14
14.302 -2.9779999 -1.67 15
16.349001 -3.375 -1.619 13
19.368 -3.9660001 -1.577 14
23.875999 -4.8499999 -1.527 22
30.358 -6.1220002 -1.415 34
13.05 -2.6659999 -1.696 13
14.809 -2.997 -1.661 14
16.988001 -3.4070001 -1.6059999 11
20.216999 -4.02 -1.556 15
24.912001 -4.914 -1.484 25
31.048 -6.079 -1.314 37
13.474 -2.671 -1.689 14
15.283 -3.0020001 -1.646 13
17.707001 -3.4460001 -1.596 12
21.113001 -4.0749998 -1.535 13
0 0 0 0
31.714001 -6.026 -1.211 38
13.909 -2.674 -1.682 14
15.791 -3.007 -1.631 14
18.438 -3.48 -1.5829999 13
22.051001 -4.125 -1.51 10
27.275 -5.0609999 -1.398 27
33.285 -6.1269999 -1.135 43
14.351 -2.6719999 -1.673 14
16.325001 -3.01 -1.617 13
19.26 -3.5190001 -1.573 14
23.198 -4.2020001 -1.494 7
27.464001 -4.9330001 -1.298 42
27.898001 -4.9710002 -0.84200001 96
14.771 -2.661 -1.659 15
16.830999 -3.003 -1.598 10
20.054001 -3.5450001 -1.557 15
24.809 -4.3449998 -1.498 23
27.598 -4.7909999 -1.1950001 49
27.923 -4.8070002 -0.73400003 101
15.221 -2.648 -1.646 14
17.497999 -3.013 -1.589 11
20.921 -3.5680001 -1.539 16
0 0 0 0
27.857 -4.6669998 -1.099 70
38.473 -6.3920002 -0.866 55
15.686 -2.632 -1.633 14
18.143 -3.0120001 -1.576 12
21.804001 -3.585 -1.52 14
27.121 -4.4169998 -1.428 21
32.396 -5.2280002 -1.155 42
0 0 0 0
16.176001 -2.612 -1.619 13
18.865999 -3.0150001 -1.5650001 13
22.646 -3.582 -1.492 9
27.322001 -4.2789998 -1.336 27
33.451 -5.191 -1.0700001 42
39.669998 -6.1020002 -0.602 84
16.697001 -2.5910001 -1.608 13
19.573999 -3.006 -1.55 14
23.517 -3.5739999 -1.4630001 6
27.990999 -4.211 -1.268 13
34.777 -5.1830001 -0.99000001 29
39.685001 -5.8600001 -0.46399999 1
17.225 -2.5650001 -1.595 11
20.308001 -2.99 -1.535 15
24.702 -3.599 -1.448 4
30.823999 -4.4439998 -1.288 36
34.952 -4.9899998 -0.87400001 4
48.212002 -6.8169999 -0.39899999 6
17.781 -2.533 -1.581 11
21.117001 -2.9760001 -1.52 16
26.789 -3.734 -1.477 19
31.572001 -4.355 -1.212 40
0 0 0 0
62.388 -8.4300003 -0.31200001 7
18.389 -2.5020001 -1.5700001 12
21.875 -2.9430001 -1.5 16
27.125 -3.608 -1.405 26
32.366001 -4.2589998 -1.136 41
37.563 -4.8920002 -0.69300002 2
69.412003 -8.9469995 -0.12800001 17
18.993 -2.464 -1.558 13
22.614 -2.8989999 -1.476 11
27.223 -3.4489999 -1.322 22
30.327 -3.7969999 -0.96700001 150
30.346001 -3.7590001 -0.465 26
71.907997 -8.8120003 0.086999997 13
19.629 -2.4200001 -1.5470001 14
23.389999 -2.849 -1.4529999 7
27.468 -3.3050001 -1.248 6
30.348 -3.608 -0.875 150
30.362 -3.5680001 -0.373 16
72.260002 -8.3959999 0.303 7
20.268999 -2.368 -1.533 15
24.891001 -2.8699999 -1.4680001 16
28.285999 -3.2190001 -1.199 0
30.396999 -3.4159999 -0.78500003 150
30.438 -3.381 -0.285 150
34.707001 -3.8099999 0.245 0
20.93 -2.3080001 -1.5190001 16
25.493 -2.773 -1.428 23
30.395 -3.263 -1.199 104
30.417 -3.223 -0.699 149
31.231001 -3.2679999 -0.204 60
34.696999 -3.5869999 0.34 3
21.579 -2.2390001 -1.503 16
0 0 0 0
30.43 -3.0710001 -1.1160001 67
30.469999 -3.0309999 -0.616 105
31.663 -3.108 -0.121 60
34.935001 -3.385 0.43599999 2
22.246 -2.161 -1.487 13
27.239 -2.6070001 -1.372 24
32.070999 -3.0239999 -1.0880001 38
31.607 -2.9389999 -0.55500001 67
31.681 -2.904 -0.039000001 63
82.795998 -7.4829998 1.247 35
22.937 -2.0769999 -1.471 10
27.375999 -2.4389999 -1.306 24
32.179001 -2.822 -1.008 59
31.6 -2.7290001 -0.47400001 74
31.792 -2.7049999 0.039999999 59
52.278 -4.382 0.91600001 6
23.674999 -1.985 -1.456 6
27.587999 -2.276 -1.2460001 26
32.293999 -2.6199999 -0.93199998 37
31.646999 -2.5239999 -0.398 70
31.973 -2.51 0.116 44
28.215 -2.1789999 0.56 67
0 0 0 0
27.969999 -2.1199999 -1.1950001 26
27.959999 -2.082 -0.74000001 53
27.959 -2.0450001 -0.28600001 129
27.986 -2.0109999 0.16599999 77
37.182999 -2.6270001 0.82200003 77
25.465 -1.794 -1.443 23
28.025 -1.936 -1.133 17
0 0 0 0
32.227001 -2.141 -0.25799999 2
37.290001 -2.4300001 0.303 42
37.284 -2.385 0.90499997 39
25.886 -1.648 -1.408 22
31.246 -1.947 -1.194 37
32.738998 -1.997 -0.72100002 12
37.683998 -2.25 -0.221 44
37.407001 -2.188 0.382 83
37.407001 -2.142 0.98400003 69
0 0 0 0
31.719 -1.761 -1.145 40
36.076 -1.957 -0.72100002 46
49.118999 -2.602 -0.191 1
37.486 -1.939 0.45699999 108
37.512001 -1.895 1.0599999 27
27.275999 -1.365 -1.37 26
31.82 -1.552 -1.086 41
34.397999 -1.6339999 -0.62099999 1
46.139999 -2.135 -0.092 2
37.597 -1.693 0.52700001 79
37.591 -1.647 1.13 72
27.570999 -1.192 -1.332 22
32.258999 -1.353 -1.041 53
36.880001 -1.501 -0.59899998 48
46.900002 -1.851 -0.0099999998 23
38.339001 -1.466 0.60500002 62
39.118999 -1.45 1.243 28
27.688999 -1.008 -1.289 26
32.561001 -1.1440001 -0.99400002 40
34.327 -1.1619999 -0.498 1
39.146 -1.279 0.056000002 63
39.214001 -1.233 0.68300003 32
39.171001 -1.1849999 1.307 2
27.868 -0.82200003 -1.251 27
32.830002 -0.92799997 -0.949 41
36.951 -0.99800003 -0.47799999 6
68.128998 -1.758 0.205 26
39.306999 -0.96700001 0.745 30
39.32 -0.92199999 1.3710001 22
28.197001 -0.63800001 -1.222 29
32.834 -0.70300001 -0.89999998 50
35.354 -0.71399999 -0.405 2
39.320999 -0.74699998 0.17399999 2
39.382999 -0.70200002 0.801 16
82.643997 -1.3789999 2.9960001 17
28.681999 -0.45199999 -1.202 21
32.835999 -0.47600001 -0.85399997 47
37.127998 -0.493 -0.375 1
68.788002 -0.83600003 0.39700001 22
84.287003 -0.92500001 1.825 27
82.794998 -0.815 3.1059999 17
28.923 -0.255 -1.174 14
32.772999 -0.25099999 -0.81099999 60
39.404999 -0.25600001 -0.34900001 1
39.570999 -0.20999999 0.27599999 38
83.897003 -0.352 1.915 7
83.442001 -0.25600001 3.2260001 19
29.107 -0.056000002 -1.147 13
32.812 -0.026000001 -0.77399999 39
45.241001 0.017999999 -0.34999999 33
38.02 0.059 0.30700001 16
84.012001 0.22499999 2.0079999 11
83.294998 0.31600001 3.309 9
29.316 0.146 -1.124 10
33.344002 0.20299999 -0.75199997 42
37.981998 0.273 -0.25600001 59
37.962002 0.317 0.34299999 5
83.889999 0.79699999 2.085 9
0 0 0 0
29.271999 0.34799999 -1.095 2
33.188 0.43200001 -0.71700001 44
38.110001 0.53899997 -0.222 5
74.107002 1.136 0.736 15
38.078999 0.62699997 0.97899997 87
65.417999 1.148 2.714 15
29.323 0.55500001 -1.072 0
33.523998 0.67199999 -0.69700003 40
38.139 0.80500001 -0.192 2
0 0 0 0
38.183998 0.88999999 1.01 11
65.120003 1.591 2.7490001 34
31.419001 0.81199998 -1.126 49
34.345001 0.92500001 -0.69099998 46
38.292 1.076 -0.167 80
38.297001 1.118 0.43399999 78
38.402 1.1619999 1.04 10
63.965 2.007 2.7390001 56
31.511999 1.0369999 -1.1109999 45
33.187 1.127 -0.648 39
38.394001 1.345 -0.147 68
38.389999 1.385 0.456 12
38.414001 1.431 1.0599999 24
64.341003 2.4660001 2.7880001 39
31.608999 1.263 -1.099 46
34.009998 1.395 -0.648 42
38.481998 1.619 -0.13 3
38.514999 1.6619999 0.47400001 43
38.493999 1.701 1.0779999 33
64.601997 2.9260001 2.8239999 41
31.583 1.487 -1.086 48
32.411999 1.559 -0.60699999 38
38.596001 1.895 -0.117 3
64.475998 3.234 0.81400001 4
0 0 0 0
64.093002 3.3559999 2.8210001 4
29.301001 1.5880001 -1.001 17
34.025002 1.878 -0.62900001 45
38.705002 2.1760001 -0.109 76
38.714001 2.217 0.49599999 80
0 0 0 0
79.536003 4.724 3.513 8
29.006001 1.777 -0.98699999 49
33.827999 2.1070001 -0.62199998 42
43.881001 2.7780001 -0.12 13
29.188 1.876 0.37599999 1
29.101999 1.901 0.83099997 41
29.066 1.929 1.285 28
28.919001 1.978 -0.98400003 58
29.059 2.0139999 -0.53399998 109
29.040001 2.0409999 -0.079999998 104
29.039 2.069 0.37400001 42
29.055 2.0999999 0.82800001 38
28.990999 2.1270001 1.281 44
28.784 2.1730001 -0.98299998 44
29.077999 2.221 -0.53799999 77
41.382999 3.201 -0.12 23
35.366001 2.77 0.44999999 5
34.591999 2.7449999 0.98100001 23
54.300999 4.3649998 2.3900001 6
28.864 2.3829999 -0.99299997 46
33.344002 2.783 -0.62599999 3
39.379002 3.322 -0.124 5
35.366001 3.0190001 0.44100001 46
34.639 2.99 0.97299999 8
34.498001 3.0139999 1.5089999 0
28.981001 2.598 -1.007 42
32.631001 2.9530001 -0.62400001 13
39.432999 3.605 -0.138 56
34.391998 3.175 0.41600001 42
34.688999 3.237 0.96200001 12
34.672001 3.27 1.503 3
31.598 3.056 -1.113 37
0 0 0 0
39.203999 3.862 -0.156 53
34.125999 3.3929999 0.396 42
34.522999 3.464 0.94 44
34.710999 3.5179999 1.488 3
31.408001 3.26 -1.124 35
32.486 3.3989999 -0.65600002 1
38.972 4.1110001 -0.178 54
34.403999 3.6600001 0.37900001 43
34.526001 3.7060001 0.91900003 42
34.294998 3.7149999 1.449 18
31.113001 3.4519999 -1.136 36
34.807999 3.891 -0.72799999 50
34.507 3.885 -0.182 13
34.16 3.8770001 0.352 16
34.325001 3.928 0.88999999 43
34.783001 4.0120001 1.4450001 11
0 0 0 0
34.244999 4.0710001 -0.74400002 45
38.707001 4.6339998 -0.237 54
34.678001 4.1799998 0.329 24
34.308998 4.1669998 0.861 43
35 4.2849998 1.425 5
29.174 3.6530001 -1.117 16
32.512001 4.0949998 -0.73699999 25
38.513 4.882 -0.27200001 54
34.480999 4.4000001 0.294 10
34.464001 4.427 0.833 44
35.178001 4.552 1.399 2
28.955 3.8310001 -1.1390001 20
32.743999 4.3559999 -0.77700001 39
38.243999 5.118 -0.31 53
38.898998 5.2379999 0.29100001 5
34.229 4.6389999 0.79100001 44
34.861 4.7550001 1.35 20
28.864 4.0240002 -1.17 20
33.254002 4.6589999 -0.82800001 44
38.046001 5.3590002 -0.35299999 54
0 0 0 0
34.088001 4.8579998 0.74900001 43
34.478001 4.9450002 1.296 13
28.787001 4.2179999 -1.204 26
32.509998 4.7849998 -0.85100001 55
37.487999 5.5440001 -0.39500001 51
34.470001 5.1230001 0.175 1
34.007999 5.0830002 0.704 42
34.137001 5.132 1.2410001 10
0 0 0 0
32.386002 4.994 -0.89300001 38
37.27 5.7729998 -0.44499999 52
38.233002 5.9530001 0.141 33
34.136002 5.342 0.66000003 43
34.448002 5.4200001 1.205 9
27.438 4.408 -1.228 27
32.481998 5.2389998 -0.94499999 39
36.811001 5.961 -0.49399999 51
38.080002 6.1939998 0.083999999 44
34.048 5.5650001 0.60799998 42
