# .PCD v0.7 - Point Cloud Data file format
VERSION 0.7
FIELDS x y z intensity
SIZE 4 4 4 4
TYPE F F F F
COUNT 1 1 1 1
WIDTH 1794
HEIGHT 1
VIEWPOINT 0 0 0 1 0 0 0
POINTS 1794
DATA ascii
21.796 0.97399998 7.9499998 59
24.469999 1.074 9.3940001 54
24.364 1.05 9.8299999 14
0 0 0 0
0 0 0 0
0 0 0 0
22.079 1.036 7.8959999 52
21.912001 1.01 8.2519999 49
24.26 1.099 9.6079998 62
0 0 0 0
0 0 0 0
0 0 0 0
21.965 1.076 7.698 60
21.68 1.045 8.0059996 59
24.457001 1.159 9.5019999 54
23.93 1.115 9.7700005 0
0 0 0 0
0 0 0 0
22.298 1.136 7.6550002 72
22.003 1.104 7.9629998 62
22.487 1.1109999 8.5670004 3
24.077 1.171 9.6440001 46
0 0 0 0
0 0 0 0
21.827 1.153 7.335 51
21.951 1.143 7.783 62
21.983 1.127 8.21 19
24.399 1.232 9.5860004 39
0 0 0 0
0 0 0 0
22.164 1.211 7.29 27
21.937 1.182 7.6160002 60
22.024 1.17 8.0609999 31
24.371 1.275 9.3859997 49
23.948 1.234 9.6929998 9
0 0 0 0
22.062 1.243 7.0960002 59
22.563 1.2539999 7.6680002 26
21.855 1.198 7.8330002 46
22.207001 1.2 8.3800001 2
24.26 1.2920001 9.6260004 37
0 0 0 0
22.466 1.302 7.0609999 46
22.763 1.302 7.566 69
21.865 1.234 7.6700001 59
22.275 1.2410001 8.2340002 36
22.323 1.226 8.6800003 0
0 0 0 0
23.319 1.386 7.1599998 25
22.233 1.304 7.2259998 58
22.482 1.302 7.717 46
21.952999 1.256 7.9450002 55
22.294001 1.258 8.4949999 4
24.261 1.351 9.7180004 24
24.791 1.508 7.434 27
22.291 1.34 7.0799999 36
22.805 1.354 7.6570001 44
21.917 1.285 7.7639999 61
22.195999 1.284 8.2810001 33
24.326 1.3890001 9.5469999 50
24.4 1.516 7.138 7
22.625999 1.3890001 7.0190001 0
22.684999 1.376 7.4439998 60
23.011 1.3789999 7.974 47
22.09 1.307 8.0699997 43
24.372 1.425 9.3690004 49
23.6 1.495 6.7329998 45
24.333 1.523 7.3670001 15
22.290001 1.378 7.1469998 54
23.224001 1.419 7.869 57
21.896 1.323 7.8249998 59
22.042999 1.3150001 8.2959995 31
23.780001 1.5319999 6.6110001 21
23.570999 1.501 6.9629998 5
0 0 0 0
22.804001 1.419 7.552 35
22.396 1.378 7.829 62
22.120001 1.345 8.1459999 43
25.844 1.6900001 6.9959998 18
23.657 1.53 6.8119998 22
23.969999 1.533 7.3249998 28
22.67 1.434 7.3330002 20
23.142 1.448 7.9060001 54
22.066 1.364 7.9499998 53
24.732 1.641 6.5139999 13
23.964001 1.572 6.724 28
28.281 1.835 8.4289999 34
22.386 1.4349999 7.0689998 14
22.871 1.451 7.6360002 27
22.136 1.3890001 7.7979999 60
25.454 1.7079999 6.5190001 22
25.347 1.683 6.9229999 26
23.584 1.549 6.8499999 21
23.903999 1.553 7.3649998 23
22.415001 1.4400001 7.309 39
22.900999 1.455 7.8850002 38
25.166 1.706 6.2610002 35
24.733999 1.659 6.572 18
23.969 1.591 6.7810001 30
22.832001 1.499 6.8579998 1
22.281 1.447 7.0900002 17
23.164 1.489 7.79 38
24.622999 1.684 5.948 26
25.441999 1.721 6.572 24
25.004 1.674 6.8850002 28
23.478001 1.5549999 6.8730001 22
23.211 1.522 7.204 21
22.375999 1.451 7.348 46
24.41 1.681 5.717 22
25.233999 1.72 6.3309999 39
24.707001 1.666 6.618 23
23.871 1.5930001 6.8060002 24
24.313 1.6059999 7.3579998 23
22.709999 1.484 7.277 20
0 0 0 0
24.597 1.6849999 5.9910002 26
25.403999 1.722 6.6160002 19
24.694 1.6569999 6.8530002 27
23.247999 1.545 6.8559999 22
22.896999 1.506 7.158 24
0 0 0 0
24.506001 1.686 5.7880001 29
25.421 1.7309999 6.4289999 34
24.832001 1.673 6.7010002 24
23.839001 1.59 6.8460002 25
24.038 1.5880001 7.3239999 31
27.208 1.896 5.7800002 22
24.266001 1.673 5.553 1
24.826 1.6950001 6.0939999 32
25.232 1.705 6.6209998 15
24.327 1.627 6.8010001 30
23.089001 1.529 6.8559999 21
27.181999 1.895 5.5780001 17
0 0 0 0
24.393999 1.666 5.8060002 30
25.457001 1.722 6.4860001 32
25.16 1.6849999 6.8390002 26
23.764999 1.576 6.8699999 22
0 0 0 0
27.205 1.876 5.8260002 9
24.325001 1.661 5.6079998 4
25.114 1.698 6.2080002 34
24.841 1.6619999 6.5609999 15
24.052999 1.594 6.7649999 28
0 0 0 0
27.167 1.87 5.619 25
0 0 0 0
24.591 1.658 5.895 26
25.469 1.701 6.5320001 17
25.349001 1.676 6.9320002 26
0 0 0 0
27.114 1.859 5.4120002 3
0 0 0 0
24.257999 1.63 5.6360002 20
25.191 1.676 6.2729998 31
24.726 1.6289999 6.5749998 15
0 0 0 0
0 0 0 0
27.132 1.8329999 5.6589999 4
0 0 0 0
24.732 1.637 5.973 27
25.379999 1.663 6.5539999 2
0 0 0 0
0 0 0 0
27.098 1.817 5.4530001 18
0 0 0 0
24.221001 1.592 5.6669998 31
25.349001 1.65 6.3530002 25
0 0 0 0
0 0 0 0
0 0 0 0
0 0 0 0
24.379999 1.589 5.5209999 6
24.561001 1.585 5.9679999 25
0 0 0 0
0 0 0 0
0 0 0 0
27.059999 1.763 5.4850001 13
0 0 0 0
24.266001 1.55 5.711 41
0 0 0 0
0 0 0 0
0 0 0 0
27.091 1.744 5.2940001 20
0 0 0 0
24.273001 1.5319999 5.533 8
0 0 0 0
0 0 0 0
0 0 0 0
0 0 0 0
0 0 0 0
0 0 0 0
0 0 0 0
0 0 0 0
0 0 0 0
0 0 0 0
27.055 1.673 5.3260002 13
0 0 0 0
0 0 0 0
0 0 0 0
0 0 0 0
0 0 0 0
27.073999 1.645 5.131 16
0 0 0 0
0 0 0 0
0 0 0 0
0 0 0 0
0 0 0 0
0 0 0 0
0 0 0 0
83.855003 5.1129999 9.4630003 40
0 0 0 0
0 0 0 0
0 0 0 0
0 0 0 0
26.98 1.5549999 5.151 7
81.713997 4.8660002 8.6560001 11
0 0 0 0
0 0 0 0
0 0 0 0
0 0 0 0
27.007999 1.5190001 4.961 13
82 4.757 8.1210003 29
83.779999 4.802 9.5790005 27
0 0 0 0
0 0 0 0
0 0 0 0
0 0 0 0
81.817001 4.6160002 7.5500002 38
83.316002 4.6420002 8.9540005 47
0 0 0 0
0 0 0 0
0 0 0 0
0 0 0 0
81.956001 4.4809999 7.0040002 30
81.934998 4.4229999 8.243 36
0 0 0 0
0 0 0 0
0 0 0 0
0 0 0 0
79.134003 4.1830001 6.2290001 10
81.751999 4.2649999 7.6700001 40
83.331001 4.2880001 9.0810003 50
0 0 0 0
0 0 0 0
0 0 0 0
81.653 4.1570001 5.8730001 15
82.197998 4.1269999 7.1500001 26
81.871002 4.0560002 8.3660002 42
0 0 0 0
0 0 0 0
0 0 0 0
82.085999 4.0100002 5.3540001 13
81.528 3.927 6.5419998 35
81.040001 3.849 7.7309999 45
83.239998 3.8989999 9.2049999 37
0 0 0 0
0 0 0 0
80.977997 3.7839999 4.7449999 46
81.014 3.73 5.961 46
81.981003 3.7190001 7.2670002 45
83.753998 3.7420001 8.6890001 32
0 0 0 0
0 0 0 0
80.597 3.5829999 4.1859999 40
81.135002 3.5510001 5.427 13
81.153 3.4979999 6.6500001 41
26.216 1.113 2.5439999 0
26.372 1.102 2.9579999 33
0 0 0 0
66.181 2.7850001 3.0020001 38
81.503998 3.375 4.9130001 20
81.834999 3.335 6.1620002 18
26.239 1.052 2.3699999 37
26.308001 1.038 2.7739999 41
25.323 0.98299998 3.0539999 41
25.650999 1.016 0.995 31
82.385002 3.207 4.421 21
26.106001 0.99900001 1.791 24
26.153 0.98400003 2.187 47
26.242001 0.97000003 2.5899999 39
25.347 0.921 2.885 32
25.530001 0.94599998 0.82499999 53
25.801001 0.93900001 1.217 41
25.997 0.92799997 1.614 43
26.118 0.91600001 2.013 38
26.233999 0.903 2.415 24
25.371 0.85799998 2.7190001 24
25.566999 0.87900001 0.66100001 53
25.589001 0.86199999 1.041 49
25.933001 0.85699999 1.441 37
26.028999 0.84299999 1.835 31
26.198999 0.833 2.24 1
25.403 0.79100001 2.5539999 9
25.705999 0.81300002 0.50099999 19
25.638 0.79299998 0.87900001 32
25.655001 0.77700001 1.26 47
25.646999 0.75999999 1.643 48
82.143997 2.3840001 6.4889998 16
25.379999 0.72100002 2.385 0
0 0 0 0
37.68 1.058 1.051 3
25.676001 0.704 1.097 36
25.655001 0.68699998 1.478 43
25.549 0.66799998 1.852 39
25.433001 0.64899999 2.224 38
58.390999 1.505 0.398 4
37.991001 0.954 0.81999999 40
57.824001 1.415 2.1059999 3
25.688999 0.61199999 1.317 20
25.638 0.59500003 1.696 35
25.473 0.57499999 2.0639999 33
33.526001 0.76099998 0.02 6
39.215 0.86500001 0.602 28
37.300999 0.79900002 1.125 20
58.292999 1.21 2.619 3
81.815002 1.647 4.8889999 45
82.213997 1.604 6.1329999 16
32.757999 0.639 -0.184 42
80.877998 1.525 0.736 31
38.264 0.69599998 0.91299999 1
0 0 0 0
57.634998 0.97600001 3.079 9
58.165001 0.949 3.9679999 2
31.516001 0.51099998 -0.37200001 40
33.307999 0.51800001 0.096000001 1
68.350998 1.018 1.202 51
38.424999 0.54900002 1.244 31
68.32 0.93300003 3.221 48
58.202 0.75999999 3.6059999 3
31.054001 0.398 -0.55599999 34
33.381001 0.40599999 -0.107 39
82.344002 0.95300001 0.94999999 19
38.463001 0.41999999 1.01 53
58.679001 0.60500002 2.4059999 8
58.254002 0.56599998 3.2490001 18
30.792 0.28799999 -0.736 48
31.778999 0.27599999 -0.294 43
58.084 0.47 0.31799999 10
38.498001 0.287 0.77700001 41
38.495998 0.26300001 1.3430001 52
58.160999 0.36199999 2.885 10
30.625 0.177 -0.917 28
30.999001 0.16 -0.47099999 36
33.801998 0.153 -0.017000001 2
38.563999 0.15000001 0.546 45
38.639999 0.126 1.113 54
57.591 0.153 2.506 3
29.604 0.061999999 -1.061 36
30.731001 0.045000002 -0.64999998 53
0 0 0 0
58.853001 0.015 0.484 2
38.435001 -0.013 0.88 52
58.373001 -0.054000001 2.194 2
28.232 -0.045000002 -1.176 43
30.584 -0.068000004 -0.824 33
31.164 -0.088 -0.38299999 37
57.488998 -0.199 0.13500001 19
38.576 -0.15800001 0.65399998 3
38.48 -0.18000001 1.217 17
27.157 -0.148 -1.289 26
30.238001 -0.184 -0.991 35
30.877001 -0.207 -0.55900002 36
31.237 -0.228 -0.107 8
0 0 0 0
38.564999 -0.32800001 0.995 6
24.917 -0.235 -1.326 22
28.766001 -0.28799999 -1.107 32
30.896 -0.32800001 -0.73699999 40
31.948 -0.36000001 -0.29499999 41
61.102001 -0.72399998 0.33000001 4
68.176003 -0.85000002 1.363 11
24.107 -0.32499999 -1.42 25
27.752001 -0.391 -1.227 42
30.735001 -0.45100001 -0.90799999 45
31.290001 -0.47799999 -0.46599999 37
34.237999 -0.54299998 -0.0089999996 8
67.857002 -1.119 0.97000003 43
23.052 -0.40599999 -1.487 22
26.399 -0.48199999 -1.317 26
29.806 -0.56099999 -1.049 36
31.118 -0.60500002 -0.63999999 52
0 0 0 0
67.712997 -1.396 0.583 10
21.927999 -0.47999999 -1.5369999 25
24.278 -0.546 -1.345 21
28.344999 -0.65499997 -1.1569999 40
31.122999 -0.73699999 -0.81400001 54
31.813 -0.77200001 -0.368 38
58.257999 -1.45 0.17299999 7
20.5 -0.53799999 -1.551 15
23.884001 -0.64099997 -1.456 20
27.431 -0.75199997 -1.2690001 40
30.603001 -0.85699999 -0.96899998 35
31.544001 -0.90200001 -0.53799999 40
34.228001 -1 -0.088 11
19.407 -0.59600002 -1.574 13
22.396 -0.70099998 -1.488 18
25.787001 -0.82200003 -1.335 24
29.386999 -0.95300001 -1.09 35
31.607 -1.044 -0.71200001 49
31.885 -1.072 -0.255 29
18.424 -0.64999998 -1.594 12
21.541 -0.77200001 -1.5470001 17
24.1 -0.87699997 -1.376 21
28.004 -1.036 -1.191 43
31.111 -1.169 -0.86900002 45
31.740999 -1.21 -0.42399999 37
17.497 -0.69800001 -1.607 11
20.155001 -0.815 -1.554 14
23.698 -0.97100002 -1.479 24
27.114 -1.127 -1.296 38
30.16 -1.271 -1.001 44
31.41 -1.3430001 -0.588 46
16.663 -0.74299997 -1.618 10
19.122999 -0.86299998 -1.575 13
22.194 -1.0140001 -1.501 18
25.458 -1.178 -1.35 23
28.971001 -1.357 -1.114 34
31.408001 -1.492 -0.75300002 51
15.906 -0.78600001 -1.627 9
18.197001 -0.91000003 -1.594 12
21.431999 -1.0829999 -1.562 18
23.969999 -1.224 -1.395 21
27.806999 -1.437 -1.2130001 42
31.153 -1.628 -0.90700001 43
15.303 -0.83200002 -1.6440001 8
17.351 -0.95300001 -1.609 11
20.132999 -1.1160001 -1.5700001 14
23.539 -1.317 -1.49 24
26.885 -1.52 -1.3099999 37
29.941 -1.709 -1.023 42
14.63 -0.86799997 -1.646 7
16.554001 -0.991 -1.618 10
19.143999 -1.155 -1.5880001 13
22.259001 -1.3559999 -1.52 18
25.386 -1.561 -1.363 23
28.844 -1.79 -1.13 38
14.086 -0.90799999 -1.655 9
15.82 -1.027 -1.625 9
18.226 -1.193 -1.603 12
21.344999 -1.409 -1.564 17
23.881001 -1.589 -1.4 21
27.563 -1.85 -1.216 40
13.584 -0.94599998 -1.663 11
15.238 -1.069 -1.64 8
17.412001 -1.23 -1.617 11
20.17 -1.436 -1.577 15
23.413 -1.679 -1.487 27
26.841 -1.9400001 -1.3150001 41
13.155 -0.98500001 -1.675 11
14.599 -1.101 -1.642 7
16.641001 -1.263 -1.626 10
19.226999 -1.47 -1.596 13
22.417 -1.726 -1.533 20
25.665001 -1.99 -1.381 25
12.737 -1.023 -1.683 12
14.087 -1.138 -1.652 9
15.9 -1.2920001 -1.6289999 9
18.320999 -1.499 -1.608 12
21.410999 -1.763 -1.5650001 29
23.997 -1.99 -1.405 22
12.354 -1.0599999 -1.691 12
13.616 -1.175 -1.661 10
15.343 -1.331 -1.645 10
17.533001 -1.53 -1.6210001 11
20.313999 -1.783 -1.58 15
23.292 -2.0569999 -1.471 29
12.012 -1.097 -1.7 12
13.208 -1.212 -1.6720001 11
14.794 -1.365 -1.653 8
16.783001 -1.557 -1.628 10
19.466999 -1.8150001 -1.602 14
22.867001 -2.1440001 -1.5470001 19
11.691 -1.1339999 -1.709 11
12.809 -1.247 -1.6799999 12
14.208 -1.39 -1.652 9
16.08 -1.58 -1.631 9
18.597 -1.837 -1.614 12
21.483 -2.1340001 -1.55 23
11.387 -1.168 -1.715 11
12.459 -1.283 -1.689 12
13.779 -1.426 -1.663 10
15.495 -1.6109999 -1.641 10
17.812 -1.8609999 -1.624 11
20.865999 -2.1919999 -1.597 19
11.094 -1.2029999 -1.72 12
12.116 -1.319 -1.697 12
13.381 -1.462 -1.674 12
15.026 -1.649 -1.6569999 8
17.073 -1.882 -1.63 11
19.802999 -2.1919999 -1.6 14
10.842 -1.239 -1.728 12
11.82 -1.354 -1.705 12
13.01 -1.497 -1.683 13
14.436 -1.6670001 -1.652 7
16.413 -1.904 -1.636 10
18.976999 -2.211 -1.613 13
10.599 -1.274 -1.734 12
11.518 -1.388 -1.71 12
12.673 -1.5319999 -1.692 13
14.011 -1.7 -1.661 10
15.789 -1.924 -1.6390001 9
18.225 -2.23 -1.624 12
10.364 -1.308 -1.74 13
11.245 -1.423 -1.717 12
12.341 -1.566 -1.699 13
13.622 -1.735 -1.671 11
15.324 -1.959 -1.653 10
17.475 -2.2420001 -1.628 11
10.142 -1.341 -1.744 12
10.995 -1.4579999 -1.723 12
12.037 -1.601 -1.706 13
13.264 -1.7690001 -1.681 11
14.867 -1.99 -1.663 8
16.871 -2.266 -1.638 10
9.9329996 -1.375 -1.748 12
10.765 -1.494 -1.7309999 13
11.756 -1.635 -1.712 12
12.924 -1.803 -1.688 13
14.334 -2.006 -1.659 7
16.266001 -2.2850001 -1.643 9
9.7370005 -1.409 -1.753 12
10.541 -1.529 -1.7359999 12
11.49 -1.67 -1.7180001 13
12.618 -1.839 -1.697 13
13.951 -2.039 -1.668 10
15.735 -2.3080001 -1.648 9
9.5640001 -1.4450001 -1.7589999 12
10.331 -1.563 -1.7410001 12
11.238 -1.704 -1.724 12
12.311 -1.872 -1.7029999 13
13.626 -2.0769999 -1.6799999 11
15.307 -2.342 -1.661 10
9.3839998 -1.478 -1.761 12
10.124 -1.597 -1.745 12
11.008 -1.739 -1.729 13
12.044 -1.908 -1.71 12
13.291 -2.1099999 -1.687 12
14.885 -2.3699999 -1.669 8
9.2329998 -1.5140001 -1.767 13
9.9390001 -1.632 -1.749 11
10.795 -1.775 -1.735 13
11.793 -1.944 -1.717 13
12.971 -2.1440001 -1.694 13
14.439 -2.392 -1.67 7
9.0760002 -1.548 -1.771 12
9.7580004 -1.666 -1.753 12
10.591 -1.811 -1.74 13
11.539 -1.977 -1.72 13
12.678 -2.177 -1.699 13
14.053 -2.4200001 -1.673 9
8.9320002 -1.582 -1.775 12
9.5889997 -1.701 -1.757 12
10.394 -1.846 -1.744 12
11.32 -2.0139999 -1.727 13
12.414 -2.214 -1.706 13
13.722 -2.4519999 -1.6799999 11
8.8009996 -1.618 -1.779 12
9.4359999 -1.737 -1.761 12
10.217 -1.883 -1.749 12
11.113 -2.0510001 -1.732 13
12.181 -2.253 -1.714 13
13.449 -2.493 -1.691 11
8.6700001 -1.653 -1.7819999 12
9.2919998 -1.772 -1.765 13
10.035 -1.916 -1.751 13
10.909 -2.086 -1.7359999 13
11.941 -2.2869999 -1.7180001 12
13.186 -2.5309999 -1.699 12
8.5509996 -1.688 -1.786 12
9.1540003 -1.808 -1.768 12
9.8780003 -1.9529999 -1.755 13
10.739 -2.1259999 -1.743 13
11.734 -2.3269999 -1.726 12
12.899 -2.5639999 -1.702 13
8.4300003 -1.722 -1.788 12
9.0229998 -1.844 -1.772 12
9.7309999 -1.9910001 -1.76 13
10.551 -2.161 -1.745 13
11.53 -2.3659999 -1.7309999 13
12.65 -2.6010001 -1.707 13
8.3280001 -1.76 -1.793 12
8.9069996 -1.883 -1.777 12
9.5970001 -2.03 -1.765 14
10.387 -2.2 -1.75 13
11.34 -2.405 -1.7359999 13
12.442 -2.6429999 -1.716 14
8.2200003 -1.795 -1.795 12
8.7869997 -1.919 -1.78 12
9.4580002 -2.0669999 -1.767 13
10.226 -2.237 -1.752 12
11.15 -2.4430001 -1.739 13
12.237 -2.6849999 -1.722 13
8.1239996 -1.832 -1.799 12
8.6820002 -1.9579999 -1.784 12
9.3319998 -2.105 -1.771 13
10.09 -2.2780001 -1.757 13
10.993 -2.4849999 -1.745 13
12.031 -2.724 -1.726 12
8.033 -1.869 -1.802 11
8.5710001 -1.995 -1.786 12
9.2080002 -2.1429999 -1.773 13
9.9560003 -2.319 -1.761 13
10.814 -2.5209999 -1.745 13
11.841 -2.7650001 -1.73 13
7.9580002 -1.909 -1.808 12
8.4799995 -2.0339999 -1.79 12
9.1020002 -2.1830001 -1.778 13
9.8140001 -2.3559999 -1.762 13
10.68 -2.566 -1.752 13
11.684 -2.812 -1.7359999 12
7.8740001 -1.946 -1.8099999 12
8.3690004 -2.0680001 -1.789 11
9.0039997 -2.2249999 -1.7819999 13
9.7010002 -2.3989999 -1.767 14
10.53 -2.6059999 -1.7539999 13
11.508 -2.8510001 -1.738 13
7.79 -1.982 -1.812 11
8.283 -2.1070001 -1.7920001 11
8.9040003 -2.2650001 -1.785 13
9.5909996 -2.441 -1.77 13
10.399 -2.648 -1.756 12
11.366 -2.898 -1.743 13
7.7179999 -2.0209999 -1.8150001 11
8.1990004 -2.1459999 -1.795 12
8.8079996 -2.3050001 -1.7869999 12
9.4840002 -2.4820001 -1.773 13
10.286 -2.6949999 -1.761 12
11.211 -2.9400001 -1.745 13
7.652 -2.0610001 -1.818 11
8.1260004 -2.187 -1.799 12
8.7299995 -2.349 -1.7920001 13
9.3920002 -2.5280001 -1.778 13
10.174 -2.74 -1.765 13
11.096 -2.9909999 -1.751 13
7.5840001 -2.099 -1.8200001 11
8.052 -2.227 -1.801 11
8.6420002 -2.3889999 -1.793 12
9.3030005 -2.572 -1.781 12
10.073 -2.786 -1.7690001 13
10.967 -3.036 -1.753 12
7.4829998 -2.1270001 -1.813 12
7.9879999 -2.2690001 -1.804 12
8.5649996 -2.4319999 -1.795 12
9.2110004 -2.615 -1.783 13
9.9759998 -2.8329999 -1.772 13
10.849 -3.0840001 -1.756 13
7.4239998 -2.1670001 -1.8150001 13
7.921 -2.309 -1.806 11
8.4910002 -2.474 -1.7970001 12
9.1239996 -2.658 -1.784 13
9.8719997 -2.8770001 -1.773 13
10.744 -3.1340001 -1.76 13
7.3649998 -2.2049999 -1.816 12
7.869 -2.3540001 -1.8099999 12
8.4239998 -2.5179999 -1.8 12
9.0600004 -2.7079999 -1.789 13
9.7819996 -2.925 -1.775 13
10.656 -3.188 -1.765 13
7.316 -2.247 -1.819 12
7.8099999 -2.3959999 -1.812 11
8.3559999 -2.5610001 -1.801 12
8.9770002 -2.7509999 -1.789 13
9.7010002 -2.974 -1.777 13
10.549 -3.2360001 -1.7640001 13
7.2709999 -2.289 -1.822 12
7.7529998 -2.438 -1.814 11
8.2989998 -2.6070001 -1.804 12
8.9180002 -2.8010001 -1.793 13
9.632 -3.0250001 -1.781 13
10.478 -3.2920001 -1.7690001 13
7.2589998 -2.3410001 -1.8329999 10
7.723 -2.487 -1.8200001 12
8.2410002 -2.652 -1.8049999 12
8.8669996 -2.8529999 -1.7970001 13
9.5629997 -3.0769999 -1.783 13
10.391 -3.3440001 -1.77 13
7.1789999 -2.3710001 -1.825 12
7.6539998 -2.5239999 -1.817 11
8.1999998 -2.701 -1.8099999 13
8.7980003 -2.8970001 -1.7970001 12
9.4960003 -3.1270001 -1.784 13
10.313 -3.3970001 -1.771 12
7.1300001 -2.4100001 -1.825 12
7.6240001 -2.573 -1.822 12
8.151 -2.7490001 -1.811 13
8.7539997 -2.95 -1.8 13
9.4440002 -3.1819999 -1.788 12
10.263 -3.46 -1.776 13
7.1059999 -2.4579999 -1.83 12
7.5739999 -2.615 -1.821 11
8.1129999 -2.7980001 -1.814 13
8.6879997 -2.9949999 -1.798 13
9.3929996 -3.237 -1.79 12
10.202 -3.517 -1.778 14
7.0669999 -2.5 -1.831 13
7.5479999 -2.665 -1.826 12
8.059 -2.8429999 -1.813 12
8.6700001 -3.0550001 -1.806 12
9.3479996 -3.2939999 -1.7920001 12
10.147 -3.575 -1.78 13
7.0339999 -2.543 -1.832 12
7.5120001 -2.711 -1.827 12
8.0319996 -2.895 -1.817 13
8.6140003 -3.102 -1.804 12
9.3109999 -3.352 -1.796 12
10.094 -3.6340001 -1.781 13
7.0029998 -2.5869999 -1.8329999 12
7.4650002 -2.753 -1.825 11
7.9809999 -2.9389999 -1.8150001 12
8.5869999 -3.1589999 -1.808 13
9.2679996 -3.408 -1.796 12
10.05 -3.6960001 -1.7819999 13
6.974 -2.631 -1.834 13
7.4580002 -2.8080001 -1.831 11
7.9549999 -2.9909999 -1.817 12
8.5539999 -3.214 -1.809 12
9.2329998 -3.4660001 -1.798 12
10.024 -3.7639999 -1.786 13
6.9489999 -2.677 -1.835 12
7.4190001 -2.852 -1.83 11
7.9310002 -3.0439999 -1.819 12
8.5279999 -3.27 -1.811 13
9.2089996 -3.53 -1.8 12
9.9870005 -3.8269999 -1.7869999 14
6.9299998 -2.724 -1.837 11
7.4070001 -2.9059999 -1.834 12
7.908 -3.098 -1.821 12
8.5019999 -3.3269999 -1.812 13
9.1829996 -3.5910001 -1.802 12
9.9540005 -3.892 -1.7869999 13
6.915 -2.773 -1.839 12
7.3460002 -2.9400001 -1.825 13
7.8909998 -3.1530001 -1.823 12
8.4759998 -3.3829999 -1.812 12
9.1560001 -3.652 -1.802 12
9.9420004 -3.964 -1.79 14
6.901 -2.822 -1.841 12
7.3660002 -3.006 -1.835 11
7.875 -3.2079999 -1.825 12
8.46 -3.4419999 -1.814 13
9.1409998 -3.7160001 -1.804 13
9.9239998 -4.0339999 -1.791 14
6.882 -2.869 -1.841 13
7.342 -3.0550001 -1.834 11
7.8610001 -3.2650001 -1.826 12
8.4549999 -3.507 -1.817 12
9.1350002 -3.786 -1.807 13
9.9029999 -4.1030002 -1.791 13
6.8709998 -2.9200001 -1.8430001 13
7.3340001 -3.109 -1.836 11
7.8559999 -3.325 -1.8279999 12
8.4469995 -3.5699999 -1.819 12
9.1300001 -3.855 -1.809 13
9.9029999 -4.1799998 -1.793 13
6.8670001 -2.973 -1.846 12
7.3239999 -3.164 -1.837 11
7.8470001 -3.3829999 -1.829 12
8.4429998 -3.6340001 -1.8200001 12
9.1280003 -3.925 -1.8099999 12
9.9029999 -4.257 -1.795 13
6.8590002 -3.0239999 -1.847 12
7.2930002 -3.207 -1.832 13
7.8410001 -3.441 -1.83 12
8.441 -3.6989999 -1.822 12
9.132 -3.9979999 -1.812 13
9.9049997 -4.335 -1.795 13
6.8720002 -3.0840001 -1.853 10
7.3270001 -3.28 -1.842 12
7.8369999 -3.5009999 -1.83 11
8.4449997 -3.767 -1.823 12
9.118 -4.0630002 -1.8099999 13
9.9189997 -4.4169998 -1.798 12
6.849 -3.128 -1.848 12
7.3130002 -3.3310001 -1.84 11
7.8449998 -3.566 -1.8329999 12
8.4849997 -3.8510001 -1.832 15
9.1309996 -4.1399999 -1.812 13
9.934 -4.5009999 -1.798 12
6.842 -3.1789999 -1.848 12
7.302 -3.3840001 -1.8380001 11
7.8460002 -3.6270001 -1.8329999 11
8.4630003 -3.9059999 -1.827 13
9.1429996 -4.2150002 -1.812 13
9.9560003 -4.5869999 -1.8 13
6.8379998 -3.2309999 -1.847 12
7.3119998 -3.4449999 -1.84 11
7.8590002 -3.694 -1.835 12
8.4820004 -3.9790001 -1.829 13
9.1619997 -4.2930002 -1.814 13
9.9820004 -4.6739998 -1.801 12
6.836 -3.2820001 -1.846 13
7.3299999 -3.51 -1.844 11
7.8769999 -3.763 -1.8380001 11
8.493 -4.0500002 -1.829 13
9.1750002 -4.369 -1.813 13
10.018 -4.7680001 -1.803 12
6.835 -3.336 -1.845 13
7.3260002 -3.5650001 -1.842 11
7.8990002 -3.835 -1.841 12
8.5129995 -4.125 -1.83 13
9.2019997 -4.4530001 -1.814 12
10.041 -4.8559999 -1.802 12
6.8449998 -3.3940001 -1.846 12
7.3569999 -3.6370001 -1.847 12
7.921 -3.9059999 -1.8430001 12
8.5299997 -4.198 -1.83 13
9.2340002 -4.539 -1.8150001 12
10.082 -4.9510002 -1.803 12
6.8649998 -3.457 -1.849 12
7.3660002 -3.697 -1.846 11
7.9330001 -3.9719999 -1.842 12
8.5539999 -4.2750001 -1.83 13
9.2700005 -4.625 -1.816 13
10.136 -5.053 -1.8049999 11
6.8800001 -3.517 -1.85 12
7.3899999 -3.7650001 -1.848 11
7.961 -4.0450001 -1.8430001 12
8.5810003 -4.3520002 -1.83 13
9.3050003 -4.7119999 -1.816 12
10.181 -5.151 -1.8049999 11
6.9229999 -3.5910001 -1.858 11
7.4130001 -3.8329999 -1.85 11
7.9780002 -4.1139998 -1.842 12
8.6049995 -4.4289999 -1.8279999 13
9.3479996 -4.8039999 -1.816 11
10.243 -5.2579999 -1.806 12
6.9510002 -3.658 -1.8609999 11
7.4450002 -3.9059999 -1.852 11
8.0100002 -4.191 -1.8430001 12
8.632 -4.506 -1.826 13
9.4090004 -4.9039998 -1.818 12
10.305 -5.3660002 -1.806 11
6.9720001 -3.7219999 -1.862 11
7.48 -3.98 -1.855 11
8.0509996 -4.2719998 -1.845 12
8.6730003 -4.592 -1.826 13
9.4530001 -4.9970002 -1.817 12
10.39 -5.487 -1.809 11
6.994 -3.786 -1.862 11
7.5100002 -4.0510001 -1.855 12
8.0790005 -4.3460002 -1.8430001 12
8.7220001 -4.6810002 -1.827 13
9.5159998 -5.098 -1.818 12
10.478 -5.6069999 -1.811 11
7.0180001 -3.8499999 -1.862 11
7.5469999 -4.125 -1.857 12
8.1190004 -4.4260001 -1.844 12
8.776 -4.7729998 -1.8279999 13
9.5819998 -5.2030001 -1.818 12
10.556 -5.724 -1.8099999 11
7.0650001 -3.927 -1.8660001 11
7.5830002 -4.1999998 -1.857 12
8.1610003 -4.507 -1.8430001 12
8.8290005 -4.8639998 -1.827 12
9.6660004 -5.3150001 -1.821 11
10.643 -5.8460002 -1.8099999 11
7.0949998 -3.994 -1.867 11
7.6220002 -4.2750001 -1.857 12
8.1969995 -4.5830002 -1.841 12
8.8959999 -4.9619999 -1.829 13
9.7419996 -5.4239998 -1.821 11
10.735 -5.9689999 -1.809 11
7.1370001 -4.0669999 -1.868 11
7.6609998 -4.3499999 -1.8559999 12
8.2349997 -4.6609998 -1.837 13
8.9639997 -5.0609999 -1.83 12
9.816 -5.5320001 -1.8200001 12
10.831 -6.0960002 -1.808 10
7.1820002 -4.1430001 -1.8710001 11
7.7080002 -4.4299998 -1.857 12
8.3039999 -4.7579999 -1.84 12
9.033 -5.1620002 -1.83 12
9.9160004 -5.6560001 -1.822 12
10.955 -6.2399998 -1.8099999 11
7.2160001 -4.2119999 -1.869 11
7.7540002 -4.5089998 -1.8559999 13
8.3610001 -4.8460002 -1.839 12
9.1070004 -5.2649999 -1.829 12
10.011 -5.776 -1.822 11
11.086 -6.3870001 -1.811 10
7.2589998 -4.2859998 -1.869 11
7.7969999 -4.585 -1.854 12
8.4250002 -4.9380002 -1.839 12
9.1789999 -5.3660002 -1.8279999 12
10.11 -5.8990002 -1.821 11
11.221 -6.5370002 -1.811 10
7.3039999 -4.3600001 -1.868 11
7.8520002 -4.6690001 -1.853 12
8.4969997 -5.0359998 -1.84 12
9.2889996 -5.4899998 -1.832 12
10.21 -6.0219998 -1.8200001 11
11.372 -6.697 -1.813 10
7.349 -4.4349999 -1.867 11
7.908 -4.7519999 -1.852 12
8.573 -5.1350002 -1.84 13
9.3730001 -5.599 -1.83 13
10.331 -6.158 -1.8200001 10
11.548 -6.8730001 -1.816 9
7.4109998 -4.5190001 -1.869 11
7.9660001 -4.8369999 -1.85 12
8.6479998 -5.2340002 -1.8380001 12
9.4799995 -5.7210002 -1.832 12
10.446 -6.29 -1.818 10
11.715 -7.0430002 -1.816 9
7.4710002 -4.6009998 -1.87 12
8.0299997 -4.9250002 -1.849 12
8.7379999 -5.3410001 -1.839 12
9.5769997 -5.836 -1.829 11
10.571 -6.428 -1.816 9
11.896 -7.2220001 -1.817 9
7.5289998 -4.6810002 -1.868 12
8.1059999 -5.02 -1.849 12
8.8280001 -5.447 -1.839 12
9.6929998 -5.9640002 -1.83 12
10.747 -6.5970001 -1.821 10
12.105 -7.4190001 -1.8200001 9
7.5890002 -4.763 -1.867 12
8.1719999 -5.1079998 -1.846 12
8.9239998 -5.5570002 -1.8380001 12
9.8140001 -6.0939999 -1.829 11
10.913 -6.7600002 -1.823 9
12.312 -7.6139998 -1.821 9
7.6409998 -4.8390002 -1.863 12
8.2589998 -5.2080002 -1.847 13
9.0249996 -5.6700001 -1.8380001 12
9.9250002 -6.217 -1.826 11
11.077 -6.9219999 -1.822 9
12.53 -7.8169999 -1.821 9
7.7129998 -4.9260001 -1.862 12
8.3389997 -5.303 -1.844 12
9.1420002 -5.7930002 -1.839 12
10.061 -6.355 -1.826 10
11.265 -7.099 -1.824 9
12.775 -8.0369997 -1.823 8
7.7930002 -5.0190001 -1.862 13
8.4300003 -5.4050002 -1.8430001 12
9.2650003 -5.9180002 -1.84 12
10.187 -6.4879999 -1.822 10
11.461 -7.2810001 -1.826 9
13.015 -8.2530003 -1.821 8
7.8610001 -5.1020002 -1.858 12
8.5430002 -5.52 -1.846 12
9.3839998 -6.0409999 -1.839 13
10.371 -6.6550002 -1.827 9
11.68 -7.4770002 -1.8279999 10
13.278 -8.4849997 -1.8200001 9
7.954 -5.2020001 -1.859 11
8.6429996 -5.6269999 -1.8430001 12
9.5080004 -6.1669998 -1.837 12
10.562 -6.829 -1.831 10
11.898 -7.6729999 -1.8279999 8
13.534 -8.7130003 -1.816 9
8.0480003 -5.3010001 -1.859 12
8.7580004 -5.7420001 -1.8430001 12
9.6269999 -6.2880001 -1.832 12
10.734 -6.9879999 -1.829 10
12.123 -7.8730001 -1.827 7
13.84 -8.9709997 -1.816 9
8.1370001 -5.3959999 -1.8559999 12
8.8780003 -5.8600001 -1.8430001 12
9.7580004 -6.4159999 -1.829 11
10.935 -7.1669998 -1.831 9
12.368 -8.0860004 -1.827 7
14.151 -9.2329998 -1.814 10
8.2309999 -5.4920001 -1.854 12
9.0109997 -5.9860001 -1.844 13
9.9289999 -6.5689998 -1.831 10
11.155 -7.3569999 -1.8329999 9
12.649 -8.3199997 -1.829 8
14.481 -9.507 -1.811 10
8.3400002 -5.599 -1.853 12
9.1409998 -6.1079998 -1.8430001 12
10.11 -6.7290001 -1.8329999 10
11.362 -7.5380001 -1.832 9
12.912 -8.5430002 -1.826 8
14.86 -9.8129997 -1.809 11
8.4540005 -5.7080002 -1.851 11
9.2749996 -6.2329998 -1.841 12
10.301 -6.8940001 -1.835 9
11.631 -7.7589998 -1.8380001 9
13.203 -8.7840004 -1.824 9
15.421 -10.24 -1.827 12
8.5810003 -5.8239999 -1.852 12
9.4049997 -6.3530002 -1.836 11
10.489 -7.0570002 -1.834 10
11.858 -7.9510002 -1.835 8
13.527 -9.0459995 -1.824 9
15.846 -10.576 -1.824 18
8.7130003 -5.9429998 -1.852 12
9.5430002 -6.4780002 -1.831 11
10.692 -7.2290001 -1.834 9
12.124 -8.1680002 -1.835 7
13.888 -9.3319998 -1.825 10
16.141001 -10.824 -1.802 20
8.8529997 -6.0650001 -1.852 12
9.724 -6.6300001 -1.8329999 10
10.937 -7.427 -1.8380001 9
12.409 -8.3979998 -1.834 8
14.23 -9.6040001 -1.8200001 10
17.034 -11.473 -1.841 16
8.9960003 -6.1890001 -1.851 11
9.9090004 -6.7839999 -1.8329999 10
11.164 -7.612 -1.837 10
12.683 -8.618 -1.831 8
14.623 -9.9090004 -1.818 11
17.641001 -11.929 -1.844 16
9.1400003 -6.3109999 -1.848 12
10.112 -6.948 -1.835 10
11.416 -7.8119998 -1.837 9
12.983 -8.8540001 -1.8279999 8
15.094 -10.265 -1.822 11
18.684 -12.679 -1.886 19
9.283 -6.4310002 -1.844 12
10.325 -7.118 -1.836 9
11.69 -8.026 -1.839 9
13.345 -9.1300001 -1.829 9
15.769 -10.759 -1.846 16
19.302999 -13.142 -1.876 20
9.4370003 -6.5580001 -1.839 11
10.556 -7.2989998 -1.8380001 9
11.962 -8.2370005 -1.8380001 7
13.676 -9.3839998 -1.823 10
16.094 -11.012 -1.823 27
19.584999 -13.372 -1.83 14
9.5959997 -6.6849999 -1.834 10
10.78 -7.473 -1.836 9
12.27 -8.4700003 -1.839 8
14.075 -9.6820002 -1.824 10
16.798 -11.522 -1.84 17
19.839001 -13.579 -1.778 20
9.8190002 -6.855 -1.839 9
11.04 -7.6700001 -1.839 10
12.556 -8.6859999 -1.8329999 8
14.454 -9.9630003 -1.818 11
17.572001 -12.078 -1.857 16
20.496 -14.057 -1.757 9
10.043 -7.0240002 -1.842 10
11.305 -7.8670001 -1.839 9
12.885 -8.9289999 -1.831 9
14.918 -10.301 -1.818 11
18.183001 -12.519 -1.85 19
21.523001 -14.787 -1.76 6
10.265 -7.1890001 -1.842 9
11.58 -8.0699997 -1.8380001 8
13.228 -9.1789999 -1.8279999 9
15.651 -10.822 -1.845 14
19.261999 -13.28 -1.8839999 20
23.377001 -16.082001 -1.8200001 25
10.501 -7.362 -1.8430001 9
11.877 -8.2849998 -1.8380001 7
13.642 -9.4750004 -1.831 10
16.122999 -11.159 -1.837 28
19.599001 -13.525 -1.8380001 17
23.936001 -16.482 -1.7690001 30
10.756 -7.5450001 -1.844 9
12.193 -8.5100002 -1.837 8
14.037 -9.7550001 -1.827 10
16.77 -11.613 -1.8430001 18
19.839001 -13.699 -1.781 18
24.266001 -16.719 -1.694 32
11.038 -7.744 -1.847 9
12.495 -8.7229996 -1.832 8
14.503 -10.081 -1.829 11
17.552999 -12.158 -1.858 17
20.496 -14.155 -1.757 9
24.792 -17.084 -1.63 24
11.311 -7.9349999 -1.845 9
12.838 -8.9610004 -1.829 8
14.93 -10.377 -1.821 12
18.24 -12.631 -1.855 19
21.563999 -14.89 -1.7589999 7
25.087 -17.283001 -1.548 10
11.601 -8.1330004 -1.8430001 9
13.205 -9.2119999 -1.825 9
15.602 -10.837 -1.8380001 15
19.361 -13.4 -1.888 20
23.516001 -16.228001 -1.823 28
25.09 -17.275 -1.444 13
11.93 -8.3559999 -1.845 7
13.639 -9.5059996 -1.8279999 10
16.139999 -11.2 -1.834 27
19.625999 -13.571 -1.832 17
24.01 -16.552999 -1.7589999 31
25.097 -17.263 -1.3380001 16
12.26 -8.5760002 -1.8430001 8
14.049 -9.7790003 -1.823 10
16.860001 -11.685 -1.845 18
19.955999 -13.78 -1.78 15
24.347 -16.763 -1.683 32
25.104 -17.246 -1.2359999 17
12.578 -8.783 -1.837 8
14.548 -10.109 -1.825 11
17.625999 -12.195 -1.852 22
20.676001 -14.253 -1.756 7
24.965 -17.159 -1.619 27
25.083 -17.202 -1.1289999 17
12.953 -9.026 -1.836 9
15.002 -10.402 -1.818 12
18.587999 -12.833 -1.874 19
0 0 0 0
25.093 -17.211 -1.523 17
25.132999 -17.200001 -1.025 20
13.346 -9.2770004 -1.8329999 9
15.756 -10.898 -1.841 16
19.459 -13.402 -1.8789999 19
23.629 -16.215 -1.806 29
25.108999 -17.18 -1.418 22
25.156 -17.174 -0.921 20
13.795 -9.5620003 -1.834 10
16.181 -11.16 -1.821 27
19.646999 -13.493 -1.812 19
24.077999 -16.476999 -1.737 31
25.152 -17.162001 -1.313 23
25.195 -17.152 -0.815 11
14.215 -9.8210001 -1.827 10
17.006001 -11.692 -1.84 18
20.115 -13.77 -1.7690001 13
24.656 -16.818001 -1.674 33
25.198999 -17.138 -1.2079999 9
0 0 0 0
14.709 -10.126 -1.825 11
17.688999 -12.117 -1.835 16
20.926001 -14.274 -1.75 7
25.295 -17.193001 -1.61 25
31.731001 -21.504 -1.388 39
57.264 -38.721001 -1.3710001 6
15.384 -10.55 -1.841 13
19.056999 -13.004 -1.8940001 19
23.122 -15.712 -1.834 15
26.712 -18.086 -1.584 18
32.625999 -22.025 -1.2869999 6
61.470001 -41.404999 -1.214 5
15.952 -10.892 -1.8380001 22
19.525999 -13.267 -1.8559999 15
23.721001 -16.049 -1.78 30
29.798 -20.089001 -1.641 40
36.428001 -24.487 -1.284 1
68.980003 -46.264999 -1.075 5
16.518 -11.226 -1.831 16
19.658001 -13.295 -1.7819999 16
24.106001 -16.235001 -1.702 31
30.577999 -20.52 -1.552 49
39.141998 -26.190001 -1.215 7
105.813 -70.639 -1.2029999 16
17.4 -11.766 -1.851 16
20.319 -13.673 -1.7539999 11
25.035999 -16.777 -1.661 35
0 0 0 0
49.694 -33.085999 -1.331 8
49.983002 -33.201 -0.36000001 18
18.259001 -12.281 -1.862 20
21.079 -14.108 -1.728 5
26.274 -17.511999 -1.63 37
26.316999 -17.479 -1.112 3
45.476002 -30.115 -1.026 21
50.074001 -33.085999 -0.15099999 17
19.063999 -12.749 -1.86 20
23.281 -15.495 -1.807 27
26.462 -17.537001 -1.528 15
33.494999 -22.120001 -1.272 6
50.153999 -33.028 -0.92299998 11
57.973999 -38.091999 0.063000001 6
19.531 -12.983 -1.821 15
23.797001 -15.741 -1.743 30
30.785999 -20.280001 -1.647 46
36.651001 -24.059 -1.239 3
0 0 0 0
55.401001 -36.181999 0.289 7
19.915001 -13.154 -1.7690001 19
24.416 -16.048 -1.682 33
31.240999 -20.450001 -1.538 50
39.452999 -25.733 -1.17 8
107.554 -69.953003 -1.0930001 38
81.600998 -52.956001 0.75300002 9
20.688999 -13.573 -1.748 10
25.171 -16.434999 -1.63 33
31.885 -20.733 -1.437 19
49.956001 -32.368999 -1.274 2
55.808998 -36.056999 -0.336 3
81.843002 -52.757999 1.095 24
21.372 -13.921 -1.7130001 2
26.530001 -17.198 -1.603 36
33.356998 -21.534 -1.3609999 6
63.898998 -41.108002 -1.3609999 4
55.790001 -35.787998 -0.104 8
59.891998 -38.335999 1.043 6
23.468 -15.173 -1.777 33
27.614 -17.768999 -1.551 24
35.889 -22.997999 -1.316 13
55.804001 -35.634998 -0.96100003 11
55.766998 -35.512001 0.116 21
56.799 -36.088001 1.214 2
24.009001 -15.402 -1.717 31
29.028999 -18.534 -1.507 9
38.756001 -24.645 -1.26 15
0 0 0 0
55.730999 -35.214001 0.34 17
56.700001 -35.745998 1.437 12
24.775999 -15.765 -1.666 33
31.921 -20.216999 -1.526 50
39.303001 -24.791 -1.1160001 2
82.608002 -51.925999 -0.75099999 12
55.624001 -34.867001 0.56099999 10
56.018002 -35.030998 1.64 3
25.688999 -16.208 -1.62 35
32.587002 -20.464001 -1.423 21
0 0 0 0
0 0 0 0
56.063999 -34.847 0.787 9
56.293999 -34.911999 1.867 10
26.806 -16.766001 -1.5779999 37
34.459 -21.452999 -1.363 18
0 0 0 0
55.77 -34.463001 -0.064999998 8
60.063999 -37.014 1.074 3
51.856998 -31.882999 1.913 10
27.931999 -17.312 -1.53 27
34.407001 -21.226999 -1.223 3
56.076 -34.456001 -0.91799998 17
56.058998 -34.327999 0.152 22
59.791 -36.513 1.299 9
52.144001 -31.771999 2.1240001 6
25.068001 -15.391 -1.271 2
38.529999 -23.547001 -1.215 12
106.586 -64.878998 -1.327 16
56.368 -34.195999 0.368 10
59.289001 -35.868999 1.51 4
0 0 0 0
28.216999 -17.158001 -1.317 1
39.560001 -23.945999 -1.0930001 4
86.724998 -52.286999 -0.74699998 13
0 0 0 0
59.716999 -35.778 1.744 15
57.457001 -34.347 2.763 3
30.802999 -18.542999 -1.316 7
53.551998 -32.091 -1.271 5
86.597 -51.687 -0.41499999 23
82.362999 -48.995998 1.156 21
59.605 -35.353001 1.96 4
58.787998 -34.796001 3.04 13
30.987 -18.459999 -1.2029999 2
0 0 0 0
86.976997 -51.375999 -0.090000004 21
0 0 0 0
67.958 -39.896999 2.4809999 16
0 0 0 0
31.333 -18.469 -1.095 1
72.108002 -42.312 -1.1619999 9
87.152 -50.938999 0.223 13
67.889999 -39.546001 1.446 13
68.226997 -39.631001 2.73 16
59.284 -34.362 3.4779999 11
38.174999 -22.257 -1.191 9
72.195999 -41.902 -0.898 5
111.296 -64.342003 0.69599998 16
68.084999 -39.228001 1.697 12
68.746002 -39.495998 2.9909999 33
0 0 0 0
40.015999 -23.065001 -1.096 1
0 0 0 0
0 0 0 0
68.334 -38.928001 1.942 16
69.004997 -39.202999 3.24 12
0 0 0 0
53.307999 -30.372 -1.268 8
0 0 0 0
0 0 0 0
69.162003 -38.943001 2.2030001 12
0 0 0 0
53.313 -29.870001 3.668 28
53.564999 -30.153999 -1.081 7
0 0 0 0
0 0 0 0
0 0 0 0
53.437 -29.65 2.8640001 6
20.205 -11.186 1.455 31
53.655998 -29.84 -0.89300001 2
0 0 0 0
0 0 0 0
20.201 -11.103 0.77600002 18
20.176001 -11.059 1.145 49
20.238001 -11.068 1.52 40
53.844002 -29.572001 -0.71200001 33
20.195 -11.042 0.102 40
20.174999 -10.988 0.472 65
20.110001 -10.917 0.83700001 57
20.171 -10.919 1.2079999 46
43.834999 -23.677 3.428 35
20.158001 -10.928 -0.198 62
20.193001 -10.9 0.168 66
20.229 -10.878 0.53600001 56
20.278999 -10.868 0.90700001 45
20.257 -10.827 1.275 17
53.643002 -28.604 4.3540001 19
20.236 -10.829 -0.133 62
20.368999 -10.852 0.235 22
61.591 -32.688999 1.83 29
44.106998 -23.329 2.108 45
0 0 0 0
0 0 0 0
44.558998 -23.525 -0.149 1
44.491001 -23.388 0.65200001 10
44.344002 -23.219999 1.451 61
44.303001 -23.121 2.25 16
44.452 -23.132999 3.0610001 16
44.161999 -22.931999 3.8369999 35
44.476002 -23.16 -0.011 69
44.551998 -23.097 0.78899997 36
44.584999 -23.025 1.592 35
30.049999 -15.468 1.612 21
44.498001 -22.841 3.188 23
53.766998 -27.537001 4.8179998 50
74.660004 -38.335999 0.20900001 17
61.445999 -31.416 1.27 31
61.632999 -31.389 2.378 26
30.204 -15.332 1.705 3
54.880001 -27.780001 4.0809999 5
44.022999 -22.231001 4.0609999 35
73.766998 -37.342999 0.42399999 44
61.127998 -30.806 1.438 6
30.565001 -15.344 1.2640001 23
31.809 -15.915 1.883 5
62.095001 -30.982 4.7810001 44
44.241001 -22.023001 4.197 5
66.870003 -33.356998 0.57499999 5
31.080999 -15.435 0.81999999 16
30.517 -15.096 1.344 41
31.818001 -15.688 1.9680001 3
30.364 -14.927 2.4159999 1
52.700001 -25.849001 5.1300001 4
73.346001 -36.036999 0.83700001 34
31.365999 -15.345 0.91000003 16
30.823999 -15.021 1.439 38
30.584 -14.854 1.969 28
30.382 -14.714 2.494 1
0 0 0 0
74.616997 -36.098999 1.054 22
31.101999 -14.981 0.986 44
30.827999 -14.791 1.52 41
30.671 -14.666 2.052 37
30.687 -14.63 2.5929999 31
30.719 -14.61 3.138 7
31.379999 -14.943 0.52600002 34
31.190001 -14.787 1.068 43
30.870001 -14.578 1.598 58
30.672001 -14.436 2.125 54
30.586 -14.355 2.655 40
30.327999 -14.2 3.1670001 36
31.424 -14.724 0.60600001 27
31.316 -14.609 1.149 43
30.777 -14.303 1.665 47
30.836 -14.282 2.207 27
30.649 -14.154 2.7290001 49
30.492001 -14.045 3.2509999 50
67.366997 -31.049999 1.464 10
31.427999 -14.421 1.228 43
31.164 -14.246 1.757 43
31.103001 -14.169 2.2950001 41
30.791 -13.986 2.8080001 14
30.521999 -13.831 3.3150001 22
66.499001 -30.145 1.603 9
30.834 -13.915 1.275 24
31.125 -13.992 1.825 43
31.51 -14.115 2.392 42
31.716 -14.166 2.9560001 5
30.739 -13.698 3.3989999 1
68.746002 -30.636 1.8099999 11
30.952999 -13.733 1.346 30
31.924999 -14.108 1.938 15
31.725 -13.973 2.4719999 40
31.642 -13.895 3.0120001 26
31.351 -13.734 3.526 20
90.627998 -39.694 2.5829999 13
30.99 -13.513 1.413 7
67.683998 -29.393999 4.243 16
31.965 -13.835 2.552 19
31.646999 -13.656 3.0710001 42
31.503 -13.559 3.5999999 22
89.945 -38.695999 2.7490001 22
66.196999 -28.353001 3.1500001 24
65.954002 -28.139 4.2620001 34
65.914001 -28.024 5.3860002 37
31.844 -13.499 3.1470001 38
47.141998 -19.931999 5.4689999 40
89.288002 -37.728001 2.8989999 39
65.518997 -27.561001 3.2379999 39
65.703003 -27.528 4.3629999 35
66.035004 -27.572001 5.5079999 40
66.749001 -27.785 6.7069998 36
47.182999 -19.589001 5.5489998 21
89.283997 -37.034 3.0699999 20
65.931 -27.224001 3.3800001 36
65.763 -27.046 4.4790001 38
66.112 -27.093 5.6240001 31
66.549004 -27.187 6.7930002 34
68.736 -28.009001 8.1859999 7
69.394997 -28.246 2.507 5
66.780998 -27.059 3.5350001 6
65.903999 -26.599001 4.5970001 21
66.224998 -26.632 5.7379999 30
66.699997 -26.742001 6.9070001 35
0 0 0 0
69.657997 -27.812 2.631 33
66.648003 -26.485001 3.6340001 10
21.066 -8.3380003 1.501 0
20.881001 -8.2349997 1.839 73
20.896999 -8.2159996 2.1930001 101
20.895 -8.1929998 2.546 94
20.879 -8.1739998 0.82099998 87
20.905001 -8.1450005 1.17 90
20.917 -8.1169996 1.52 74
20.915001 -8.0869999 1.87 28
20.764 -8.0019999 2.2060001 13
20.483 -7.8720002 2.5209999 13
43.562 -16.714001 1.778 46
20.527 -7.8390002 1.178 16
20.381001 -7.7509999 1.5089999 16
66.867996 -25.341 6.0669999 38
67.707001 -25.573 7.2729998 32
0 0 0 0
42.835999 -16.101999 1.806 65
43.667999 -16.341 2.562 19
67.294998 -25.080999 5.0619998 22
67.622002 -25.108 6.211 32
68.32 -25.283001 7.414 35
0 0 0 0
42.778 -15.751 1.858 50
43.214001 -15.838 2.5880001 3
67.656998 -24.691 5.1690001 14
67.695 -24.614 6.2909999 32
69.614998 -25.226999 7.6259999 15
0 0 0 0
43.131001 -15.543 1.923 58
43.172001 -15.487 2.632 6
68.752998 -24.559 5.322 32
68.073997 -24.226 6.3909998 48
0 0 0 0
0 0 0 0
42.848 -15.113 1.956 48
43.494999 -15.27 2.6949999 20
68.974998 -24.111 5.4039998 37
69.150002 -24.077 6.5539999 34
0 0 0 0
0 0 0 0
43.033001 -14.843 2.0050001 52
43.443001 -14.915 2.73 46
69.859001 -23.879999 5.5300002 34
70.002998 -23.834 6.6869998 12
0 0 0 0
0 0 0 0
43.354 -14.619 2.0580001 51
43.473 -14.591 2.767 51
91.431999 -30.556 7.3049998 12
0 0 0 0
0 0 0 0
0 0 0 0
43.859001 -14.452 2.1129999 53
43.688999 -14.328 2.809 49
91.495003 -29.871 7.3660002 28
0 0 0 0
0 0 0 0
0 0 0 0
44.469002 -14.311 2.1719999 19
91.075996 -29.165001 5.914 22
91.684998 -29.231001 7.4310002 31
91.378998 -29.017 8.8850002 27
0 0 0 0
55.631001 -17.544001 7.2210002 53
90.503998 -28.431999 4.4679999 23
90.879997 -28.407 5.9419999 40
92.273003 -28.709 7.5170002 25
92.017998 -28.509001 8.9809999 27
55.337002 -17.082001 6.296 33
54.997002 -16.919001 7.152 44
0 0 0 0
92.039001 -28.056999 6.053 26
92.732002 -28.139999 7.5830002 24
92.628998 -27.988001 9.0640001 28
55.615002 -16.739 6.3400002 21
54.056999 -16.216 7.0380001 56
91.688004 -27.392 4.599 27
91.521004 -27.200001 6.046 26
92.959 -27.496 7.625 26
92.851997 -27.349001 9.1029997 14
57.599998 -16.900999 6.573 20
54.183998 -15.837 7.0570002 41
91.209 -26.549 4.5939999 29
91.564003 -26.513 6.0630002 23
0 0 0 0
0 0 0 0
56.811001 -16.237 6.4829998 18
54.306999 -15.465 7.072 19
91.291 -25.884001 4.6100001 27
92.310997 -26.033001 6.1199999 34
93.445999 -26.223 7.677 28
0 0 0 0
55.978001 -15.57 6.382 21
54.493999 -15.101 7.0879998 25
92.314003 -25.465 4.6630001 22
92.855003 -25.476 6.152 20
0 0 0 0
0 0 0 0
55.479 -15.013 6.316 22
54.402 -14.668 7.0640001 5
94.224998 -25.280001 4.7529998 12
0 0 0 0
0 0 0 0
55.778 -14.737 5.447 5
57.375999 -15.093 6.5149999 17
0 0 0 0
0 0 0 0
0 0 0 0
56.268002 -14.512 4.5900002 33
57.513 -14.761 5.599 23
53.249001 -13.608 6.026 10
52.919998 -13.467 6.829 5
0 0 0 0
56.490002 -14.22 3.701 21
57.542 -14.408 4.6700001 12
0 0 0 0
0 0 0 0
52.875999 -13.061 6.796 38
0 0 0 0
58.061001 -14.183 3.7780001 23
58.341 -14.168 4.7059999 22
0 0 0 0
53.054001 -12.761 5.9460001 5
53.334999 -12.771 6.8200002 7
56.855 -13.538 2.7869999 38
0 0 0 0
0 0 0 0
0 0 0 0
57.710999 -13.452 6.4260001 28
53.176998 -12.342 6.7589998 9
56.736 -13.09 2.744 63
56.594002 -12.978 3.612 7
56.311001 -12.842 4.4679999 38
55.194 -12.52 5.2399998 71
57.970001 -13.087 6.4099998 45
42.681 -9.5909996 5.3899999 3
56.847 -12.696 2.71 23
56.615002 -12.566 3.5710001 43
56.094002 -12.375 4.4050002 20
55.417 -12.161 5.2129998 19
0 0 0 0
42.393002 -9.2119999 5.3130002 14
57.715 -12.461 2.7019999 42
58.056 -12.455 3.6110001 25
57.098 -12.179 4.4320002 51
57.043999 -12.102 5.3119998 26
58.383999 -12.32 6.3460002 41
42.203999 -8.8620005 5.2470002 8
57.153 -11.925 2.6229999 50
56.924 -11.798 3.484 5
56.348 -11.609 4.316 35
0 0 0 0
69.441002 -14.146 7.4710002 3
42.714001 -8.6569996 5.2610002 8
57.816002 -11.637 2.5929999 24
58.445999 -11.689 3.5150001 3
56.151001 -11.157 4.237 45
55.798 -11.02 5.0710001 4
44.327 -8.7069998 4.7150002 7
43.203999 -8.4420004 5.2670002 30
22.858999 -4.4349999 0.99800003 16
69.209999 -13.336 4.079 9
58.675999 -11.235 4.3569999 58
56.888 -10.826 5.099 3
22.834999 -4.3210001 2.3989999 12
22.766001 -4.2839999 2.7449999 34
22.858 -4.27 0.97000003 45
22.858 -4.2410002 1.318 51
22.832001 -4.2069998 1.665 44
22.83 -4.1799998 2.0150001 52
22.819 -4.1539998 2.365 36
22.843 -4.1350002 2.721 2
22.987 -4.1300001 0.94400001 7
57.348999 -10.23 3.2260001 71
69.998001 -12.403 5.0050001 9
67.759003 -11.927 5.8829999 21
69.210999 -12.107 7.073 10
53.325001 -9.2729998 6.2719998 23
81.293999 -14.029 3.22 63
69.664001 -11.93 3.813 31
57.497002 -9.7779999 4.0219998 52
57.431 -9.7010002 4.895 41
69.912003 -11.732 7.0310001 16
54.021999 -9.0129995 6.2649999 25
28.504 -4.7160001 1.0829999 1
47.713001 -7.836 2.536 12
70.227997 -11.449 4.7989998 19
67.185997 -10.876 5.6160002 8
57.285999 -9.2110004 5.665 11
43.764 -6.9920001 4.9990001 3
28.98 -4.5900002 1.052 8
48.146 -7.566 2.4760001 32
70.281998 -10.96 4.6799998 15
69.996002 -10.838 5.7259998 11
0 0 0 0
43.883999 -6.704 4.9330001 11
28.718 -4.349 0.99199998 15
48.131001 -7.2280002 2.3889999 79
48.408001 -7.2140002 3.135 9
68.559998 -10.143 5.4819999 27
56.861 -8.3509998 5.4130001 15
43.929001 -6.4050002 4.8530002 32
28.532 -4.1220002 0.93099999 30
28.499001 -4.0830002 1.359 8
48.404999 -6.8779998 3.04 7
68.171997 -9.6090002 5.3150001 21
44.127998 -6.1729999 4.112 9
47.612999 -6.6139998 5.164 8
28.469 -3.9170001 0.87300003 35
47.881001 -6.5310001 2.188 40
48.941002 -6.6199999 2.9749999 32
68.446999 -9.1820002 5.197 11
44.360001 -5.9029999 4.0419998 6
47.893002 -6.3249998 5.092 4
28.493999 -3.7260001 0.81400001 29
28.725 -3.721 1.251 5
28.476999 -3.6570001 1.669 2
44.338001 -5.645 3.2690001 29
68.959999 -8.7060003 6.131 11
45.853001 -5.7420001 4.7740002 14
28.830999 -3.572 0.759 25
29.341999 -3.6010001 1.212 2
28.698 -3.4890001 1.617 3
70.593002 -8.5050001 5.0440001 15
45.123001 -5.388 3.9070001 3
69.278999 -8.2019997 7.0500002 14
28.466999 -3.332 0.68300003 31
28.798 -3.3369999 1.122 21
44.407001 -5.0970001 2.3970001 46
70.775002 -8.0459995 4.8870001 17
44.981998 -5.066 3.786 13
70.681999 -7.8930001 7.0209999 8
28.919001 -3.1919999 0.625 20
28.250999 -3.085 1.0319999 10
44.493 -4.809 2.293 22
68.250999 -7.3049998 4.5450001 6
44.757999 -4.7420001 3.655 16
44.706001 -4.691 4.3270001 24
28.965 -3.003 0.55199999 23
29.250999 -3 0.99400002 6
44.495998 -4.5139999 2.1789999 36
44.240002 -4.4419999 2.832 53
44.146999 -4.388 3.4920001 41
43.958 -4.3249998 4.1409998 32
28.554001 -2.7739999 0.47 30
28.846001 -2.7690001 0.90499997 13
44.455002 -4.217 2.059 47
44.724998 -4.1960001 2.743 4
81.663002 -7.5770001 6.2379999 15
85.333 -7.8319998 7.8060002 34
28.422001 -2.573 0.389 50
28.694 -2.566 0.82099998 20
27.945999 -2.4679999 1.217 6
80.601997 -7.0359998 4.7210002 8
45.022999 -3.882 3.312 26
80.476997 -6.862 7.1350002 26
28.636999 -2.408 0.31099999 47
28.714001 -2.382 0.74000001 31
78.556 -6.4330001 3.198 56
80.122002 -6.4790001 4.4629998 45
80.115997 -6.3959999 5.6659999 31
45.277 -3.569 3.8829999 5
28.507 -2.2130001 0.226 52
28.775999 -2.2019999 0.65700001 34
28.773001 -2.1700001 1.085 6
79.607002 -5.9239998 4.1960001 43
80.216003 -5.8870001 5.4320002 33
80.641998 -5.8379998 6.6729999 25
28.584999 -2.0369999 0.14 29
28.712999 -2.0150001 0.56800002 39
28.804001 -1.99 0.99900001 26
28.66 -1.951 1.423 2
79.823997 -5.355 5.1609998 53
81.102997 -5.3600001 6.461 39
34.546001 -2.243 0.059999999 1
29.281 -1.8710001 0.48699999 19
28.490999 -1.79 0.89899999 11
82.333 -5.0890002 3.8280001 16
79.739998 -4.8509998 4.9029999 36
81.161003 -4.8569999 6.2090001 4
34.859001 -2.0480001 -0.050000001 11
0 0 0 0
80.249001 -4.5450001 2.273 6
80.846001 -4.4990001 3.4990001 50
80.247002 -4.3850002 4.6739998 48
85.250999 -4.5749998 6.243 32
32.464001 -1.706 -0.155 38
84.633003 -4.3579998 0.852 24
55.412998 -2.796 1.383 18
80.800003 -3.994 3.223 40
80.839996 -3.9159999 4.434 8
83.438004 -3.957 5.8249998 30
32.153999 -1.489 -0.266 38
82.480003 -3.7349999 0.542 32
55.521 -2.457 1.192 26
67.917999 -2.937 2.4719999 14
80.010002 -3.378 4.1059999 38
82.099998 -3.3859999 5.4429998 42
31.743999 -1.276 -0.37599999 37
58.126999 -2.277 0.17399999 6
57.338001 -2.188 1.026 1
67.379997 -2.5039999 2.211 54
68.152 -2.4679999 3.257 46
81.807999 -2.8829999 5.1339998 31
31.556999 -1.0779999 -0.48899999 48
54.306999 -1.801 -0.035 2
67.498001 -2.171 0.96100003 50
67.314003 -2.1010001 1.965 67
67.716003 -2.0469999 2.9890001 51
68.818001 -2.0139999 4.0669999 3
31.297001 -0.884 -0.602 60
0 0 0 0
67.582001 -1.778 0.713 50
67.246002 -1.7029999 1.7130001 58
67.514 -1.645 2.7290001 57
68.005997 -1.589 3.7639999 19
31.018 -0.69300002 -0.71700001 57
31.721001 -0.67699999 -0.26100001 39
81.287003 -1.656 0.542 32
67.348 -1.307 1.454 65
67.639 -1.25 2.473 50
58.344002 -1.022 3.006 2
30.771 -0.50700003 -0.83399999 48
31.566 -0.49000001 -0.384 38
57.698002 -0.84299999 0.15899999 9
68.101997 -0.93000001 1.204 13
38.431999 -0.48800001 1.2539999 1
68.443001 -0.80400002 3.257 12
30.528999 -0.32800001 -0.94999999 39
30.862 -0.303 -0.49900001 42
31.305 -0.278 -0.039000001 0
83.372002 -0.65899998 1.137 5
38.514999 -0.26800001 1.101 29
69.242996 -0.419 3.017 28
29.731001 -0.152 -1.048 37
30.750999 -0.12800001 -0.625 52
0 0 0 0
81.428001 -0.186 0.778 21
38.258999 -0.050999999 0.93699998 52
38.533001 -0.014 1.5190001 2
28.695999 0.015 -1.1339999 42
30.697001 0.045000002 -0.75400001 46
31.370001 0.075000003 -0.30199999 36
57.591 0.191 0.30599999 7
38.443001 0.163 0.77899998 45
38.151001 0.19599999 1.345 15
27.931 0.17 -1.225 42
30.68 0.215 -0.88700002 45
31.188999 0.248 -0.435 37
33.664001 0.29800001 0.033 3
68.356003 0.66600001 1.0930001 39
38.452999 0.41 1.1900001 39
26.490999 0.30599999 -1.28 27
30.031 0.37400001 -1.001 41
31.082001 0.41499999 -0.56999999 41
32.722 0.46799999 -0.11 38
69.271004 1.054 0.80299997 34
57.821999 0.93199998 1.536 3
24.853001 0.42199999 -1.314 23
25.665001 0.45899999 -0.972 14
30.664 0.57499999 -0.69999999 53
32.022999 0.62900001 -0.25 42
80.518997 1.651 0.57800001 42
37.887001 0.81099999 0.83999997 25
24.476999 0.546 -1.4069999 30
25.452 0.58999997 -1.081 50
30.740999 0.74000001 -0.84299999 56
31.662001 0.78899997 -0.39199999 40
39.250999 1.013 0.102 2
37.82 1.01 0.66500002 8
23.193001 0.639 -1.442 19
25.219999 0.71700001 -1.189 38
25.652 0.75 -0.82200003 1
31.274 0.94199997 -0.53200001 36
25.649 0.79400003 -0.050000001 36
25.549 0.815 0.33199999 48
22.424 0.73400003 -1.502 24
24.798 0.833 -1.288 33
25.516001 0.87900001 -0.94 70
25.559 0.90100002 -0.55599999 81
25.525 0.92199999 -0.171 93
25.535 0.94400001 0.212 65
21.054001 0.79699999 -1.5140001 14
24.632999 0.95300001 -1.399 21
25.35 1.002 -1.057 66
25.493999 1.029 -0.67799997 99
25.527 1.052 -0.294 90
25.620001 1.0779999 0.090000004 35
