# .PCD v0.7 - Point Cloud Data file format
VERSION 0.7
FIELDS x y z intensity
SIZE 4 4 4 4
TYPE F F F F
COUNT 1 1 1 1
WIDTH 1827
HEIGHT 1
VIEWPOINT 0 0 0 1 0 0 0
POINTS 1827
DATA ascii
8.2810001 -2.3759999 -1.827 13
8.8699999 -2.5439999 -1.813 14
9.566 -2.743 -1.802 13
10.381 -2.9779999 -1.7920001 14
7.211 -2.128 -1.845 13
7.6869998 -2.2650001 -1.839 14
8.2130003 -2.418 -1.83 12
8.7840004 -2.5840001 -1.814 14
9.4799995 -2.789 -1.806 13
10.267 -3.0209999 -1.793 13
7.1430001 -2.1619999 -1.844 12
7.6170001 -2.302 -1.839 12
8.1599998 -2.4630001 -1.835 14
8.7069998 -2.6270001 -1.816 13
9.3970003 -2.835 -1.808 14
10.183 -3.072 -1.7970001 13
7.092 -2.201 -1.846 13
7.5580001 -2.342 -1.84 13
8.0950003 -2.5050001 -1.837 14
8.6400003 -2.6719999 -1.819 13
9.323 -2.8829999 -1.811 14
10.102 -3.1240001 -1.801 13
7.04 -2.2390001 -1.847 13
7.5009999 -2.382 -1.841 13
8.0419998 -2.55 -1.84 13
8.5790005 -2.7190001 -1.822 13
9.2600002 -2.9330001 -1.816 14
10.017 -3.1730001 -1.803 13
6.9959998 -2.279 -1.849 12
7.447 -2.4219999 -1.842 14
7.9809999 -2.592 -1.841 12
8.5190001 -2.7639999 -1.824 13
9.1859999 -2.9790001 -1.816 14
9.9420004 -3.224 -1.8049999 14
6.9419999 -2.3150001 -1.848 13
7.3920002 -2.46 -1.842 12
7.9250002 -2.6340001 -1.842 12
8.4799995 -2.816 -1.83 14
9.1269999 -3.03 -1.819 13
9.8710003 -3.276 -1.807 13
6.9029999 -2.3559999 -1.85 13
7.3410001 -2.5009999 -1.842 13
7.8769999 -2.6800001 -1.8430001 12
8.4069996 -2.8570001 -1.827 12
9.073 -3.0810001 -1.822 13
9.8109999 -3.332 -1.8099999 15
6.8579998 -2.395 -1.85 12
7.2969999 -2.543 -1.8430001 13
7.8369999 -2.7260001 -1.846 12
8.3739996 -2.9089999 -1.832 13
9.026 -3.1340001 -1.825 13
9.7700005 -3.392 -1.8150001 14
6.822 -2.4360001 -1.851 13
7.25 -2.582 -1.842 13
7.7930002 -2.7720001 -1.847 12
8.3299999 -2.9590001 -1.834 13
8.9799995 -3.188 -1.827 13
9.7069998 -3.4449999 -1.816 14
6.7930002 -2.4790001 -1.853 14
7.2259998 -2.631 -1.846 13
7.756 -2.819 -1.849 12
8.29 -3.0090001 -1.836 12
8.9399996 -3.243 -1.83 13
9.6630001 -3.5039999 -1.818 14
6.7519999 -2.517 -1.852 13
7.1830001 -2.6719999 -1.845 12
7.7049999 -2.8599999 -1.846 12
8.2530003 -3.0599999 -1.8380001 13
8.8990002 -3.296 -1.832 12
9.6219997 -3.563 -1.821 13
6.7290001 -2.562 -1.855 12
7.152 -2.717 -1.846 13
7.665 -2.9059999 -1.846 13
8.2270002 -3.115 -1.84 13
8.8660002 -3.3540001 -1.834 12
9.585 -3.6240001 -1.823 13
6.7080002 -2.608 -1.857 13
7.1300001 -2.7650001 -1.848 13
7.6399999 -2.957 -1.848 14
8.191 -3.165 -1.84 12
8.842 -3.4130001 -1.837 12
9.5570002 -3.687 -1.825 14
6.6630001 -2.6429999 -1.852 11
7.1059999 -2.812 -1.85 13
7.6160002 -3.007 -1.85 13
8.1750002 -3.223 -1.844 13
8.8260002 -3.4760001 -1.841 12
9.5240002 -3.7479999 -1.826 14
6.6459999 -2.6900001 -1.855 11
7.1149998 -2.872 -1.859 11
7.586 -3.0550001 -1.849 13
8.1569996 -3.28 -1.847 13
8.8009996 -3.5350001 -1.842 13
9.5039997 -3.8150001 -1.8279999 14
6.6170001 -2.7309999 -1.853 12
7.0619998 -2.9059999 -1.851 13
7.5669999 -3.1070001 -1.85 13
8.1409998 -3.3369999 -1.849 12
8.7889996 -3.598 -1.845 13
9.4870005 -3.881 -1.83 14
6.6040001 -2.777 -1.855 12
7.0479999 -2.9560001 -1.853 13
7.5619998 -3.164 -1.854 12
8.1230001 -3.3929999 -1.849 12
8.7770004 -3.6619999 -1.847 13
9.467 -3.947 -1.831 13
6.585 -2.822 -1.855 12
7.0219998 -3.0009999 -1.851 12
7.5300002 -3.21 -1.851 14
8.1070004 -3.45 -1.85 12
8.7670002 -3.7260001 -1.848 14
9.448 -4.0120001 -1.83 13
6.552 -2.8599999 -1.85 14
7.007 -3.049 -1.851 14
7.5219998 -3.2650001 -1.852 13
8.1049995 -3.5120001 -1.853 11
8.7609997 -3.7909999 -1.85 13
9.4449997 -4.0840001 -1.832 18
6.5650001 -2.918 -1.857 12
7.0029998 -3.1029999 -1.853 13
7.5229998 -3.325 -1.8559999 12
8.1059999 -3.576 -1.8559999 12
8.7620001 -3.8599999 -1.852 13
9.4370003 -4.1529999 -1.832 14
6.5479999 -2.9619999 -1.8559999 12
6.987 -3.151 -1.852 12
7.5110002 -3.3789999 -1.855 12
8.0979996 -3.635 -1.855 12
8.75 -3.9219999 -1.851 12
9.4490004 -4.2309999 -1.834 14
6.5500002 -3.0150001 -1.858 13
6.9819999 -3.204 -1.853 12
7.52 -3.4419999 -1.859 12
8.1049995 -3.7019999 -1.858 12
8.7539997 -3.9909999 -1.852 13
9.4490004 -4.3039999 -1.834 14
6.5500002 -3.0669999 -1.86 12
6.973 -3.2539999 -1.851 12
7.5120001 -3.4960001 -1.858 11
8.1090002 -3.766 -1.859 12
8.7700005 -4.066 -1.855 13
9.4619999 -4.382 -1.835 14
6.5500002 -3.118 -1.8609999 12
7.0229998 -3.3329999 -1.865 11
7.5289998 -3.563 -1.862 12
8.1090002 -3.829 -1.858 12
8.7790003 -4.138 -1.855 13
9.4779997 -4.4619999 -1.836 13
6.5440001 -3.1670001 -1.86 12
7.02 -3.385 -1.864 11
7.5300002 -3.6210001 -1.8609999 12
8.1239996 -3.8970001 -1.86 12
8.7959995 -4.2119999 -1.8559999 13
9.4989996 -4.5440001 -1.837 14
6.5570002 -3.224 -1.864 10
7.0279999 -3.444 -1.865 11
7.5479999 -3.688 -1.864 12
8.1400003 -3.9679999 -1.8609999 12
8.8109999 -4.2870002 -1.8559999 13
9.5279999 -4.6290002 -1.837 13
6.5539999 -3.273 -1.862 11
7.0370002 -3.5009999 -1.8660001 11
7.552 -3.747 -1.863 12
8.1569996 -4.0370002 -1.862 12
8.8330002 -4.3639998 -1.8559999 13
9.5600004 -4.7160001 -1.8380001 14
6.5630002 -3.3280001 -1.863 11
7.0380001 -3.556 -1.864 11
7.5700002 -3.813 -1.864 12
8.1870003 -4.1139998 -1.865 12
8.8610001 -4.4439998 -1.857 13
9.5950003 -4.8049998 -1.839 13
6.5830002 -3.3889999 -1.867 11
7.0539999 -3.6170001 -1.8660001 11
7.5890002 -3.8789999 -1.865 11
8.2019997 -4.1820002 -1.863 12
8.8870001 -4.5219998 -1.857 13
9.6269999 -4.8920002 -1.837 14
6.5890002 -3.441 -1.865 11
7.0679998 -3.677 -1.8660001 11
7.619 -3.951 -1.867 12
8.2329998 -4.2579999 -1.864 13
8.9180002 -4.6030002 -1.8559999 13
9.6829996 -4.9910002 -1.84 12
6.5970001 -3.4949999 -1.864 12
7.086 -3.7390001 -1.8660001 11
7.6389999 -4.0180001 -1.867 11
8.2600002 -4.3330002 -1.864 12
8.9519997 -4.6859999 -1.855 12
9.7309999 -5.086 -1.84 13
6.6129999 -3.553 -1.864 12
7.1160002 -3.8080001 -1.869 11
7.6680002 -4.0900002 -1.867 11
8.2969999 -4.4130001 -1.865 13
9.0080004 -4.7810001 -1.858 12
9.7980003 -5.191 -1.842 13
6.6700001 -3.632 -1.876 10
7.1389999 -3.872 -1.869 11
7.704 -4.165 -1.869 12
8.3470001 -4.4990001 -1.868 12
9.0629997 -4.875 -1.859 13
9.8540001 -5.2909999 -1.84 13
6.6810002 -3.687 -1.873 10
7.1589999 -3.934 -1.867 11
7.7389998 -4.2389998 -1.87 12
8.375 -4.5739999 -1.865 11
9.1169996 -4.9679999 -1.859 13
9.9239998 -5.3979998 -1.841 13
6.7010002 -3.7449999 -1.872 10
7.198 -4.007 -1.87 11
7.783 -4.3179998 -1.8710001 12
8.4350004 -4.665 -1.868 12
9.1660004 -5.0580001 -1.858 13
10.009 -5.5139999 -1.8430001 13
6.7399998 -3.816 -1.876 10
7.2319999 -4.0770001 -1.87 11
7.8210001 -4.3930001 -1.8710001 12
8.4829998 -4.75 -1.867 11
9.2309999 -5.1570001 -1.858 12
10.1 -5.632 -1.845 12
6.7639999 -3.8759999 -1.874 10
7.2709999 -4.1490002 -1.872 11
7.8720002 -4.4749999 -1.873 12
8.5340004 -4.836 -1.867 12
9.2969999 -5.256 -1.858 12
10.193 -5.7509999 -1.847 13
6.7979999 -3.941 -1.875 10
7.316 -4.224 -1.873 12
7.9180002 -4.5539999 -1.872 12
8.5930004 -4.927 -1.8660001 12
9.3620005 -5.355 -1.8559999 13
10.264 -5.8590002 -1.842 12
6.8400002 -4.0120001 -1.877 10
7.3579998 -4.2969999 -1.873 11
7.9689999 -4.6360002 -1.872 12
8.6569996 -5.02 -1.867 12
9.448 -5.4640002 -1.857 13
10.359 -5.98 -1.841 13
6.8649998 -4.072 -1.874 10
7.3979998 -4.368 -1.872 11
8.0209999 -4.7179999 -1.8710001 12
8.7279997 -5.1170001 -1.867 12
9.5299997 -5.573 -1.8559999 12
10.454 -6.1009998 -1.839 13
6.9229999 -4.151 -1.8789999 11
7.454 -4.4489999 -1.873 11
8.0909996 -4.8099999 -1.873 12
8.8009996 -5.2160001 -1.8660001 12
9.625 -5.6900001 -1.8559999 12
10.571 -6.2360001 -1.8380001 12
6.974 -4.2259998 -1.881 11
7.507 -4.5279999 -1.874 12
8.1529999 -4.8979998 -1.873 12
8.8889999 -5.323 -1.868 12
9.7360001 -5.8140001 -1.858 12
10.701 -6.3759999 -1.839 11
7.0040002 -4.2870002 -1.876 10
7.566 -4.6090002 -1.874 11
8.217 -4.9860001 -1.8710001 12
8.9689999 -5.4229999 -1.867 12
9.8369999 -5.9320002 -1.857 13
10.836 -6.5209999 -1.839 11
7.0580001 -4.3629999 -1.877 11
7.632 -4.6950002 -1.875 11
8.2980003 -5.0840001 -1.873 12
9.0640001 -5.5349998 -1.868 12
9.9379997 -6.0510001 -1.854 13
11.001 -6.684 -1.842 10
7.1170001 -4.441 -1.878 11
7.704 -4.7839999 -1.877 11
8.3710003 -5.177 -1.872 12
9.1440001 -5.6350002 -1.863 12
10.069 -6.1880002 -1.8559999 13
11.165 -6.8470001 -1.8430001 10
7.1750002 -4.5180001 -1.878 11
7.7709999 -4.869 -1.876 11
8.4569998 -5.277 -1.8710001 11
9.2589998 -5.7579999 -1.865 12
10.175 -6.309 -1.851 11
11.343 -7.0180001 -1.844 10
7.2350001 -4.5960002 -1.878 11
7.8429999 -4.9569998 -1.876 12
8.5380001 -5.3740001 -1.869 11
9.3970003 -5.8930001 -1.8710001 11
10.307 -6.4450002 -1.85 11
11.54 -7.1999998 -1.847 10
7.303 -4.677 -1.8789999 11
7.9239998 -5.0500002 -1.876 12
8.6450005 -5.4860001 -1.872 11
9.5129995 -6.0149999 -1.87 12
10.463 -6.5960002 -1.851 10
11.741 -7.3839998 -1.85 10
7.3800001 -4.7639999 -1.881 11
8.0030003 -5.1409998 -1.875 12
8.7480001 -5.5949998 -1.872 11
9.6350002 -6.1389999 -1.869 12
10.633 -6.7550001 -1.853 10
11.951 -7.5739999 -1.85 10
7.46 -4.8530002 -1.882 12
8.0880003 -5.2350001 -1.874 12
8.8599997 -5.7090001 -1.873 11
9.7530003 -6.2610002 -1.8660001 12
10.79 -6.9060001 -1.851 10
12.165 -7.7670002 -1.849 10
7.533 -4.9359999 -1.881 11
8.177 -5.3299999 -1.873 13
8.9779997 -5.8260002 -1.873 12
9.8859997 -6.3920002 -1.863 11
10.989 -7.0840001 -1.853 10
12.408 -7.9790001 -1.849 10
7.6209998 -5.0279999 -1.882 11
8.2889996 -5.441 -1.875 11
9.118 -5.9580002 -1.876 11
10.036 -6.533 -1.863 11
11.19 -7.2620001 -1.854 10
12.668 -8.2010002 -1.851 8
7.7129998 -5.1220002 -1.882 12
8.3909998 -5.5430002 -1.873 11
9.2609997 -6.0900002 -1.8789999 11
10.192 -6.677 -1.862 11
11.393 -7.4400001 -1.854 9
12.925 -8.4200001 -1.849 8
7.8010001 -5.2119999 -1.881 11
8.4989996 -5.6479998 -1.872 11
9.3920002 -6.2140002 -1.876 12
10.365 -6.8309999 -1.8609999 10
11.641 -7.6469998 -1.858 9
13.199 -8.6490002 -1.847 9
7.9000001 -5.3080001 -1.881 11
8.6190004 -5.7610002 -1.873 11
9.5340004 -6.3429999 -1.876 12
10.54 -6.9850001 -1.86 10
11.884 -7.8509998 -1.859 9
13.496 -8.8929996 -1.845 9
8.0030003 -5.4060001 -1.881 11
8.757 -5.8839998 -1.875 11
9.6709995 -6.4679999 -1.872 12
10.73 -7.1479998 -1.859 10
12.124 -8.0509996 -1.858 8
13.816 -9.1499996 -1.844 10
8.1149998 -5.5089998 -1.881 12
8.8950005 -6.006 -1.876 11
9.8310003 -6.6079998 -1.8710001 11
10.94 -7.3239999 -1.859 9
12.387 -8.2650003 -1.8559999 8
14.181 -9.4379997 -1.844 10
8.2259998 -5.6100001 -1.88 11
9.0480003 -6.1370001 -1.878 11
10.004 -6.7540002 -1.87 11
11.165 -7.5079999 -1.86 9
12.686 -8.5030003 -1.858 8
14.581 -9.7469997 -1.846 11
8.3540001 -5.7210002 -1.88 11
9.217 -6.2779999 -1.881 11
10.182 -6.9029999 -1.868 10
11.393 -7.6929998 -1.859 9
12.98 -8.7349997 -1.8559999 9
15.068 -10.114 -1.854 12
8.4799995 -5.829 -1.8789999 11
9.3719997 -6.408 -1.881 11
10.373 -7.059 -1.867 10
11.664 -7.9050002 -1.8609999 9
13.288 -8.9759998 -1.852 9
15.62 -10.523 -1.867 26
8.6160002 -5.9429998 -1.8789999 10
9.5220003 -6.5320001 -1.877 11
10.571 -7.217 -1.865 10
11.937 -8.1169996 -1.862 7
13.611 -9.224 -1.849 9
15.841 -10.707 -1.836 34
8.7910004 -6.0819998 -1.885 11
9.6870003 -6.665 -1.874 11
10.784 -7.3850002 -1.863 10
12.218 -8.3319998 -1.8609999 8
14.005 -9.5190001 -1.85 10
16.597 -11.25 -1.862 16
8.9390001 -6.2010002 -1.8839999 11
9.8660002 -6.8060002 -1.872 11
11.016 -7.5630002 -1.862 10
12.526 -8.5640001 -1.8609999 8
14.388 -9.8039999 -1.848 11
17.306999 -11.761 -1.876 19
9.1099997 -6.3330002 -1.885 10
10.064 -6.9580002 -1.872 10
11.288 -7.7670002 -1.865 9
12.849 -8.8039999 -1.86 8
14.856 -10.145 -1.851 11
18.087 -12.317 -1.892 21
9.2819996 -6.4650002 -1.885 10
10.253 -7.1009998 -1.867 11
11.543 -7.9559999 -1.863 9
13.156 -9.0310001 -1.855 9
15.467 -10.581 -1.868 13
18.844999 -12.857 -1.899 23
9.4560003 -6.5949998 -1.883 10
10.473 -7.2639999 -1.8660001 10
11.838 -8.1709995 -1.864 7
13.561 -9.3219995 -1.859 10
15.919 -10.905 -1.86 20
0 0 0 0
9.6309996 -6.7249999 -1.88 10
10.698 -7.4289999 -1.864 9
12.135 -8.3850002 -1.863 8
13.902 -9.5670004 -1.85 10
16.490999 -11.31 -1.8609999 16
20.541 -14.048 -1.906 20
9.8260002 -6.8660002 -1.878 11
10.941 -7.6020002 -1.862 10
12.459 -8.6149998 -1.862 8
14.326 -9.8649998 -1.849 11
17.341 -11.9 -1.886 16
22.333 -15.283 -1.982 8
10.034 -7.013 -1.875 10
11.219 -7.7979999 -1.862 9
12.807 -8.8579998 -1.8609999 9
14.821 -10.208 -1.851 11
18.131001 -12.446 -1.898 21
22.546 -15.433 -1.908 11
10.255 -7.1669998 -1.874 9
11.494 -7.9879999 -1.86 9
13.136 -9.085 -1.854 9
15.478 -10.66 -1.869 13
18.903999 -12.975 -1.901 19
22.986 -15.732 -1.85 23
10.488 -7.3260002 -1.872 10
11.806 -8.2010002 -1.8609999 7
13.542 -9.3610001 -1.8559999 10
15.949 -10.979 -1.86 22
20.134001 -13.812 -1.942 22
23.302 -15.94 -1.78 22
10.729 -7.4879999 -1.869 9
12.129 -8.4180002 -1.86 8
13.958 -9.6400003 -1.854 10
16.476999 -11.332 -1.853 15
20.566999 -14.097 -1.897 16
23.427 -16.011999 -1.691 45
10.994 -7.6630001 -1.868 10
12.47 -8.6440001 -1.86 8
14.4 -9.9329996 -1.85 11
17.371 -11.933 -1.8789999 16
22.406 -15.338 -1.973 9
23.523001 -16.058001 -1.599 58
11.287 -7.8540001 -1.869 9
12.825 -8.8760004 -1.857 8
14.91 -10.268 -1.852 11
18.226999 -12.5 -1.893 21
22.573999 -15.428 -1.891 13
23.607 -16.089001 -1.506 67
11.571 -8.0360003 -1.865 9
13.185 -9.1059999 -1.852 9
15.633 -10.745 -1.875 14
18.98 -12.991 -1.891 19
23.087 -15.748 -1.836 26
23.664 -16.096001 -1.409 71
11.899 -8.2449999 -1.8660001 7
13.603 -9.3730001 -1.851 10
16.01 -10.978 -1.852 19
20.336 -13.887 -1.9400001 22
23.393 -15.919 -1.762 27
23.691999 -16.077999 -1.312 75
12.238 -8.4560003 -1.865 8
14.045 -9.651 -1.85 10
16.813 -11.498 -1.8710001 17
20.594999 -14.025 -1.875 8
23.528999 -15.968 -1.67 46
23.754 -16.076 -1.215 48
12.607 -8.684 -1.865 8
14.497 -9.9300003 -1.845 11
17.437 -11.887 -1.864 16
22.386999 -15.199 -1.942 10
23.667 -16.011999 -1.5779999 57
34.308998 -23.146999 -1.605 10
12.986 -8.9139996 -1.862 9
15.168 -10.354 -1.863 12
18.59 -12.629 -1.906 24
22.646999 -15.322 -1.8660001 18
23.846001 -16.077999 -1.488 15
37.338001 -25.104 -1.586 17
13.395 -9.1590004 -1.859 9
15.705 -10.679 -1.859 21
19.441999 -13.157 -1.906 23
23.285999 -15.693 -1.816 21
29.363001 -19.721001 -1.7029999 45
38.226002 -25.601999 -1.459 7
13.818 -9.408 -1.8559999 10
16.017 -10.845 -1.824 20
20.414 -13.757 -1.911 21
23.566999 -15.816 -1.734 27
30.159 -20.171 -1.62 15
41.48 -27.666 -1.4069999 5
14.287 -9.6820002 -1.854 10
17.174999 -11.576 -1.878 16
22.145 -14.855 -1.976 10
23.736 -15.858 -1.642 39
0 0 0 0
49.550999 -32.897999 -1.467 2
14.801 -9.9809999 -1.854 11
17.924 -12.021 -1.881 19
22.316999 -14.897 -1.892 14
23.860001 -15.862 -1.546 20
34.339001 -22.750999 -1.546 12
52.964001 -34.993999 -1.341 7
15.534 -10.42 -1.874 24
18.83 -12.563 -1.89 19
22.806999 -15.144 -1.8329999 11
23.889999 -15.799 -1.443 0
34.054001 -22.445999 -1.386 1
61.488998 -40.417 -1.293 5
15.847 -10.57 -1.84 39
20.073999 -13.317 -1.926 21
23.618 -15.595 -1.793 21
29.702999 -19.533001 -1.665 45
0 0 0 0
0 0 0 0
16.541 -10.967 -1.846 16
0 0 0 0
23.853001 -15.657 -1.707 16
30.232 -19.764999 -1.5650001 20
41.931 -27.319 -1.348 9
98.202003 -63.810001 -1.24 10
17.48 -11.516 -1.872 16
22.084 -14.472 -1.923 10
26.660999 -17.389999 -1.791 14
31.264999 -20.312 -1.483 2
53.436001 -34.599998 -1.489 4
98.221001 -63.424 -0.81999999 18
18.455999 -12.078 -1.895 27
22.202 -14.453 -1.836 12
27.08 -17.546 -1.7029999 5
33.722 -21.763 -1.456 34
56.761002 -36.509998 -1.344 2
84.651001 -54.301998 -0.35600001 56
19.327 -12.559 -1.896 30
23.023001 -14.882 -1.801 8
29.555 -19.017 -1.7309999 44
34.070999 -21.834999 -1.327 5
57.337002 -36.625 -1.118 8
0 0 0 0
20.195999 -13.027 -1.892 21
0 0 0 0
30.371 -19.4 -1.648 44
39.341999 -25.032 -1.365 2
57.602001 -36.528 -0.87900001 8
51.73 -32.715 0.212 9
21.709999 -13.897 -1.939 14
26.195999 -16.681 -1.822 34
31.5 -19.968 -1.576 33
41.459999 -26.177 -1.2640001 6
99.310997 -62.499001 -1.108 10
35.765999 -22.447001 0.29100001 12
21.931999 -13.927 -1.8609999 13
26.566 -16.782 -1.732 35
27.292 -17.160999 -1.248 30
0 0 0 0
89.401001 -55.813999 -0.62900001 21
22.424999 -13.963 0.273 1
22.304001 -14.044 -1.795 8
27.125 -16.992001 -1.652 22
33.870998 -21.124001 -1.406 55
65.262001 -40.540001 -1.45 6
34.598 -21.422001 -0.104 15
22.395 -13.829 0.36199999 29
23.768999 -14.837 -1.811 7
27.726 -17.219 -1.572 2
34.443001 -21.296 -1.2869999 54
34.591 -21.304001 -0.62599999 80
22.329 -13.708 0.023 1
22.320999 -13.666 0.449 5
25.604 -15.841 -1.841 28
30.983 -19.070999 -1.63 47
34.611 -21.209 -1.153 50
48.602001 -29.667 -0.685 88
22.27 -13.55 0.11 18
34.522999 -20.948999 0.829 20
26.216999 -16.07 -1.775 33
32.584999 -19.872 -1.576 53
22.285 -13.53 -0.64999998 2
22.289 -13.48 -0.226 23
22.190001 -13.376 0.197 41
34.256001 -20.596001 0.954 4
0 0 0 0
22.285999 -13.461 -0.98699999 31
27.062 -16.273001 -0.68099999 3
27.035 -16.194 -0.16500001 6
22.113001 -13.204 0.28299999 46
34.687 -20.658001 1.099 18
22.233999 -13.365 -1.3200001 1
26.992001 -16.143999 -1.086 3
26.969999 -16.058001 -0.57300001 3
26.988001 -16.007 -0.061000001 14
22.124001 -13.08 0.368 13
35.139999 -20.721001 1.2460001 15
26.989 -16.056 -1.492 3
26.974001 -15.968 -0.97899997 12
26.982 -15.903 -0.46700001 23
27.063 -15.891 0.041000001 32
35.373001 -20.702 0.71899998 38
35.346001 -20.632 1.383 3
26.982 -15.883 -1.3839999 18
27.072001 -15.858 -0.87699997 24
0 0 0 0
52.660999 -30.596001 0.28 24
35.507999 -20.563999 0.85600001 52
36.084999 -20.843 1.546 7
0 0 0 0
42.048 -24.361 -1.196 2
60.965 -35.167 -0.588 21
58.049999 -33.362 0.52499998 5
35.597 -20.392 0.98799998 42
35.844002 -20.481001 1.6619999 38
0 0 0 0
52.577999 -30.125 -1.294 7
110.484 -63.029999 -0.65100002 37
54.716999 -31.098 0.699 2
35.983002 -20.382999 1.128 60
35.883999 -20.275 1.791 19
35.07 -19.962 -1.3890001 18
60.533001 -34.287998 -1.265 3
58.727001 -33.120998 -0.132 10
62.626999 -35.188 1.023 6
36.398998 -20.388 1.268 31
47.709999 -26.652 2.5469999 10
38.611 -21.718 -1.383 11
58.587002 -32.793999 -1.008 14
58.633999 -32.681999 0.075999998 26
59.625 -33.109001 1.182 3
36.459 -20.181999 1.395 11
36.685001 -20.252001 2.0829999 15
38.179001 -21.216 -1.224 5
86.246002 -47.699001 -1.171 35
58.305 -32.106998 0.285 10
59.466 -32.622002 1.385 6
36.444 -19.93 1.518 1
47.981998 -26.171 2.881 36
41.269001 -22.652 -1.176 2
0 0 0 0
58.695999 -31.924999 0.48899999 15
60.532001 -32.799999 1.6160001 4
48.544998 -26.223 2.184 3
48.502998 -26.131001 3.0710001 27
55.273998 -29.955 -1.375 4
58.681 -31.648001 -0.389 24
58.535999 -31.434999 0.68400002 9
60.535999 -32.388 1.814 4
49.318001 -26.305 2.3770001 7
48.841 -25.981001 3.2449999 40
57.083 -30.533001 -1.224 3
58.805 -31.304001 -0.186 5
84.944 -45.022999 1.275 24
60.909 -32.164001 2.023 12
49.09 -25.84 2.5239999 20
60.688999 -31.861 4.224 11
0 0 0 0
90.271004 -47.412998 0.014 25
85.669998 -44.801998 1.564 22
61.980999 -32.292999 2.2550001 23
61.182999 -31.775999 3.335 12
61.106998 -31.652 4.4380002 13
77.622002 -40.404999 -1.1390001 7
90.416 -46.845001 0.30399999 13
70.822998 -36.537998 1.518 8
71.429001 -36.714001 2.8210001 18
62.034 -31.783001 3.569 20
62.919998 -32.153999 4.7529998 3
77.942001 -40.007999 -0.89399999 5
0 0 0 0
70.764999 -35.999001 1.735 25
71.305 -36.141998 3.0280001 39
61.902 -31.273001 3.743 16
0 0 0 0
0 0 0 0
0 0 0 0
71.075996 -35.639999 1.957 34
71.528999 -35.737999 3.247 19
0 0 0 0
58.459999 -29.035999 4.7459998 16
0 0 0 0
0 0 0 0
71.823997 -35.495998 2.188 24
0 0 0 0
0 0 0 0
55.706001 -27.266001 4.671 41
0 0 0 0
0 0 0 0
0 0 0 0
55.827999 -27.083 2.845 24
0 0 0 0
58.419998 -28.172001 5.052 8
0 0 0 0
0 0 0 0
55.981998 -26.843 2.0139999 32
0 0 0 0
56.713001 -27.007999 4.0430002 26
45.738998 -21.722 4.0700002 2
0 0 0 0
56.160999 -26.622 1.182 31
0 0 0 0
0 0 0 0
45.998001 -21.563999 3.395 2
21.700001 -10.145 1.984 39
56.306999 -26.396999 0.34900001 35
56.200001 -26.223 1.3329999 26
56.097 -26.063 2.313 37
21.863001 -10.121 1.283 8
21.802 -10.06 1.6619999 48
21.950001 -10.101 2.0580001 0
76.134003 -35.119999 0.67500001 35
21.844999 -10.028 0.57300001 12
21.725 -9.9309998 0.949 32
21.825001 -9.9390001 1.334 41
0 0 0 0
47.001999 -21.278 4.5139999 7
21.775 -9.8780003 0.248 64
21.778 -9.8330002 0.62599999 68
21.823999 -9.8109999 1.006 60
21.931 -9.823 1.391 34
46.349998 -20.691 3.7449999 29
46.339001 -20.628 4.5510001 23
21.906 -9.7709999 0.303 59
21.975 -9.7550001 0.68300003 2
46.915001 -20.737 2.27 34
46.687 -20.558001 3.066 18
56.160999 -24.645 4.6589999 17
58.618999 -25.650999 5.8800001 36
64.203003 -28.138 1.0420001 6
63.561001 -27.728001 2.122 18
31.92 -13.865 1.615 22
64.642998 -27.972 4.3839998 29
46.192001 -19.921 3.9289999 20
45.784 -19.687 4.684 2
64.170998 -27.629 1.187 18
32.273998 -13.831 1.148 0
31.976 -13.644 1.6849999 22
65.445999 -27.819 4.572 36
64.906998 -27.497 5.6500001 11
46.355 -19.583 4.8309999 19
32.845001 -13.89 0.67900002 9
32.431999 -13.648 1.222 44
33.650002 -14.101 1.84 25
32.202999 -13.443 2.3110001 3
48.462002 -20.164 4.3060002 34
48.695 -20.202 5.1620002 5
33.027 -13.712 0.75 21
32.556999 -13.454 1.291 44
32.285999 -13.286 1.827 17
32.294998 -13.238 2.3770001 2
47.924 -19.577 4.3449998 15
48.691002 -19.832001 5.2459998 16
33.016998 -13.454 0.81599998 44
32.556999 -13.202 1.353 44
32.451 -13.103 1.896 42
32.841999 -13.209 2.4749999 43
32.535 -13.042 3.0039999 7
48.043999 -19.202 5.2529998 4
33.053001 -13.214 0.87800002 34
32.729 -13.022 1.418 44
32.497002 -12.873 1.955 38
32.393002 -12.783 2.4949999 43
32.125999 -12.634 3.0179999 38
48.323002 -18.944 5.3559999 18
33.094002 -12.974 0.93599999 12
32.737 -12.771 1.474 44
32.672001 -12.69 2.0190001 43
32.542999 -12.589 2.5580001 37
32.358002 -12.472 3.0869999 33
32.301998 -12.414 3.6270001 2
33.312 -12.799 0.99800003 6
32.883999 -12.573 1.534 46
33.112999 -12.604 2.0969999 46
33.118999 -12.556 2.652 16
32.698002 -12.351 3.1659999 7
32.338001 -12.178 3.674 1
71.658997 -26.974001 2.2609999 26
32.77 -12.274 1.577 45
33.312 -12.423 2.1570001 53
33.419998 -12.413 2.721 27
69.741997 -25.813999 6.8429999 37
49.243999 -18.169001 5.6570001 35
71.457001 -26.346001 2.3599999 26
33.527 -12.3 1.661 4
33.513 -12.238 2.214 2
33.370998 -12.138 2.7590001 43
33.433998 -12.116 3.3199999 21
48.874001 -17.655001 5.6700001 27
92.023003 -33.215 3.1630001 17
67.716003 -24.32 3.4419999 37
68.477997 -24.481001 4.6110001 33
33.536999 -11.941 2.812 10
33.484001 -11.878 3.3629999 36
49.145 -17.379999 5.7529998 4
71.052002 -25.094999 2.53 7
68.225998 -23.976 3.5480001 38
68.150002 -23.837999 4.664 43
68.425003 -23.837999 5.809 42
33.641998 -11.674 3.4130001 6
0 0 0 0
92.681 -32.02 3.4100001 31
69.317001 -23.826 3.6819999 7
68.299004 -23.367001 4.7459998 38
68.467003 -23.325001 5.882 48
69.068001 -23.437 7.0679998 39
0 0 0 0
72.064003 -24.334999 2.727 33
69.011002 -23.184999 3.734 18
69.195 -23.136999 4.8720002 28
68.723999 -22.879999 5.9629998 33
69.328003 -22.996 7.152 37
0 0 0 0
71.658997 -23.641001 2.78 22
72.835999 -23.903999 4.006 11
68.947998 -22.524 4.9109998 39
68.738998 -22.358 6.0159998 41
69.415001 -22.488001 7.21 38
22.792999 -7.3590002 2.7409999 1
45.889999 -14.786 1.8200001 5
69.845001 -22.391001 3.8959999 9
22.561001 -7.198 1.623 59
22.368 -7.1040001 1.973 98
22.370001 -7.0760002 2.3369999 95
22.384001 -7.0539999 2.704 75
22.347 -7.027 0.90200001 109
22.375999 -6.9990001 1.263 94
22.405001 -6.973 1.626 12
22.26 -6.8979998 1.976 16
22.018999 -6.796 2.312 16
21.844 -6.7160001 2.648 57
44.719002 -13.718 1.834 58
21.844999 -6.665 1.245 70
69.943001 -21.235001 5.1129999 25
70.142998 -21.202 6.257 33
72.189003 -21.729 7.6069999 5
0 0 0 0
44.769001 -13.389 1.8609999 60
44.929001 -13.366 2.5840001 5
71.064003 -21.038 5.224 27
70.209 -20.686001 6.2870002 42
0 0 0 0
0 0 0 0
44.66 -13.014 1.874 61
45.333 -13.14 2.6229999 38
71.370003 -20.580999 5.2680001 37
71.543999 -20.537001 6.4260001 35
0 0 0 0
0 0 0 0
44.841 -12.724 1.895 50
45.953999 -12.969 2.6700001 48
72.844002 -20.452 5.3909998 37
72.425003 -20.24 6.5149999 16
0 0 0 0
0 0 0 0
44.994999 -12.429 1.911 58
45.215 -12.419 2.635 61
94.608002 -25.848 7.013 24
0 0 0 0
0 0 0 0
0 0 0 0
45.859001 -12.317 1.952 53
45.375999 -12.119 2.6459999 55
94.192001 -25.021999 6.9809999 37
94.107002 -24.879 8.4659996 18
0 0 0 0
0 0 0 0
45.747002 -11.942 1.948 70
93.453003 -24.249001 5.4439998 27
92.889 -23.969999 6.8740001 28
93.827003 -24.093 8.4250002 28
57.125 -14.599 6.0359998 4
57.134998 -14.538 6.947 52
46.747002 -11.85 1.985 7
93.525002 -23.570999 5.4330001 26
94.474998 -23.677999 6.9720001 39
0 0 0 0
57.451 -14.251 6.052 15
56.952999 -14.068 6.9029999 47
93.087997 -22.896999 3.9300001 22
93.939003 -22.966 5.4320002 19
94.295998 -22.926001 6.928 21
95.071999 -22.990999 8.4790001 33
58.252998 -14.017 6.1139998 17
55.931 -13.397 6.7550001 43
92.262001 -22.006001 3.8670001 6
94.800003 -22.471001 5.448 36
93.693001 -22.084 6.8460002 35
95.277 -22.330999 8.4510002 30
57.569 -13.427 6.0110002 3
56.198002 -13.045 6.7550001 12
95.003998 -21.951 3.9389999 27
94.156998 -21.622 5.3639998 17
95.598999 -21.822001 6.934 33
0 0 0 0
57.786999 -13.048 6 4
56.703999 -12.739 6.7779999 10
94.896004 -21.216 3.8829999 34
0 0 0 0
96.984001 -21.41 6.973 10
0 0 0 0
58.005001 -12.666 5.9809999 8
57.210999 -12.429 6.7969999 15
94.221001 -20.365999 3.796 9
0 0 0 0
0 0 0 0
0 0 0 0
57.441002 -12.12 5.875 19
59.148998 -12.416 6.9749999 44
0 0 0 0
0 0 0 0
0 0 0 0
57.944 -11.864 4.9710002 24
59.188 -12.054 6 11
54.528999 -11.047 6.3769999 23
0 0 0 0
0 0 0 0
58.042999 -11.535 4.027 8
59.251999 -11.704 5.026 48
60.124001 -11.81 6.033 2
54.801998 -10.705 6.3520002 42
76.969002 -14.951 2.9000001 26
0 0 0 0
59.316002 -11.365 4.0539999 47
59.985001 -11.419 5.0240002 43
0 0 0 0
54.960999 -10.337 6.3060002 12
59.775002 -11.174 2.187 9
58.469002 -10.85 3.0320001 55
59.870998 -11.035 4.0219998 12
0 0 0 0
0 0 0 0
55.316002 -10.007 6.2779999 3
59.655998 -10.723 2.1129999 41
58.450001 -10.43 2.96 39
0 0 0 0
0 0 0 0
56.756001 -9.9160004 5.4860001 43
59.669998 -10.363 6.6900001 10
59.509998 -10.267 2.029 43
58.550999 -10.026 2.8870001 31
58.25 -9.9029999 3.7609999 40
57.473 -9.7010002 4.5910001 40
56.950001 -9.5509996 5.4250002 47
59.603001 -9.9309998 6.5970001 10
58.547001 -9.6859999 1.914 51
0 0 0 0
0 0 0 0
58.695 -9.4910002 4.5999999 41
0 0 0 0
58.32 -9.3039999 6.3629999 6
33.358002 -5.2839999 1.041 29
58.764 -9.2320004 2.723 35
58.759998 -9.158 3.6159999 32
58.771999 -9.0930004 4.513 11
0 0 0 0
70.524002 -10.753 7.5760002 5
59.133999 -8.948 1.748 50
59.706001 -8.9569998 2.668 47
58.305 -8.6750002 3.49 39
57.664001 -8.5139999 4.329 32
60.766998 -8.9040003 5.4899998 46
45.613998 -6.6370001 4.8200002 4
73.900002 -10.664 2.0569999 4
58.963001 -8.4329996 2.5309999 51
70.949997 -10.061 4.1199999 3
58.025002 -8.1569996 4.25 6
58.264 -8.1280003 5.1560001 38
45.68 -6.3239999 4.7410002 5
24.212999 -3.323 0.62900001 47
24.164 -3.2869999 0.99199998 4
70.699997 -9.5310001 3.971 13
60.417999 -8.0769997 4.3099999 3
60.467999 -8.0170002 5.2340002 10
60.327 -7.934 6.1420002 20
24.146999 -3.1489999 0.58099997 54
24.148001 -3.119 0.94400001 51
24.158001 -3.092 1.309 43
24.118999 -3.0580001 1.6720001 43
24.097 -3.029 2.036 50
24.054001 -2.9979999 2.3989999 49
30.919001 -3.8180001 0.68000001 1
24.202999 -2.96 0.89600003 18
24.225 -2.934 1.262 12
58.926998 -7.072 3.961 39
69.322998 -8.243 5.7119999 22
71.935997 -8.4779997 7.0209999 12
29.785 -3.477 0.59200001 32
74.472 -8.6040001 2.598 4
71.080002 -8.1280003 3.549 27
58.976002 -6.6750002 3.8329999 14
70.686996 -7.9260001 5.665 22
71.460999 -7.9369998 6.8130002 27
30.157 -3.3150001 0.53100002 33
0 0 0 0
49.331001 -5.3080001 2.349 47
71.865997 -7.652 4.506 13
70.193001 -7.3969998 5.4629998 6
59.231998 -6.1830001 5.5079999 4
29.806999 -3.0769999 0.45500001 33
30.059 -3.066 0.90700001 16
29.865999 -3.0120001 1.35 1
50.092999 -4.9959998 3.0190001 13
71.260002 -7.0300002 5.3709998 19
58.073002 -5.671 5.257 21
29.597 -2.8570001 0.37799999 42
29.722 -2.8329999 0.82300001 31
49.123001 -4.6279998 2.098 46
49.596001 -4.6170001 2.8640001 46
69.664001 -6.4109998 5.073 3
58.314999 -5.3060002 5.1279998 8
29.674999 -2.6670001 0.30199999 38
29.857 -2.6489999 0.75 32
29.495001 -2.5829999 1.182 13
49.465 -4.277 2.7260001 48
71.517998 -6.1079998 5.0180001 6
45.539001 -3.842 3.8829999 3
29.267 -2.438 0.219 50
29.580999 -2.431 0.66299999 35
30.028 -2.434 1.123 6
50.351002 -4.027 2.6389999 31
69.054001 -5.4499998 4.658 13
45.668999 -3.5569999 3.7690001 30
29.166 -2.2379999 0.13600001 47
29.649 -2.2420001 0.58099997 45
30.216 -2.2509999 1.044 19
29.77 -2.1849999 1.475 2
45.708 -3.3099999 2.9530001 35
70.273003 -5.0159998 5.598 22
29.424 -2.069 0.052999999 32
29.673 -2.052 0.495 51
30.351 -2.0669999 0.96100003 1
30.041 -2.0139999 1.401 1
45.705002 -3.0179999 2.819 6
71.641998 -4.658 5.4970002 30
30.415001 -1.9450001 -0.035999998 34
29.66 -1.863 0.40700001 51
29.975 -1.85 0.85900003 32
29.782 -1.808 1.3 3
81.853996 -4.8850002 4.802 27
72.209 -4.2329998 5.3200002 23
30.304001 -1.745 -0.12899999 0
29.763 -1.681 0.315 48
30.426001 -1.686 0.77700001 22
29.330999 -1.595 1.188 1
82.753998 -4.414 4.5939999 27
82.960999 -4.3379998 5.8499999 52
0 0 0 0
29.65 -1.489 0.219 33
30.108999 -1.48 0.67199999 28
45.813999 -2.2049999 1.7079999 21
45.580002 -2.1489999 2.3840001 62
45.623001 -2.105 3.0710001 38
33.960999 -1.531 -0.366 41
29.599001 -1.304 0.122 32
29.969 -1.289 0.57099998 33
30.003 -1.2589999 1.02 13
45.744999 -1.876 2.2420001 14
46.087002 -1.842 2.9489999 24
33.675999 -1.311 -0.47799999 42
29.785 -1.128 0.02 28
29.798 -1.099 0.46599999 47
29.6 -1.062 0.90600002 28
80.416 -2.8050001 3.6670001 14
81.862 -2.7780001 4.9619999 38
30.068001 -0.98900002 -0.53100002 5
30.09 -0.95999998 -0.082000002 13
29.797001 -0.92000002 0.36300001 48
30.117001 -0.89999998 0.81800002 13
80.083 -2.3180001 3.3759999 58
81.382004 -2.2720001 4.6490002 51
33.202999 -0.89399999 -0.70499998 47
33.623001 -0.87099999 -0.212 27
29.707001 -0.741 0.25600001 46
29.959999 -0.71600002 0.70599997 32
29.941 -0.68699998 1.154 5
80.802002 -1.775 4.3270001 21
32.938 -0.69 -0.82099998 39
33.756001 -0.67400002 -0.33700001 44
29.681999 -0.56300002 0.146 28
29.905001 -0.53799999 0.59500003 32
29.896 -0.50999999 1.043 20
80.830002 -1.3 4.0310001 50
32.383999 -0.48699999 -0.93099999 41
33.215 -0.46599999 -0.45899999 46
30.514999 -0.398 0.034000002 0
30.461 -0.36899999 0.49000001 15
29.763 -0.331 0.92500001 9
82.061996 -0.838 3.7820001 12
31.419001 -0.28999999 -1.025 39
32.777 -0.27000001 -0.57999998 39
33.154999 -0.242 -0.090000004 1
86.696999 -0.55000001 1.062 5
81.433998 -0.435 2.2149999 42
82.210999 -0.36000001 3.4679999 34
30.364 -0.104 -1.113 38
32.633999 -0.081 -0.708 46
33.393002 -0.050000001 -0.22400001 42
85.504997 -0.050999999 0.70700002 14
56.620998 0.018999999 1.316 32
81.763 0.103 3.1289999 50
29.302 0.064999998 -1.194 33
32.332001 0.103 -0.833 49
33.104 0.13500001 -0.35600001 42
83.736 0.421 0.354 44
56.737 0.34099999 1.089 17
69.099998 0.47799999 2.3640001 20
28.495001 0.22400001 -1.281 41
31.792 0.27900001 -0.95099998 39
32.751999 0.31799999 -0.48899999 46
58.900002 0.625 0.0049999999 17
69.328003 0.80000001 1.046 31
68.575996 0.85299999 2.0650001 49
27.402 0.368 -1.349 30
30.921 0.442 -1.057 41
32.716 0.49700001 -0.62599999 51
32.756001 0.528 -0.13500001 4
68.650002 1.1670001 0.74800003 26
68.426003 1.232 1.7690001 55
25.429001 0.48100001 -1.363 23
29.58 0.58600003 -1.14 34
32.405998 0.671 -0.76200002 60
33.490002 0.72399998 -0.28400001 44
68.974998 1.552 0.45100001 22
68.439003 1.603 1.475 56
25.006001 0.61000001 -1.4529999 19
28.735001 0.72600001 -1.237 45
31.992001 0.83700001 -0.89600003 45
32.515999 0.87900001 -0.41999999 39
58.594002 1.637 0.122 7
68.585999 1.978 1.174 32
23.787001 0.70700002 -1.4910001 21
27.700001 0.847 -1.318 29
31.24 0.98199999 -1.015 38
32.199001 1.0420001 -0.56199998 39
35.237999 1.1720001 -0.085000001 15
88.476997 3.02 1.119 6
22.896 0.80299997 -1.543 20
25.559999 0.91799998 -1.337 23
29.934999 1.1 -1.112 34
31.997 1.2029999 -0.70499998 37
0 0 0 0
82.379997 3.243 0.66399997 17
21.486 0.86500001 -1.55 15
25.186001 1.036 -1.436 22
28.990999 1.217 -1.214 45
31.705 1.357 -0.84799999 45
32.293999 1.41 -0.37599999 39
58.689999 2.612 0.20100001 9
20.326 0.92299998 -1.566 14
23.690001 1.095 -1.464 20
27.922001 1.313 -1.302 30
31.444 1.5039999 -0.99000001 36
31.899 1.553 -0.52200001 44
34.708 1.719 -0.043000001 22
19.285999 0.97399998 -1.581 13
22.910999 1.176 -1.53 20
25.752001 1.341 -1.327 25
30.077 1.591 -1.0930001 34
31.698 1.7029999 -0.67199999 44
0 0 0 0
18.313 1.015 -1.5930001 12
21.378 1.202 -1.533 14
25.349001 1.4450001 -1.432 23
29.169001 1.686 -1.2029999 37
31.743 1.8609999 -0.82800001 45
32.667 1.941 -0.35699999 40
17.441999 1.052 -1.6059999 11
20.209 1.234 -1.551 14
23.784 1.471 -1.4630001 21
26.753 1.675 -1.237 16
31.452 1.995 -0.97600001 37
32.171001 2.069 -0.51200002 38
16.684 1.0880001 -1.624 10
19.125 1.261 -1.568 13
22.936001 1.53 -1.529 20
25.778 1.739 -1.324 24
26.673 1.8200001 -0.96399999 15
31.729 2.191 -0.66399997 50
15.854 1.109 -1.627 9
18.106001 1.28 -1.579 12
21.337 1.523 -1.533 16
25.396999 1.8329999 -1.436 23
26.490999 1.932 -1.094 42
31.787001 2.346 -0.82999998 56
15.224 1.137 -1.645 9
17.247 1.3 -1.597 11
20.132 1.5319999 -1.5549999 14
23.795 1.829 -1.472 21
26.225 2.0350001 -1.221 35
26.721001 2.095 -0.83700001 1
14.515 1.152 -1.649 11
16.457001 1.317 -1.615 10
18.965 1.531 -1.568 13
22.384001 1.823 -1.506 12
25.764999 2.118 -1.3380001 32
26.483999 2.198 -0.97100002 55
13.916 1.168 -1.659 11
15.67 1.325 -1.625 10
17.927 1.529 -1.582 11
21.042999 1.8099999 -1.5319999 15
24.906 2.161 -1.4299999 24
26.280001 2.3 -1.107 46
13.353 1.181 -1.669 11
14.956 1.3329999 -1.637 9
17.059999 1.5319999 -1.601 10
19.819 1.793 -1.553 14
23.648001 2.1559999 -1.488 21
26.056 2.395 -1.24 31
12.829 1.191 -1.678 11
14.309 1.3380001 -1.647 10
16.252001 1.529 -1.6160001 9
18.716 1.774 -1.571 13
21.916 2.092 -1.501 11
25.84 2.487 -1.373 26
12.359 1.202 -1.689 11
13.681 1.3380001 -1.654 11
15.472 1.523 -1.628 11
17.617001 1.745 -1.579 11
20.652 2.0599999 -1.531 14
24.240999 2.434 -1.4220001 21
11.926 1.209 -1.7 11
13.138 1.34 -1.665 11
14.76 1.5140001 -1.638 10
16.851999 1.739 -1.607 10
19.48 2.023 -1.554 14
23.094999 2.415 -1.4859999 19
11.48 1.212 -1.706 12
12.63 1.341 -1.677 12
14.107 1.505 -1.65 11
15.948 1.712 -1.615 9
18.290001 1.975 -1.566 12
21.459 2.3310001 -1.505 13
11.095 1.217 -1.716 11
12.142 1.3380001 -1.6849999 11
13.497 1.495 -1.659 12
15.22 1.6950001 -1.631 11
17.327 1.941 -1.586 11
20.207001 2.276 -1.535 14
10.706 1.217 -1.723 11
11.706 1.337 -1.697 12
12.947 1.485 -1.67 11
14.491 1.67 -1.64 10
16.500999 1.913 -1.609 10
18.976 2.2119999 -1.554 13
10.356 1.2180001 -1.733 12
11.285 1.3329999 -1.706 11
12.428 1.474 -1.6799999 11
13.837 1.649 -1.651 11
15.603 1.868 -1.615 12
17.863001 2.151 -1.5700001 11
10.009 1.216 -1.738 11
10.883 1.327 -1.714 12
11.943 1.462 -1.689 11
13.245 1.628 -1.6619999 11
14.899 1.84 -1.633 11
16.966999 2.1059999 -1.5930001 10
9.6820002 1.212 -1.744 10
10.507 1.3200001 -1.721 11
11.502 1.45 -1.698 11
12.71 1.609 -1.673 11
14.198 1.8049999 -1.643 11
16.048 2.05 -1.604 9
9.3940001 1.211 -1.753 10
10.152 1.313 -1.728 11
11.094 1.439 -1.7079999 12
12.196 1.5880001 -1.682 12
13.529 1.768 -1.65 11
15.292 2.0079999 -1.623 13
9.0979996 1.205 -1.758 11
9.8100004 1.303 -1.734 11
10.709 1.427 -1.7180001 12
11.734 1.569 -1.693 11
12.966 1.7410001 -1.663 11
14.544 1.96 -1.6339999 10
8.8240004 1.2 -1.7640001 10
9.5050001 1.296 -1.743 10
10.337 1.413 -1.726 11
11.297 1.549 -1.7029999 12
12.437 1.712 -1.674 11
13.853 1.914 -1.6440001 10
8.5640001 1.194 -1.77 10
9.21 1.2869999 -1.75 11
9.9759998 1.398 -1.732 11
10.887 1.53 -1.712 11
11.951 1.6849999 -1.686 12
13.263 1.876 -1.6569999 11
8.323 1.188 -1.777 10
8.9329996 1.277 -1.757 11
9.6610003 1.385 -1.74 10
10.505 1.51 -1.72 11
11.497 1.6569999 -1.696 10
12.666 1.832 -1.665 11
8.0830002 1.1799999 -1.7819999 10
8.6700001 1.268 -1.765 10
9.342 1.369 -1.7460001 11
10.138 1.489 -1.727 11
11.071 1.631 -1.705 11
12.163 1.7970001 -1.677 10
7.8600001 1.1720001 -1.7869999 10
8.4110003 1.256 -1.77 10
9.0600004 1.3559999 -1.7539999 11
9.7889996 1.4680001 -1.733 10
10.667 1.604 -1.714 11
11.69 1.763 -1.688 11
7.6539998 1.165 -1.795 10
8.1660004 1.245 -1.775 9
8.7959995 1.3430001 -1.7640001 11
9.4720001 1.449 -1.7410001 10
10.288 1.577 -1.721 11
11.252 1.73 -1.699 11
7.4549999 1.1569999 -1.802 10
7.9419999 1.234 -1.7819999 11
8.5209999 1.326 -1.768 10
9.1730003 1.4299999 -1.749 11
9.9420004 1.553 -1.73 10
10.853 1.7 -1.71 11
7.2709999 1.15 -1.809 10
7.724 1.222 -1.788 10
8.2720003 1.311 -1.773 10
8.9060001 1.414 -1.7589999 10
9.6140003 1.529 -1.739 11
10.446 1.665 -1.716 11
7.0240002 1.131 -1.799 10
7.52 1.211 -1.795 10
8.0240002 1.294 -1.777 10
8.6370001 1.3940001 -1.766 10
9.3129997 1.506 -1.748 11
10.093 1.636 -1.727 10
6.8400002 1.12 -1.802 11
7.323 1.199 -1.801 10
7.809 1.28 -1.785 10
8.3769999 1.375 -1.772 10
9.007 1.48 -1.753 10
9.7349997 1.603 -1.7309999 10
6.6690001 1.11 -1.807 11
7.085 1.179 -1.794 10
7.6009998 1.266 -1.7920001 10
8.1149998 1.352 -1.773 10
8.7510004 1.46 -1.763 10
9.4300003 1.576 -1.742 11
6.507 1.099 -1.811 10
6.9039998 1.166 -1.799 11
7.3930001 1.249 -1.796 11
7.9060001 1.337 -1.783 10
8.4809999 1.436 -1.768 11
9.1309996 1.548 -1.75 10
6.3499999 1.0880001 -1.816 11
6.7189999 1.151 -1.8 10
7.191 1.232 -1.799 12
7.6849999 1.318 -1.788 10
8.2209997 1.411 -1.771 10
8.8520002 1.521 -1.757 10
6.197 1.077 -1.819 10
6.5450001 1.137 -1.803 12
6.9949999 1.215 -1.801 11
7.4819999 1.3 -1.795 10
7.9959998 1.39 -1.78 10
8.5790005 1.493 -1.763 10
6.0450001 1.064 -1.821 12
6.3899999 1.124 -1.808 11
6.803 1.196 -1.802 11
7.2639999 1.278 -1.796 12
7.777 1.369 -1.7869999 11
8.3170004 1.465 -1.768 10
5.8959999 1.051 -1.821 10
6.2410002 1.1109999 -1.813 11
6.6209998 1.179 -1.803 10
7.0819998 1.261 -1.802 11
7.566 1.347 -1.7920001 10
8.0930004 1.442 -1.777 11
5.757 1.038 -1.823 11
6.0840001 1.096 -1.813 12
6.4710002 1.165 -1.8099999 11
6.8670001 1.2359999 -1.7970001 10
7.3779998 1.3279999 -1.801 10
7.8759999 1.419 -1.785 11
5.6220002 1.025 -1.824 11
5.948 1.0829999 -1.818 10
6.3169999 1.149 -1.814 12
6.6869998 1.216 -1.799 11
7.1539998 1.301 -1.798 11
7.652 1.392 -1.789 10
5.4850001 1.011 -1.823 11
5.8070002 1.068 -1.8200001 12
6.1560001 1.131 -1.8150001 12
6.5339999 1.2 -1.807 11
6.9520001 1.277 -1.7970001 11
7.4250002 1.364 -1.788 12
5.3709998 0.99900001 -1.827 10
5.665 1.053 -1.819 12
6.0190001 1.117 -1.8200001 11
6.3800001 1.183 -1.811 12
6.7649999 1.2539999 -1.798 11
7.2360001 1.341 -1.795 11
5.2519999 0.986 -1.829 10
5.5450001 1.04 -1.824 12
5.882 1.101 -1.823 12
6.2290001 1.165 -1.8150001 11
6.5960002 1.233 -1.801 11
7.0289998 1.313 -1.794 11
5.1350002 0.97299999 -1.829 10
5.4120002 1.023 -1.823 13
5.7399998 1.084 -1.823 12
6.0739999 1.145 -1.816 11
6.441 1.2130001 -1.807 12
6.8260002 1.285 -1.7920001 10
5.0170002 0.958 -1.8279999 10
5.2989998 1.01 -1.826 13
5.6100001 1.067 -1.825 10
5.9380002 1.128 -1.819 12
6.2909999 1.194 -1.811 12
6.6589999 1.263 -1.796 11
4.914 0.94599998 -1.83 10
5.1869998 0.99599999 -1.829 11
5.4749999 1.049 -1.824 12
5.8000002 1.11 -1.821 11
6.1420002 1.174 -1.814 12
6.5050001 1.242 -1.802 11
4.8039999 0.93099999 -1.829 9
5.0700002 0.98000002 -1.8279999 11
5.3569999 1.033 -1.826 11
5.6680002 1.092 -1.823 11
5.9640002 1.147 -1.806 13
6.3470001 1.219 -1.8049999 12
4.7129998 0.92000002 -1.832 10
4.9689999 0.96700001 -1.831 11
5.2449999 1.018 -1.829 10
5.526 1.0700001 -1.8200001 12
5.8249998 1.127 -1.808 12
6.1929998 1.197 -1.807 11
4.619 0.90700001 -1.834 10
4.8540001 0.94999999 -1.8279999 11
5.1269999 1.001 -1.8279999 10
5.4120002 1.054 -1.824 12
5.71 1.11 -1.8150001 11
6.0510001 1.175 -1.8099999 12
4.5250001 0.89300001 -1.834 10
4.7579999 0.93599999 -1.831 11
5.027 0.986 -1.832 11
5.296 1.0369999 -1.826 12
5.5679998 1.0880001 -1.812 11
5.9060001 1.152 -1.811 12
4.4369998 0.88099998 -1.836 10
4.6560001 0.921 -1.829 10
4.9109998 0.96799999 -1.829 11
5.1849999 1.0190001 -1.827 11
5.4580002 1.071 -1.817 12
5.77 1.13 -1.811 11
4.355 0.86799997 -1.839 10
4.5700002 0.90799999 -1.832 10
4.8140001 0.95300001 -1.831 11
5.0749998 1.002 -1.8279999 11
5.3559999 1.0549999 -1.824 13
5.6539998 1.1109999 -1.817 12
4.277 0.85600001 -1.841 10
4.4819999 0.89399999 -1.834 10
4.7210002 0.93800002 -1.8329999 11
4.9749999 0.98500001 -1.831 11
5.244 1.036 -1.825 11
5.5170002 1.0880001 -1.813 11
4.1900001 0.84200001 -1.839 9
4.4060001 0.88099998 -1.839 10
4.6329999 0.92299998 -1.836 10
4.875 0.96799999 -1.831 11
5.1370001 1.018 -1.827 11
5.3899999 1.0650001 -1.812 10
4.1040001 0.82700002 -1.836 9
4.3130002 0.86500001 -1.835 10
4.54 0.90700001 -1.835 10
4.7670002 0.949 -1.8279999 9
5.0219998 0.99699998 -1.824 11
5.302 1.05 -1.821 11
4.033 0.815 -1.8380001 9
4.2399998 0.85299999 -1.8380001 10
4.4559999 0.89200002 -1.836 11
4.6760001 0.93300003 -1.829 9
4.9369998 0.98199999 -1.83 11
5.1960001 1.031 -1.823 11
3.9630001 0.80299997 -1.84 9
4.1630001 0.83899999 -1.839 10
4.3730001 0.87699997 -1.837 10
4.5879998 0.917 -1.83 10
4.8299999 0.96200001 -1.827 11
5.0910001 1.011 -1.823 11
3.8929999 0.79000002 -1.84 9
4.0869999 0.82499999 -1.839 10
4.296 0.86299998 -1.839 10
4.5120001 0.90200001 -1.835 10
4.7309999 0.94300002 -1.826 10
4.9949999 0.99199998 -1.827 11
3.8369999 0.77899998 -1.847 9
4.0120001 0.81 -1.839 10
4.217 0.84799999 -1.839 10
4.4260001 0.88599998 -1.834 10
4.6459999 0.926 -1.8279999 10
4.9000001 0.97299999 -1.8279999 11
3.766 0.76599997 -1.845 8
3.941 0.796 -1.839 10
4.1360002 0.83099997 -1.837 10
4.3509998 0.87099999 -1.837 10
4.5739999 0.912 -1.834 10
4.8049998 0.954 -1.8279999 10
3.707 0.75400001 -1.848 8
3.869 0.78200001 -1.837 10
4.0700002 0.81800002 -1.84 9
4.2670002 0.85299999 -1.835 10
4.4860001 0.89300001 -1.8329999 10
4.7059999 0.93400002 -1.825 11
3.641 0.74000001 -1.846 9
3.8110001 0.76999998 -1.841 9
3.9920001 0.80199999 -1.836 9
4.1960001 0.838 -1.836 10
4.4039998 0.87599999 -1.832 10
4.6279998 0.917 -1.8279999 10
3.5869999 0.72899997 -1.849 9
3.7509999 0.75700003 -1.8430001 9
3.9260001 0.78799999 -1.837 10
4.131 0.824 -1.84 10
4.335 0.861 -1.836 10
4.5430002 0.898 -1.827 10
3.526 0.71600002 -1.847 8
3.697 0.745 -1.847 9
3.865 0.77399999 -1.839 9
4.0619998 0.80900002 -1.84 9
4.263 0.84500003 -1.837 10
4.4780002 0.88300002 -1.834 10
3.4690001 0.70300001 -1.847 8
3.6359999 0.73100001 -1.845 9
3.8069999 0.76099998 -1.842 9
3.984 0.79100001 -1.835 11
4.1939998 0.829 -1.8380001 9
4.3990002 0.86500001 -1.8329999 9
3.415 0.69 -1.847 8
3.579 0.71799999 -1.846 9
3.7490001 0.74699998 -1.8430001 9
3.9219999 0.77700001 -1.837 9
4.1160002 0.81099999 -1.834 9
4.323 0.847 -1.832 10
3.365 0.67900002 -1.848 7
3.5250001 0.70499998 -1.846 8
3.691 0.73299998 -1.8430001 9
3.8610001 0.76200002 -1.837 8
4.0510001 0.79500002 -1.835 9
4.2589998 0.83099997 -1.835 9
3.3110001 0.66600001 -1.846 8
3.473 0.69300002 -1.847 9
3.642 0.72100002 -1.847 9
3.809 0.74900001 -1.841 8
3.98 0.778 -1.832 10
4.191 0.81400001 -1.836 9
3.27 0.65499997 -1.851 8
3.4260001 0.68099999 -1.85 8
3.5869999 0.70700002 -1.847 9
3.747 0.73400003 -1.839 8
3.928 0.764 -1.836 9
4.1209998 0.79699999 -1.834 9
3.221 0.64300001 -1.85 7
3.3699999 0.667 -1.847 8
3.536 0.69400001 -1.848 9
3.698 0.72000003 -1.842 9
3.859 0.74699998 -1.832 9
4.0619998 0.78100002 -1.836 9
3.1719999 0.63 -1.848 7
3.323 0.65399998 -1.847 8
3.4849999 0.68000001 -1.848 9
3.6500001 0.70700002 -1.845 8
3.8150001 0.73400003 -1.8380001 9
3.993 0.76300001 -1.832 9
3.1289999 0.61799997 -1.849 7
3.2809999 0.64200002 -1.85 8
3.4330001 0.66600001 -1.846 8
3.595 0.69199997 -1.844 8
3.7590001 0.71899998 -1.8380001 8
3.941 0.74900001 -1.835 9
3.0929999 0.60799998 -1.853 7
3.237 0.63 -1.85 8
3.3900001 0.65399998 -1.849 8
3.5480001 0.67900002 -1.845 8
3.71 0.704 -1.839 7
3.888 0.73299998 -1.837 9
3.056 0.597 -1.855 6
3.1900001 0.61699998 -1.848 8
3.3410001 0.63999999 -1.847 8
3.5 0.66500002 -1.845 8
3.6619999 0.69 -1.841 8
3.8310001 0.71700001 -1.835 9
3.0150001 0.58499998 -1.854 7
3.1489999 0.60500002 -1.848 8
3.299 0.62699997 -1.848 8
3.4560001 0.65100002 -1.846 7
3.618 0.676 -1.8430001 8
3.78 0.70200002 -1.836 8
0 0 0 0
3.1070001 0.59200001 -1.847 7
3.2550001 0.61400002 -1.846 8
3.4100001 0.63800001 -1.845 8
3.5769999 0.66299999 -1.846 8
3.74 0.68800002 -1.84 8
1.612 0.308 -1.017 2
3.0769999 0.58200002 -1.852 7
3.2179999 0.602 -1.848 8
3.369 0.62400001 -1.846 8
3.523 0.64700001 -1.841 8
3.6930001 0.67299998 -1.841 8
1.5319999 0.28999999 -0.97899997 2
3.0369999 0.56900001 -1.851 6
3.1819999 0.58999997 -1.851 8
3.3239999 0.61000001 -1.844 7
3.4849999 0.634 -1.845 9
3.6489999 0.65799999 -1.842 8
1.483 0.27900001 -0.958 3
3.003 0.55800003 -1.852 6
3.142 0.57700002 -1.849 7
3.2869999 0.597 -1.845 8
3.4489999 0.62099999 -1.848 8
3.605 0.64399999 -1.842 8
1.4529999 0.27000001 -0.94999999 4
0 0 0 0
3.1070001 0.565 -1.85 7
3.2460001 0.58399999 -1.844 7
3.4030001 0.60600001 -1.844 8
3.5650001 0.62900001 -1.8430001 8
0 0 0 0
1.601 0.29100001 -1.01 1
3.0769999 0.55299997 -1.853 7
3.22 0.57300001 -1.85 7
3.3670001 0.59299999 -1.846 8
3.5220001 0.61400002 -1.842 8
0 0 0 0
1.544 0.278 -0.98500001 2
3.04 0.54100001 -1.851 7
3.184 0.56 -1.849 7
3.3280001 0.579 -1.845 8
3.4890001 0.60100001 -1.845 8
0 0 0 0
1.501 0.26699999 -0.96799999 3
3.006 0.528 -1.849 7
3.145 0.546 -1.846 7
3.299 0.56599998 -1.848 8
3.451 0.58700001 -1.844 8
0 0 0 0
1.464 0.257 -0.954 5
2.974 0.51599997 -1.848 7
3.115 0.53399998 -1.848 6
3.2620001 0.55299997 -1.846 8
3.418 0.57300001 -1.846 7
0 0 0 0
0 0 0 0
0 0 0 0
3.0799999 0.51999998 -1.845 6
3.23 0.53899997 -1.846 7
3.3800001 0.55800003 -1.844 7
0 0 0 0
0 0 0 0
1.563 0.26300001 -0.991 2
3.059 0.509 -1.85 6
3.2019999 0.52700001 -1.848 7
3.3469999 0.54500002 -1.844 7
0 0 0 0
0 0 0 0
1.524 0.25299999 -0.97500002 2
3.0280001 0.49599999 -1.848 6
3.165 0.51300001 -1.844 7
3.3199999 0.53100002 -1.846 7
0 0 0 0
0 0 0 0
1.4960001 0.244 -0.96499997 2
3.0090001 0.48500001 -1.853 6
3.142 0.5 -1.846 7
3.2920001 0.51800001 -1.847 7
0 0 0 0
0 0 0 0
1.4630001 0.235 -0.95200002 3
2.948 0.46700001 -1.831 6
3.119 0.48800001 -1.849 6
3.2639999 0.505 -1.847 7
0 0 0 0
0 0 0 0
1.438 0.227 -0.94400001 4
0 0 0 0
3.0910001 0.47499999 -1.847 6
3.237 0.491 -1.847 7
0 0 0 0
0 0 0 0
0 0 0 0
1.5700001 0.23999999 -0.991 1
3.066 0.46200001 -1.846 6
3.2090001 0.47799999 -1.845 7
0 0 0 0
0 0 0 0
0 0 0 0
1.541 0.23100001 -0.97899997 2
3.0469999 0.44999999 -1.849 6
3.1900001 0.465 -1.847 7
0 0 0 0
0 0 0 0
0 0 0 0
1.511 0.222 -0.96700001 2
3.027 0.43799999 -1.849 7
3.164 0.45199999 -1.845 7
0 0 0 0
0 0 0 0
0 0 0 0
1.4960001 0.215 -0.96399999 2
2.9979999 0.42500001 -1.844 6
3.141 0.43799999 -1.844 7
0 0 0 0
0 0 0 0
0 0 0 0
1.473 0.207 -0.95599997 2
2.971 0.41100001 -1.839 8
3.1259999 0.426 -1.847 6
0 0 0 0
0 0 0 0
0 0 0 0
1.4529999 0.2 -0.94800001 2
0 0 0 0
3.112 0.414 -1.849 6
0 0 0 0
0 0 0 0
0 0 0 0
0 0 0 0
1.76 0.23199999 -1.102 2
3.095 0.40099999 -1.85 6
0 0 0 0
0 0 0 0
0 0 0 0
1.424 0.186 -0.94 2
1.576 0.20200001 -0.99199998 1
3.0739999 0.38800001 -1.847 6
0 0 0 0
0 0 0 0
0 0 0 0
1.419 0.18000001 -0.94099998 2
1.554 0.19400001 -0.98299998 2
3.0639999 0.37599999 -1.85 6
0 0 0 0
0 0 0 0
0 0 0 0
0 0 0 0
1.5319999 0.186 -0.97299999 2
3.056 0.36500001 -1.853 6
0 0 0 0
0 0 0 0
0 0 0 0
0 0 0 0
1.52 0.17900001 -0.97000003 2
3.039 0.35100001 -1.85 6
0 0 0 0
0 0 0 0
0 0 0 0
0 0 0 0
1.511 0.17200001 -0.96700001 2
3.0250001 0.33899999 -1.849 7
0 0 0 0
0 0 0 0
0 0 0 0
0 0 0 0
1.502 0.16599999 -0.96499997 2
3.0139999 0.32600001 -1.848 6
0 0 0 0
0 0 0 0
0 0 0 0
0 0 0 0
1.4960001 0.15899999 -0.96399999 2
3.0020001 0.31400001 -1.846 6
0 0 0 0
0 0 0 0
0 0 0 0
0 0 0 0
1.4859999 0.153 -0.95999998 2
0 0 0 0
0 0 0 0
0 0 0 0
0 0 0 0
0 0 0 0
1.477 0.146 -0.95599997 2
2.993 0.28999999 -1.849 9
0 0 0 0
0 0 0 0
0 0 0 0
0 0 0 0
1.465 0.139 -0.95099998 2
2.98 0.27700001 -1.844 8
0 0 0 0
0 0 0 0
0 0 0 0
0 0 0 0
1.466 0.134 -0.95200002 2
0 0 0 0
0 0 0 0
0 0 0 0
0 0 0 0
0 0 0 0
1.46 0.127 -0.949 2
0 0 0 0
0 0 0 0
0 0 0 0
0 0 0 0
0 0 0 0
1.4630001 0.122 -0.95200002 2
0 0 0 0
0 0 0 0
0 0 0 0
0 0 0 0
0 0 0 0
1.465 0.116 -0.954 2
2.033 0.15700001 -1.263 9
0 0 0 0
0 0 0 0
0 0 0 0
0 0 0 0
1.464 0.11 -0.95300001 2
2.0320001 0.148 -1.262 9
0 0 0 0
0 0 0 0
0 0 0 0
0 0 0 0
1.465 0.104 -0.95300001 2
0 0 0 0
0 0 0 0
0 0 0 0
0 0 0 0
0 0 0 0
1.467 0.097999997 -0.95300001 2
0 0 0 0
0 0 0 0
0 0 0 0
0 0 0 0
0 0 0 0
1.47 0.092 -0.954 2
