# .PCD v0.7 - Point Cloud Data file format
VERSION 0.7
FIELDS x y z intensity
SIZE 4 4 4 4
TYPE F F F F
COUNT 1 1 1 1
WIDTH 1679
HEIGHT 1
VIEWPOINT 0 0 0 1 0 0 0
POINTS 1679
DATA ascii
19.160999 -4.4860001 11.542 27
18.308001 -4.3390002 11.601 16
12.291 -2.9530001 8.1929998 4
16.606001 -4.0510001 11.65 11
19.518 -4.4299998 10.722 0
18.365 -4.21 10.61 41
19.080999 -4.4229999 11.594 33
18.332001 -4.3039999 11.714 26
12.295 -2.927 8.2650003 5
16.172001 -3.9119999 11.44 32
18.419001 -4.1370001 10.206 12
18.415001 -4.1789999 10.728 33
18.927 -4.3449998 11.594 32
17.948 -4.1729999 11.562 28
12.263 -2.892 8.3100004 9
0 0 0 0
18.226 -4.0479999 10.182 30
19.013 -4.2680001 11.166 18
18.851999 -4.2810001 11.64 25
17.898001 -4.118 11.619 12
12.422 -2.8989999 8.4829998 5
12.032 -2.8540001 8.6459999 21
18.261999 -4.0089998 10.283 53
19.268 -4.2750001 11.403 27
18.555 -4.1659999 11.543 40
17.825001 -4.0549998 11.658 0
12.568 -2.902 8.6450005 1
11.899 -2.793 8.6129999 25
18.524 -4.0180001 10.508 18
19.455999 -4.2649999 11.599 31
18.289 -4.0570002 11.461 35
18.916 -4.2529998 12.461 12
12.807 -2.9230001 8.8719997 1
12.253 -2.8429999 8.9320002 31
18.723 -4.0089998 10.696 52
19.440001 -4.2080002 11.67 28
18.325001 -4.0149999 11.561 22
18.934999 -4.2049999 12.557 19
12.823 -2.891 8.9420004 5
11.912 -2.7309999 8.7399998 15
18.690001 -3.947 10.749 37
18.827999 -4.0209999 11.377 37
19.613001 -4.2420001 12.453 0
12.337 -2.7060001 8.2320004 1
15.971 -3.5569999 11.207 21
12.022 -2.724 8.875 29
18.999001 -3.9579999 10.995 25
18.961 -3.994 11.528 48
19.496 -4.1589999 12.453 1
12.372 -2.6760001 8.3050003 3
0 0 0 0
11.981 -2.6789999 8.8959999 32
19.099001 -3.921 11.118 44
19.111 -3.9679999 11.686 48
19.406 -4.0809999 12.466 14
12.399 -2.645 8.3690004 7
12.222 -2.6489999 8.6730003 31
12.239 -2.7 9.1370001 25
19.462 -3.934 11.393 42
19.532 -3.994 12.008 8
19.382999 -4.0159998 12.516 46
12.29 -2.5829999 8.3389997 4
12.745 -2.7219999 9.0900002 38
9.0209999 -1.961 6.7680001 0
19.459 -3.8710001 11.449 40
19.320999 -3.8889999 11.937 0
0 0 0 0
12.28 -2.543 8.3710003 2
12.729 -2.6789999 9.1210003 14
9.0010004 -1.929 6.7839999 3
19.521999 -3.819 11.542 32
18.438 -3.651 11.444 13
18.212999 -3.655 11.871 0
11.664 -2.3759999 7.9860001 3
12.367 -2.5610001 8.8999996 0
9.0109997 -1.901 6.8210001 2
20.063 -3.859 11.913 22
18.214001 -3.5469999 11.353 20
20.112 -3.9690001 13.163 21
11.641 -2.332 8.0030003 2
12.212 -2.4879999 8.823 2
12.054 -2.5020001 9.1590004 11
20.356001 -3.845 12.135 33
18.386999 -3.516 11.505 17
0 0 0 0
15.752 -3.1010001 10.868 29
12.182 -2.4389999 8.8319998 1
11.886 -2.4260001 9.0629997 11
20.218 -3.747 12.096 38
18.799 -3.5280001 11.804 38
18.212 -3.4660001 12.004 17
16.816999 -3.2509999 11.641 7
9.1789999 -1.8049999 6.677 1
9.2139997 -1.847 7.0469999 0
0 0 0 0
18.958 -3.4909999 11.94 52
18.226 -3.4030001 12.049 33
19.556 -3.7090001 13.576 33
9.198 -1.775 6.7090001 2
9.1590004 -1.802 7.0240002 2
19.169001 -3.414 11.539 29
18.794001 -3.3900001 11.87 46
18.252001 -3.3399999 12.098 36
19.518999 -3.6300001 13.584 28
9.2259998 -1.7460001 6.7449999 3
9.1440001 -1.7640001 7.0289998 9
19.084999 -3.3269999 11.516 16
19.318001 -3.4119999 12.229 21
12.041 -2.158 7.9990001 0
16.996 -3.096 11.853 28
9.2060003 -1.707 6.744 0
9.1759996 -1.735 7.0669999 0
19.194 -3.273 11.606 40
19.238001 -3.3239999 12.203 21
12.164 -2.1329999 8.0950003 1
16.938999 -3.0190001 11.833 33
11.868 -2.154 8.7080002 4
9.2309999 -1.709 7.1199999 0
19.045 -3.1719999 11.536 1
19.405001 -3.277 12.328 25
12.29 -2.1070001 8.191 4
16.931999 -2.95 11.845 8
9.2620001 -1.6440001 6.8039999 0
9.6490002 -1.747 7.4499998 0
20.316999 -3.3050001 12.322 32
19.367001 -3.1930001 12.318 21
12.318 -2.062 8.2189999 3
16.871 -2.872 11.812 13
9.342 -1.62 6.869 3
9.6870003 -1.714 7.4850001 0
20.408001 -3.2379999 12.388 34
19.584999 -3.1500001 12.466 23
12.416 -2.0280001 8.2889996 3
9.401 -1.562 6.586 0
9.2519999 -1.566 6.8049998 1
8.724 -1.508 6.7420001 9
20.122999 -3.112 12.222 40
19.124001 -2.9990001 12.178 6
12.422 -1.979 8.2950001 3
9.4350004 -1.529 6.6110001 1
9.276 -1.5319999 6.8239999 1
8.7399998 -1.473 6.7540002 16
0 0 0 0
19.256001 -2.9400001 12.262 33
12.44 -1.929 8.3070002 5
9.4289999 -1.488 6.605 2
9.302 -1.497 6.8400002 1
8.717 -1.433 6.7329998 19
18.854 -2.76 11.45 31
19.441999 -2.888 12.377 7
12.449 -1.878 8.309 3
9.4259996 -1.448 6.599 3
9.3100004 -1.4579999 6.8410001 1
8.7869997 -1.406 6.7820001 8
18.832001 -2.678 11.43 39
19.429001 -2.803 12.359 27
12.454 -1.827 8.3050003 2
9.4490004 -1.411 6.6090002 2
9.349 -1.423 6.862 1
8.8129997 -1.3710001 6.7930002 18
19.018 -2.625 11.532 29
19.441 -2.723 12.353 3
12.457 -1.773 8.2969999 1
9.4209995 -1.3660001 6.5799999 3
9.401 -1.39 6.8899999 0
8.8199997 -1.334 6.7880001 26
19.259001 -2.575 11.662 39
19.603001 -2.661 12.438 1
12.478 -1.722 8.2980003 1
9.4490004 -1.3279999 6.5879998 3
12.536 -1.798 9.1709995 8
8.823 -1.294 6.776 3
19.429001 -2.5150001 11.745 34
20.471001 -2.6900001 12.965 9
12.485 -1.669 8.2860003 1
9.4619999 -1.288 6.5830002 2
12.706 -1.766 9.2740002 6
8.7639999 -1.2460001 6.7140002 15
19.261999 -2.4089999 11.619 33
20.555 -2.612 12.989 1
12.529 -1.62 8.2959995 0
9.4799995 -1.249 6.5799999 1
8.9110003 -1.198 6.487 0
8.743 -1.2029999 6.6799998 20
19.466999 -2.3510001 11.714 32
20.254 -2.4849999 12.766 10
12.548 -1.567 8.2860003 0
9.4630003 -1.205 6.5489998 2
12.13 -1.577 8.8039999 23
8.7469997 -1.164 6.6620002 17
19.669001 -2.29 11.801 47
19.594 -2.3180001 12.313 24
21.84 -2.631 14.378 26
9.4610004 -1.1619999 6.527 0
11.981 -1.503 8.6660004 23
8.8699999 -1.14 6.7309999 19
19.471001 -2.1819999 11.645 34
20.181999 -2.299 12.64 36
21.388 -2.48 14.031 41
9.4809999 -1.122 6.5170002 1
8.9659996 -1.084 6.4619999 1
8.7910004 -1.0880001 6.645 15
19.718 -2.1210001 11.75 20
20.143 -2.2049999 12.57 40
19.042999 -2.1240001 12.446 3
9.4960003 -1.08 6.5019999 1
12.274 -1.427 8.809 34
8.6370001 -1.029 6.5009999 8
19.257 -1.9859999 11.431 29
20.517 -2.154 12.751 33
19.804001 -2.118 12.89 41
9.474 -1.035 6.4590001 2
12.565 -1.404 8.9779997 37
8.5679998 -0.98100001 6.4200001 2
17.360001 -1.715 10.26 0
20.528 -2.063 12.701 24
19.152 -1.9630001 12.409 14
9.5249996 -0.99699998 6.4640002 1
12.912 -1.382 9.1820002 39
8.6999998 -0.95499998 6.4860001 18
17.372999 -1.64 10.219 9
0 0 0 0
18.975 -1.86 12.234 29
9.4989996 -0.95099998 6.414 2
12.864 -1.319 9.1000004 32
8.6920004 -0.91399997 6.4460001 5
17.389 -1.564 10.178 24
20.889 -1.914 12.798 36
19.014 -1.777 12.196 27
9.5059996 -0.90799999 6.3839998 2
12.816 -1.2539999 9.0170002 35
12.402 -1.2460001 9.1459999 33
17.362 -1.485 10.107 29
20.893 -1.822 12.731 4
13.475 -1.199 8.5950003 24
9.5530005 -0.86900002 6.3800001 2
12.918 -1.205 9.0369997 37
10.994 -1.052 8.059 11
17.436001 -1.415 10.092 21
20.962 -1.734 12.698 0
13.552 -1.146 8.5930004 31
9.5480003 -0.82599998 6.3379998 1
13.184 -1.169 9.165 36
10.94 -0.99599999 7.9679999 14
17.403999 -1.335 10.012 20
0 0 0 0
13.756 -1.099 8.6669998 28
13.201 -1.081 8.7060003 17
12.774 -1.073 8.8219995 31
0 0 0 0
19.691999 -1.423 11.254 45
17.237 -1.273 10.309 2
13.499 -1.0190001 8.4490004 40
13.1 -1.013 8.5819998 4
12.759 -1.013 8.7510004 36
11.06 -0.903 7.9450002 38
19.813 -1.345 11.247 35
14.144 -0.98199999 8.401 0
13.54 -0.96100003 8.415 40
13.705 -0.99800003 8.9139996 23
12.984 -0.972 8.8409996 43
11.916 -0.91799998 8.4969997 33
17.700001 -1.124 9.9759998 4
14.039 -0.912 8.2790003 19
13.559 -0.903 8.3660002 19
13.642 -0.93300003 8.8079996 38
13.19 -0.92900002 8.915 11
11.886 -0.86199999 8.4110003 25
14.214 -0.84299999 7.9510002 3
14.062 -0.85299999 8.2299995 43
13.934 -0.86699998 8.533 11
13.495 -0.86299998 8.6470003 39
13.202 -0.87 8.8540001 31
11.635 -0.79100001 8.1689997 35
14.216 -0.78100002 7.8909998 1
14.029 -0.79100001 8.1470003 43
13.971 -0.80900002 8.4879999 19
13.466 -0.80199999 8.5600004 42
13.193 -0.81 8.7749996 31
10.973 -0.69599998 7.6399999 0
17.910999 -0.90899998 9.8610001 41
13.988 -0.72799999 8.0570002 35
13.959 -0.74800003 8.4110003 15
14.064 -0.77700001 8.8660002 14
13.716 -0.78200001 9.0469999 34
12.806 -0.75599998 8.8400002 35
18.431999 -0.85799998 10.062 24
14.044 -0.67199999 8.0200005 38
13.971 -0.68800002 8.3470001 37
14.31 -0.72799999 8.9429998 27
13.408 -0.70599997 8.7670002 34
13.077 -0.713 8.9469995 41
0 0 0 0
14.107 -0.61500001 7.9840002 38
13.971 -0.63 8.2720003 36
13.806 -0.64399999 8.5509996 37
12.587 -0.60799998 8.1560001 0
12.414 -0.62199998 8.4169998 31
18.771999 -0.71799999 10.064 22
14.175 -0.56 7.9510002 3
13.986 -0.57099998 8.2049999 23
14.137 -0.59899998 8.6759996 10
14.462 -0.63700002 9.2840004 41
12.394 -0.56800002 8.3240004 28
18.92 -0.64600003 10.046 21
18.237 -0.64499998 10.131 23
13.956 -0.51200002 8.1099997 0
13.76 -0.52499998 8.3640003 37
12.993 -0.51700002 8.2600002 20
13.141 -0.54500002 8.7379999 39
18.910999 -0.56800002 9.9420004 29
18.341999 -0.57300001 10.089 33
18.278999 -0.59500003 10.516 27
13.889 -0.472 8.3579998 33
12.551 -0.44499999 7.9000001 33
12.534 -0.46599999 8.2519999 38
18.825001 -0.491 9.7980003 34
18.476 -0.50400001 10.06 53
18.587999 -0.53100002 10.587 17
13.945 -0.417 8.3070002 40
12.798 -0.40200001 7.973 31
12.413 -0.41 8.0880003 36
18.764 -0.41600001 9.6630001 42
18.531 -0.43200001 9.9849997 40
18.650999 -0.458 10.512 20
18.965 -0.49000001 11.18 20
12.802 -0.34999999 7.8909998 39
12.296 -0.35499999 7.927 27
18.862 -0.34400001 9.6070004 31
18.521999 -0.359 9.8719997 35
18.329 -0.377 10.219 46
12.601 -0.27599999 7.348 0
12.808 -0.29800001 7.8099999 19
12.574 -0.31099999 8.0179996 28
18.739 -0.27000001 9.4390001 51
18.582001 -0.289 9.7939997 41
18.264999 -0.30500001 10.07 42
12.755 -0.229 7.355 31
12.608 -0.244 7.6040001 33
12.472 -0.25999999 7.8649998 37
18.726 -0.2 9.3240004 50
18.773001 -0.22 9.7819996 42
18.273001 -0.235 9.9610004 38
12.832 -0.18099999 7.316 1
12.629 -0.19499999 7.5289998 38
12.505 -0.211 7.796 31
18.841 -0.132 9.2700005 51
18.826 -0.15099999 9.6940002 39
18.433001 -0.168 9.9300003 27
17.945 -0.185 10.111 19
12.627 -0.146 7.4400001 29
12.5 -0.162 7.7020001 22
18.731001 -0.061000001 9.1029997 10
18.465 -0.079999998 9.3929996 40
18.688999 -0.101 9.9469995 26
18.177 -0.12 10.12 38
12.487 -0.097999997 7.27 16
12.436 -0.114 7.5700002 34
18.742001 0.0049999999 8.9940004 0
18.507 -0.013 9.2980003 34
18.729 -0.033 9.8459997 36
18.160999 -0.052999999 9.9879999 47
12.59 -0.052000001 7.2410002 35
12.429 -0.067000002 7.474 41
21.410999 0.079999998 10.143 52
18.545 0.050999999 9.198 48
18.834999 0.032000002 9.7770004 39
18.636999 0.011 10.12 19
12.62 -0.0060000001 7.1659999 35
12.481 -0.022 7.4099998 40
21.452999 0.155 10.028 34
18.629999 0.116 9.1199999 25
18.528999 0.097000003 9.4940004 26
18.775 0.077 10.065 29
12.643 0.037 7.0879998 3
12.446 0.021 7.2950001 32
21.893999 0.23100001 10.097 40
21.327999 0.205 10.301 35
18.474001 0.15800001 9.3409996 32
18.937 0.14300001 10.018 39
18.107 0.116 10.019 48
12.482 0.064999998 7.2210002 30
21.584999 0.29800001 9.8149996 61
21.504 0.27700001 10.243 4
18.555 0.221 9.2530003 39
18.975 0.206 9.9029999 36
18.256001 0.17900001 9.9650002 37
12.502 0.108 7.1360002 20
21.577999 0.368 9.6709995 59
21.622 0.34900001 10.154 19
18.622 0.28299999 9.1569996 45
19.115999 0.271 9.8380003 11
18.872 0.248 10.16 14
12.693 0.153 7.145 33
21.739 0.43900001 9.6009998 56
21.535 0.41499999 9.9689999 25
18.632 0.34200001 9.033 6
18.436001 0.32100001 9.3549995 12
18.903999 0.30899999 10.037 29
12.694 0.19400001 7.0479999 17
21.825001 0.50700003 9.4940004 47
21.777 0.48699999 9.9309998 50
21.368 0.458 10.208 37
18.531 0.38 9.2679996 28
19.000999 0.37 9.9440002 50
22.08 0.40700001 12.085 5
21.702 0.56900001 9.2969999 33
21.84 0.55400002 9.8109999 57
21.496 0.52499998 10.119 39
18.584 0.43700001 9.1599998 36
19.195999 0.43200001 9.9020004 22
0 0 0 0
21.392 0.62199998 9.0200005 56
21.945 0.61900002 9.7069998 56
21.691999 0.59299999 10.055 54
21.243 0.56199998 10.313 1
18.462999 0.47 9.382 2
18.936001 0.463 10.066 19
21.739 0.69400001 9.0190001 41
21.775 0.676 9.4799995 58
21.896999 0.662 9.9940004 43
21.452 0.62900001 10.256 14
18.552 0.52600002 9.2849998 12
19.018999 0.52100003 9.9589996 17
21.643 0.75 8.8330002 61
21.735001 0.73400003 9.309 54
21.922001 0.722 9.8470001 51
21.528 0.69 10.132 53
18.546 0.57700002 9.1400003 6
19.112 0.57700002 9.8559999 0
21.731001 0.81 8.7180004 49
21.669001 0.79000002 9.1289997 60
22.038 0.78500003 9.7390003 29
21.665001 0.75199997 10.036 46
21.292 0.72100002 10.329 37
24.927999 0.81999999 12.655 0
21.405001 0.852 8.4390001 48
21.851999 0.85299999 9.0489998 55
21.511999 0.82099998 9.349 41
21.844 0.81599998 9.9510002 53
21.384001 0.78100002 10.205 44
24.908001 0.88700002 12.443 22
21.488001 0.91000003 8.3210001 60
21.738001 0.90200001 8.8459997 33
21.664 0.88099998 9.2539997 45
21.754 0.86699998 9.7460003 32
21.518 0.83899999 10.102 36
21.341999 0.81300002 10.489 13
21.528 0.96200001 8.1859999 60
21.292 0.935 8.5120001 44
21.832001 0.94099998 9.165 56
21.973 0.92900002 9.677 31
21.737 0.90100002 10.035 14
21.256001 0.86299998 10.276 43
21.886999 1.028 8.1689997 63
21.254999 0.98100001 8.3430004 39
21.412001 0.972 8.8299999 59
21.705999 0.96700001 9.3950005 24
21.674 0.94800001 9.835 50
21.299999 0.91399997 10.125 46
21.827999 1.074 7.9910002 63
21.159 1.024 8.1529999 63
21.476 1.023 8.6969995 27
21.737 1.018 9.2410002 35
21.709999 0.99900001 9.6789999 44
21.222 0.95899999 9.9139996 50
21.955 1.127 7.8800001 50
21.74 1.099 8.2159996 62
21.035 1.0470001 8.3579998 65
21.271999 1.0420001 8.8769999 59
21.740999 1.048 9.5190001 20
21.364 1.013 9.8039999 39
21.778999 1.1619999 7.6589999 38
21.886 1.151 8.1099997 61
21.131001 1.095 8.2370005 57
21.531 1.099 8.8190002 61
21.667 1.089 9.3140001 39
21.464001 1.061 9.6759996 46
21.466 1.186 7.3940001 46
21.754 1.1849999 7.901 61
21.367001 1.148 8.1689997 58
21.441999 1.136 8.6190004 59
21.275999 1.1109999 8.9799995 41
21.511999 1.1059999 9.5220003 50
21.621 1.233 7.2930002 56
21.393 1.204 7.6129999 56
21.583 1.199 8.0889997 56
21.000999 1.151 8.2790003 50
21.475 1.161 8.8929996 51
21.537001 1.148 9.3590002 49
21.475 1.263 7.0879998 57
21.280001 1.235 7.414 61
21.115999 1.21 7.7540002 64
21.490999 1.215 8.3059998 55
20.617001 1.151 8.3739996 58
21.441 1.1799999 9.1429996 45
21.371 1.291 6.8990002 61
21.18 1.2640001 7.223 63
21.257999 1.253 7.6469998 62
21.153999 1.2309999 8.0129995 63
20.743999 1.192 8.2639999 63
21.238001 1.204 8.8839998 51
21.297001 1.319 6.7210002 60
20.888 1.279 6.9689999 58
21.103001 1.276 7.4310002 61
21.188 1.266 7.8610001 59
21.724001 1.2819999 8.4809999 55
20.754 1.21 8.5120001 48
21.813 1.382 6.724 58
20.993 1.3150001 6.849 64
21.070999 1.3049999 7.2600002 58
21.115 1.293 7.6700001 55
21.311001 1.289 8.1499996 71
20.955999 1.253 8.4239998 65
21.671 1.403 6.5229998 51
21.284 1.362 6.7859998 60
20.863001 1.3200001 7.0300002 59
20.923 1.309 7.4380002 55
21.113001 1.306 7.9060001 61
21.385 1.307 8.4219999 61
21.539 1.421 6.3249998 55
21.728001 1.418 6.7639999 56
21.393999 1.38 7.0469999 57
21.040001 1.3430001 7.3179998 59
20.832001 1.314 7.638 50
20.778 1.296 8.0150003 28
21.628 1.451 6.1929998 40
21.761 1.444 6.6139998 29
21.851999 1.434 7.033 60
21.055 1.367 7.1599998 62
20.792 1.336 7.4580002 52
21.011999 1.336 7.9359999 58
21.427 1.46 5.9790001 18
21.507999 1.45 6.375 43
21.764 1.451 6.8390002 55
21.438999 1.414 7.125 59
21.045 1.374 7.3829999 62
20.819 1.344 7.6960001 52
21.146 1.46 5.7470002 47
21.323 1.457 6.164 52
21.413 1.448 6.5669999 34
21.785 1.4579999 7.072 60
20.959 1.388 7.1890001 57
20.787001 1.363 7.5180001 54
21.416 1.4960001 5.664 34
21.327999 1.475 6.007 20
21.388 1.464 6.3979998 74
21.858999 1.4809999 6.9289999 56
21.540001 1.444 7.2199998 59
21.077 1.399 7.454 55
21.659 1.529 5.5710001 26
21.167999 1.479 5.8060002 41
21.202999 1.467 6.1830001 69
21.322001 1.461 6.5949998 57
21.643999 1.467 7.0840001 59
20.971001 1.408 7.2470002 54
21.302 1.517 5.323 19
21.353001 1.506 5.697 54
21.306 1.488 6.052 40
21.216 1.467 6.3979998 54
21.666 1.483 6.921 44
21.426001 1.452 7.2350001 55
21.327999 1.53 5.1739998 56
21.690001 1.54 5.6259999 45
21.266001 1.4960001 5.8800001 29
21.166 1.474 6.2210002 52
21.347 1.472 6.6529999 64
21.669001 1.48 7.1430001 44
21.184999 1.529 4.9840002 56
21.607 1.544 5.4450002 19
21.344999 1.51 5.7420001 52
21.153 1.482 6.0549998 57
21.115999 1.465 6.415 41
21.539 1.4809999 6.928 44
21.605 1.566 4.9250002 52
21.243999 1.525 5.1960001 59
21.664 1.54 5.665 50
21.35 1.503 5.948 25
21.101999 1.471 6.2459998 34
21.361 1.475 6.7020001 61
21.917999 1.5930001 4.836 43
21.179001 1.524 5.0240002 57
21.596001 1.539 5.4850001 17
21.278 1.502 5.7670002 48
21.108999 1.476 6.0869999 57
21.08 1.461 6.4489999 53
21.733999 1.582 4.6399999 32
21.539 1.552 4.9510002 53
21.263 1.517 5.2420001 53
21.517 1.521 5.6700001 50
21.433001 1.501 6.0149999 23
21.195999 1.471 6.3179998 44
21.982 1.6 4.5320001 19
21.962999 1.582 4.8860002 38
21.377001 1.525 5.1110001 55
21.575001 1.525 5.52 18
21.165001 1.482 5.776 39
21.163 1.469 6.1420002 55
22.444 1.631 4.4640002 5
21.844 1.572 4.6999998 32
21.544001 1.536 4.9910002 41
21.193001 1.4960001 5.2620001 30
21.441 1.499 5.6880002 37
21.224001 1.47 5.994 18
21.316 1.544 4.086 0
0 0 0 0
21.82 1.55 4.8930001 30
21.375999 1.505 5.1479998 57
21.759001 1.517 5.6059999 36
21.177 1.4630001 5.816 37
21.280001 1.535 3.925 1
20.468 1.462 4.1040001 1
22.243 1.574 4.822 49
21.447001 1.503 5.0029998 45
21.478001 1.4910001 5.369 19
21.16 1.456 5.6479998 31
21.289 1.526 3.7739999 1
26.761999 1.9 5.1719999 51
22.195 1.5599999 4.6479998 32
21.857 1.522 4.9349999 15
21.514999 1.484 5.2150002 59
21.795 1.489 5.6459999 44
21.292 1.515 3.6199999 1
21.246 1.497 3.95 1
22.179001 1.548 4.4809999 34
22.245001 1.5369999 4.8579998 23
21.65 1.482 5.085 35
21.716999 1.473 5.4640002 37
26.798 1.891 4.3670001 10
21.224001 1.482 3.7939999 0
22.176001 1.534 4.3210001 55
22.198999 1.52 4.6859999 31
21.903999 1.4859999 4.9809999 58
21.438 1.441 5.2309999 57
27.091 1.891 4.2220001 2
26.811001 1.852 4.6009998 29
22.18 1.517 4.1589999 2
22.184 1.503 4.5180001 14
22.084999 1.482 4.8579998 32
21.704 1.443 5.131 55
26.384001 1.8200001 3.924 1
26.356001 1.799 4.335 23
26.639999 1.801 4.8039999 28
22.174999 1.484 4.355 13
22.070999 1.462 4.691 55
21.728001 1.426 4.973 48
26.330999 1.791 3.7309999 1
26.431 1.779 4.158 25
26.353001 1.756 4.5609999 38
26.843 1.771 5.0749998 41
21.882999 1.429 4.4889998 18
21.867001 1.415 4.842 50
45.605999 3.0539999 6.1409998 48
26.384001 1.748 3.9630001 17
26.419001 1.732 4.3829999 18
0 0 0 0
22.136999 1.4220001 4.3790002 0
21.979 1.399 4.7030001 40
26.503 1.744 3.3840001 2
26.434999 1.721 3.7850001 1
26.504999 1.707 4.2080002 4
26.707001 1.702 4.6620002 27
0 0 0 0
21.716999 1.357 4.4860001 7
26.593 1.716 3.21 1
45.789001 2.9230001 6.2319999 75
46.955002 2.9660001 7.1240001 81
26.347 1.646 4.4109998 21
25.617001 1.584 4.6939998 24
25.660999 1.571 5.1129999 66
26.621 1.682 3.03 1
26.535999 1.658 3.4289999 1
46.837002 2.895 6.7789998 59
47.884998 2.927 7.677 67
25.736 1.556 4.5320001 38
25.921 1.551 4.9759998 56
44.563 2.75 4.7639999 72
46.120998 2.8139999 5.6370001 29
26.396999 1.592 3.635 0
46.261002 2.76 7.0900002 78
26.143999 1.5420001 4.4159999 62
25.452 1.485 4.7010002 71
26.388 1.586 2.638 1
25.959999 1.5420001 2.993 1
26.079 1.5319999 3.408 42
26.462 1.5369999 3.868 0
26.177 1.503 4.2360001 8
26.396 1.499 4.6849999 26
26.296 1.536 2.4489999 33
25.993 1.5 2.816 49
25.948999 1.48 3.21 70
26.146 1.474 3.638 34
26.094999 1.454 4.0370002 17
26.049 1.436 4.4380002 56
25.899 1.467 2.237 42
26.205 1.466 2.661 36
25.98 1.4349999 3.0339999 74
26.030001 1.421 3.441 27
26.087 1.4069999 3.852 16
26.139999 1.3940001 4.2670002 50
26.257 1.437 2.0899999 47
26.024 1.4069999 2.4660001 24
26.087999 1.392 2.8699999 31
26.056999 1.374 3.266 59
26.139999 1.3609999 3.6789999 22
26.059 1.341 4.072 44
25.452 1.3430001 1.8559999 53
25.862 1.346 2.2750001 82
26.184999 1.345 2.7019999 76
26.17 1.327 3.1010001 59
26.051001 1.304 3.4849999 54
25.92 1.2819999 3.869 51
25.414 1.2869999 1.683 57
25.67 1.2819999 2.086 82
26.129 1.288 2.5190001 63
26.184 1.273 2.9230001 10
25.964001 1.2460001 3.2969999 50
26.138 1.237 3.72 27
26.052 1.262 1.552 78
25.299 1.2079999 1.887 71
26.044001 1.226 2.335 24
26.261 1.219 2.7539999 48
26.225 1.201 3.1500001 27
26.117001 1.179 3.536 44
18.052 0.833 0.95700002 6
25.301001 1.15 1.72 72
25.708 1.152 2.1359999 71
25.665001 1.132 2.5190001 74
26.052 1.132 2.9519999 59
26.031 1.115 3.346 21
18.046 0.78899997 0.83700001 22
25.695999 1.1059999 1.576 83
25.582001 1.084 1.954 68
25.635 1.069 2.345 73
25.798 1.059 2.7490001 23
26.837 1.085 3.2679999 44
18.059999 0.74400002 0.72000003 9
25.966999 1.052 1.423 55
25.688999 1.024 1.793 62
25.511999 1 2.164 56
25.906 0.99900001 2.589 72
26.528 1.006 3.053 36
18.077 0.69800001 0.60500002 9
18.049999 0.685 0.87300003 8
26.08 0.972 1.651 72
25.618999 0.93699998 2.0050001 67
26.042999 0.93599999 2.431 77
26.474001 0.935 2.8699999 60
18.101999 0.64899999 0.48899999 4
18.031 0.63499999 0.75599998 25
26.127001 0.903 1.4859999 60
26.313 0.89200002 1.89 64
25.982 0.86500001 2.256 65
25.924 0.84600002 2.641 76
18.139 0.60000002 0.37599999 21
18.049 0.58499998 0.64200002 34
25.886999 0.82099998 1.3049999 74
26.062 0.81 1.7029999 69
25.893999 0.78799999 2.079 56
26.450001 0.78799999 2.52 41
26 0.78399998 0.375 37
25.669001 0.75599998 0.74900001 73
26.031 0.75 1.147 61
25.816 0.727 1.521 24
25.999001 0.71600002 1.92 79
25.975 0.69800001 2.306 75
25.586 0.69400001 0.207 75
25.575001 0.676 0.58499998 88
26.125 0.67400002 0.986 54
25.542 0.64200002 1.3430001 75
25.500999 0.625 1.72 64
26.452999 0.63200003 2.178 68
25.413 0.61000001 0.048 36
25.518999 0.59500003 0.42500001 81
25.474001 0.57700002 0.79900002 64
25.617001 0.56400001 1.184 88
25.551001 0.546 1.5599999 75
25.750999 0.53399998 1.956 40
25.046 0.51999998 -0.107 68
25.898001 0.51999998 0.27000001 61
25.872999 0.50300002 0.653 81
25.919001 0.48699999 1.0369999 41
25.558001 0.46399999 1.401 71
25.424999 0.44499999 1.77 59
25.181999 0.43799999 -0.26300001 78
25.48 0.42699999 0.11 87
25.632 0.41299999 0.48800001 80
25.677999 0.398 0.86900002 72
25.91 0.38499999 1.26 73
25.74 0.36500001 1.631 63
25.24 0.35299999 -0.41600001 72
25.594999 0.34099999 -0.045000002 89
25.934 0.329 0.336 84
25.826 0.31099999 0.71499997 69
26.294001 0.301 1.117 67
25.24 0.27200001 1.444 49
25.403 0.266 -0.57099998 50
25.743999 0.252 -0.20100001 77
26.131001 0.23999999 0.18099999 68
25.396 0.21699999 0.54900002 75
26.068001 0.206 0.949 44
25.261 0.184 1.291 72
25.146999 0.17299999 -0.71399999 71
25.139 0.156 -0.34400001 69
25.434999 0.142 0.025 81
25.348 0.125 0.39700001 84
26.110001 0.113 0.79400003 51
25.379999 0.094999999 1.146 70
25.643 0.081 -0.87900001 75
25.072001 0.063000001 -0.491 88
26.030001 0.050000001 -0.126 84
26.049999 0.033 0.255 61
25.635 0.016000001 0.62699997 86
25.094999 0 0.98299998 66
25.516001 -0.016000001 -1.023 46
24.903999 -0.030999999 -0.63300002 68
25.209 -0.046999998 -0.27000001 89
25.297001 -0.063000001 0.098999999 81
25.195 -0.079000004 0.46799999 75
25.349001 -0.093999997 0.84399998 46
24.938999 -0.112 -1.1440001 57
25.215 -0.13 -0.78600001 88
25.365 -0.146 -0.419 77
26.190001 -0.168 -0.048 46
25.504999 -0.17900001 0.32600001 46
25.358999 -0.19400001 0.69499999 46
19.597 -0.167 -1.011 98
25.334 -0.23199999 -0.935 55
25.26 -0.24600001 -0.56099999 73
24.934 -0.259 -0.18799999 71
25.370001 -0.28 0.178 68
25.635 -0.29800001 0.55500001 49
19.565001 -0.24699999 -1.12 54
19.559999 -0.259 -0.833 35
25.445 -0.35299999 -0.70999998 86
25.25 -0.36500001 -0.33399999 80
25.330999 -0.38299999 0.033 76
25 -0.39300001 0.39899999 59
19.582001 -0.329 -1.23 104
19.580999 -0.34200001 -0.94300002 54
25.587 -0.463 -0.85900003 58
25.264 -0.472 -0.477 67
25.386 -0.49000001 -0.108 69
24.667999 -0.491 0.25400001 73
19.594999 -0.414 -1.34 63
19.596001 -0.42500001 -1.052 57
19.562 -0.43700001 -0.76300001 1
25.768 -0.58999997 -0.62800002 48
24.968 -0.58700001 -0.244 68
24.691999 -0.59600002 0.119 73
19.542999 -0.498 -1.443 50
19.603001 -0.50999999 -1.158 49
19.607 -0.52200001 -0.87099999 51
26.913 -0.73299998 -0.80199999 47
24.674999 -0.68800002 -0.375 72
25.865 -0.73699999 -0.017000001 98
19.547001 -0.58600003 -1.549 49
19.625999 -0.59899998 -1.266 56
19.613001 -0.611 -0.97799999 49
25.538 -0.81 -0.89899999 26
25.931 -0.838 -0.53399998 43
24.811001 -0.81699997 -0.15099999 51
19.257999 -0.66500002 -1.6289999 48
19.565001 -0.68699998 -1.367 7
24.414 -0.87099999 -1.347 68
24.948999 -0.90499997 -1.012 67
25.368 -0.93599999 -0.65899998 46
25.186001 -0.94499999 -0.28799999 99
18.275999 -0.71600002 -1.642 48
21.188999 -0.84200001 -1.592 52
25.149 -1.0140001 -1.5190001 38
24.666 -1.01 -1.13 69
24.725 -1.027 -0.77200001 79
26.531 -1.118 -0.44299999 29
17.421 -0.76599997 -1.6569999 29
20.309 -0.90399998 -1.632 49
23.306999 -1.05 -1.529 22
24.666 -1.126 -1.257 56
24.496 -1.133 -0.89099997 80
24.905001 -1.166 -0.54400003 71
16.527 -0.80599999 -1.656 14
18.797001 -0.92699999 -1.6059999 22
21.905001 -1.092 -1.549 60
24.346001 -1.228 -1.365 71
24.441999 -1.247 -1.0140001 69
24.921 -1.286 -0.671 67
15.72 -0.84399998 -1.655 13
18.389 -0.99699998 -1.664 51
21.417 -1.173 -1.623 52
24.115 -1.335 -1.474 58
24.427999 -1.3660001 -1.136 32
24.829 -1.404 -0.79500002 54
14.984 -0.88 -1.653 13
17.448999 -1.034 -1.6670001 20
20.278 -1.2130001 -1.6390001 30
19.830999 -1.197 -1.311 4
19.799 -1.207 -1.02 3
19.733 -1.215 -0.72899997 26
14.352 -0.91600001 -1.654 14
16.445 -1.059 -1.652 17
18.983 -1.233 -1.627 38
19.733 -1.2920001 -1.402 26
19.714001 -1.302 -1.112 26
19.697001 -1.313 -0.824 23
13.844 -0.95599997 -1.663 15
15.695 -1.092 -1.653 13
18.643 -1.307 -1.688 50
19.707001 -1.392 -1.495 18
19.701 -1.404 -1.207 20
19.701 -1.416 -0.92000002 23
13.357 -0.99299997 -1.669 13
15.019 -1.124 -1.653 14
17.566 -1.324 -1.674 22
19.702999 -1.4960001 -1.5880001 21
19.716 -1.508 -1.301 21
19.716 -1.52 -1.013 22
12.937 -1.0319999 -1.678 12
14.392 -1.155 -1.653 14
16.577 -1.339 -1.658 15
19.315001 -1.5700001 -1.648 28
19.735001 -1.6160001 -1.395 20
19.726 -1.626 -1.1059999 20
12.549 -1.069 -1.686 12
13.904 -1.192 -1.661 14
15.82 -1.363 -1.655 13
18.504 -1.604 -1.663 49
19.733999 -1.722 -1.484 20
19.725 -1.733 -1.196 21
12.209 -1.108 -1.697 12
13.448 -1.227 -1.668 13
15.152 -1.39 -1.655 13
17.683001 -1.632 -1.67 33
19.712999 -1.83 -1.573 21
19.747 -1.844 -1.2869999 18
11.888 -1.147 -1.706 13
13.032 -1.263 -1.675 12
14.57 -1.419 -1.6569999 15
16.809 -1.646 -1.663 13
19.360001 -1.9069999 -1.631 31
22.214001 -2.201 -1.5470001 65
11.58 -1.184 -1.714 12
12.662 -1.3 -1.684 12
14.086 -1.4529999 -1.664 14
16.077 -1.666 -1.661 13
18.690001 -1.947 -1.656 48
21.693001 -2.273 -1.605 53
11.307 -1.222 -1.724 11
12.332 -1.3380001 -1.694 13
13.65 -1.487 -1.6720001 12
15.408 -1.686 -1.658 12
17.962999 -1.975 -1.668 42
20.950001 -2.3150001 -1.638 41
11.04 -1.258 -1.73 11
12.036 -1.376 -1.705 13
13.27 -1.523 -1.681 11
14.846 -1.711 -1.66 13
17.254999 -1.998 -1.675 19
20.075001 -2.336 -1.654 39
10.795 -1.294 -1.737 12
11.74 -1.4119999 -1.712 13
12.896 -1.557 -1.687 12
14.377 -1.742 -1.6670001 13
16.476 -2.0050001 -1.6670001 12
19.538 -2.3889999 -1.689 42
10.58 -1.3329999 -1.747 12
11.467 -1.449 -1.72 13
12.555 -1.592 -1.694 12
13.947 -1.774 -1.673 13
15.829 -2.0220001 -1.665 13
18.672001 -2.3959999 -1.6900001 48
10.37 -1.37 -1.755 12
11.212 -1.485 -1.727 13
12.257 -1.6289999 -1.7029999 13
13.563 -1.809 -1.682 12
15.257 -2.0420001 -1.666 12
17.813999 -2.3940001 -1.682 39
10.182 -1.409 -1.7640001 11
10.98 -1.523 -1.735 12
11.989 -1.6670001 -1.7130001 13
13.195 -1.841 -1.687 12
14.78 -2.0680001 -1.67 13
17.079 -2.398 -1.677 15
9.9840002 -1.443 -1.768 11
10.759 -1.559 -1.7410001 13
11.725 -1.7029999 -1.719 13
12.876 -1.875 -1.6950001 12
14.304 -2.0899999 -1.669 12
16.375999 -2.401 -1.668 17
9.7939997 -1.477 -1.771 12
10.561 -1.596 -1.749 12
11.488 -1.7410001 -1.728 12
12.573 -1.91 -1.702 13
13.956 -2.1270001 -1.6799999 12
15.814 -2.4189999 -1.669 14
9.6350002 -1.516 -1.779 11
10.366 -1.6339999 -1.755 12
11.249 -1.777 -1.733 11
12.304 -1.948 -1.71 12
13.604 -2.1600001 -1.687 12
15.283 -2.434 -1.668 13
9.4720001 -1.552 -1.784 10
10.208 -1.675 -1.765 11
11.04 -1.8150001 -1.7410001 13
12.045 -1.9859999 -1.717 12
13.276 -2.1949999 -1.693 12
14.864 -2.464 -1.674 12
9.3030005 -1.585 -1.786 10
10.027 -1.711 -1.77 11
10.842 -1.854 -1.748 12
11.815 -2.0239999 -1.725 12
12.981 -2.2290001 -1.699 12
14.441 -2.487 -1.675 12
9.1709995 -1.624 -1.793 10
9.8549995 -1.747 -1.774 12
10.665 -1.8940001 -1.756 12
11.588 -2.062 -1.7309999 11
12.704 -2.266 -1.706 12
14.1 -2.523 -1.683 12
9.0450001 -1.663 -1.799 12
9.7139997 -1.788 -1.781 11
10.495 -1.934 -1.763 12
11.383 -2.102 -1.738 12
12.465 -2.306 -1.714 12
13.758 -2.5510001 -1.6849999 12
8.9200001 -1.7 -1.804 11
9.573 -1.826 -1.7869999 12
10.324 -1.972 -1.767 13
11.173 -2.1370001 -1.7410001 11
12.226 -2.3429999 -1.719 11
13.473 -2.589 -1.693 11
8.7969999 -1.737 -1.808 9
9.4469995 -1.8660001 -1.794 10
10.175 -2.0120001 -1.774 12
11.009 -2.1800001 -1.75 11
12.015 -2.3840001 -1.727 11
13.211 -2.6270001 -1.699 11
8.6929998 -1.776 -1.814 11
9.3290005 -1.906 -1.8 12
10.027 -2.0510001 -1.779 11
10.835 -2.2190001 -1.755 12
11.796 -2.4200001 -1.73 10
12.976 -2.6670001 -1.706 11
8.5959997 -1.8150001 -1.8200001 10
9.2049999 -1.9450001 -1.804 11
9.8929996 -2.092 -1.785 11
10.683 -2.2620001 -1.762 13
11.632 -2.467 -1.74 10
12.724 -2.704 -1.71 11
8.4969997 -1.854 -1.825 10
9.0880003 -1.984 -1.808 11
9.7740002 -2.135 -1.791 11
10.535 -2.303 -1.767 13
11.449 -2.507 -1.744 10
12.523 -2.7479999 -1.717 11
8.4049997 -1.8940001 -1.83 10
8.9849997 -2.0250001 -1.813 11
9.6529999 -2.177 -1.796 10
10.39 -2.345 -1.772 12
11.242 -2.5409999 -1.743 10
12.338 -2.793 -1.725 11
8.3360004 -1.937 -1.8380001 11
8.9020004 -2.069 -1.821 12
9.5530005 -2.221 -1.803 11
10.289 -2.3940001 -1.7819999 11
11.105 -2.5880001 -1.751 11
12.15 -2.8369999 -1.73 11
8.257 -1.979 -1.844 11
8.8100004 -2.1110001 -1.826 10
9.4549999 -2.266 -1.8099999 10
10.16 -2.438 -1.786 10
10.955 -2.631 -1.756 11
11.962 -2.8770001 -1.733 11
8.1820002 -2.02 -1.849 10
8.7299995 -2.155 -1.8329999 10
9.3590002 -2.3099999 -1.816 10
10.045 -2.4809999 -1.791 11
10.832 -2.678 -1.762 11
11.813 -2.925 -1.739 11
8.1260004 -2.0650001 -1.857 11
8.6719999 -2.2030001 -1.842 12
9.2889996 -2.3610001 -1.825 11
9.9460001 -2.529 -1.796 11
10.715 -2.727 -1.768 11
11.645 -2.9679999 -1.7410001 11
8.0830002 -2.1140001 -1.868 12
8.6280003 -2.256 -1.854 14
9.2049999 -2.4059999 -1.83 10
9.8590002 -2.579 -1.804 11
10.607 -2.777 -1.774 13
11.515 -3.0179999 -1.747 11
8.0509996 -2.1659999 -1.88 11
8.5629997 -2.302 -1.86 13
9.1239996 -2.4530001 -1.835 10
9.757 -2.6240001 -1.807 11
10.494 -2.8239999 -1.778 12
11.382 -3.0669999 -1.751 10
7.9949999 -2.21 -1.885 9
8.5190001 -2.3529999 -1.869 13
9.0609999 -2.5020001 -1.842 11
9.6870003 -2.6760001 -1.814 11
10.397 -2.8740001 -1.783 11
11.277 -3.1210001 -1.757 10
7.8860002 -2.2379999 -1.877 12
8.4860001 -2.4070001 -1.88 10
8.9919996 -2.55 -1.847 12
9.6090002 -2.7260001 -1.8200001 11
10.328 -2.9319999 -1.7920001 12
11.163 -3.1719999 -1.761 10
7.8179998 -2.2780001 -1.878 12
8.4510002 -2.461 -1.891 10
8.927 -2.599 -1.852 11
9.5459995 -2.78 -1.826 12
10.257 -2.9879999 -1.799 12
11.044 -3.221 -1.762 11
7.7649999 -2.322 -1.881 12
8.4040003 -2.5120001 -1.897 13
8.8870001 -2.655 -1.86 12
9.4879999 -2.8340001 -1.8329999 12
10.191 -3.046 -1.8049999 12
10.955 -3.277 -1.767 10
7.7069998 -2.3640001 -1.882 11
8.3249998 -2.5510001 -1.895 16
8.8479996 -2.71 -1.869 9
9.4370003 -2.8900001 -1.84 12
10.132 -3.1040001 -1.812 12
10.875 -3.335 -1.772 11
7.4899998 -2.355 -1.8430001 17
8.302 -2.608 -1.905 14
8.8170004 -2.7679999 -1.878 8
9.382 -2.9449999 -1.845 12
10.078 -3.164 -1.819 11
10.799 -3.3929999 -1.776 11
7.4250002 -2.392 -1.841 18
8.2110004 -2.642 -1.898 20
8.7530003 -2.8150001 -1.878 5
9.3450003 -3.0050001 -1.852 11
10.028 -3.2249999 -1.825 12
10.732 -3.454 -1.781 11
7.4190001 -2.448 -1.852 21
8.1549997 -2.687 -1.898 19
8.6730003 -2.8559999 -1.874 6
9.3170004 -3.0669999 -1.86 9
9.9849997 -3.2869999 -1.831 13
10.676 -3.517 -1.786 11
7.3579998 -2.4849999 -1.848 16
8.0930004 -2.73 -1.896 13
8.6330004 -2.9089999 -1.878 8
9.3030005 -3.1340001 -1.8710001 9
9.9280005 -3.345 -1.834 18
10.637 -3.585 -1.793 10
7.2529998 -2.506 -1.8329999 15
8.033 -2.7720001 -1.8940001 17
8.5959997 -2.964 -1.882 10
9.2819996 -3.1989999 -1.878 7
9.9139996 -3.4159999 -1.8430001 12
10.588 -3.6500001 -1.7970001 11
7.1550002 -2.529 -1.819 14
8.0240002 -2.832 -1.903 15
8.5530005 -3.0150001 -1.8839999 10
9.191 -3.2379999 -1.8710001 5
9.8900003 -3.484 -1.85 11
10.566 -3.724 -1.804 10
7.0700002 -2.5539999 -1.806 15
7.9060001 -2.8510001 -1.8839999 13
8.5039997 -3.0639999 -1.883 13
9.1529999 -3.296 -1.873 7
9.8299999 -3.539 -1.849 11
10.528 -3.7920001 -1.808 11
7.0419998 -2.599 -1.808 15
7.7659998 -2.862 -1.86 15
8.5200005 -3.1359999 -1.896 14
9.1289997 -3.358 -1.877 6
9.8219995 -3.612 -1.857 9
10.504 -3.8640001 -1.813 11
7.006 -2.641 -1.807 15
7.678 -2.8900001 -1.847 17
8.4879999 -3.191 -1.897 12
9.0740004 -3.408 -1.875 9
9.7939997 -3.678 -1.86 8
10.47 -3.9319999 -1.8150001 10
6.9809999 -2.687 -1.807 14
7.6240001 -2.9300001 -1.842 17
8.4709997 -3.2509999 -1.901 14
9.0570002 -3.473 -1.8789999 10
9.7729998 -3.747 -1.863 7
10.446 -4.0050001 -1.818 10
6.954 -2.733 -1.807 15
5.2020001 -2.04 -1.261 15
8.3959999 -3.289 -1.891 14
9.0419998 -3.5380001 -1.882 12
9.7200003 -3.802 -1.859 13
10.432 -4.0799999 -1.821 11
0 0 0 0
5.1830001 -2.0739999 -1.261 255
8.349 -3.336 -1.886 16
9.0579996 -3.615 -1.891 9
9.7340002 -3.882 -1.867 8
10.413 -4.1539998 -1.823 10
5.1700001 -2.1129999 -1.352 7
5.2480001 -2.141 -1.28 0
8.3100004 -3.385 -1.882 14
9.0349998 -3.6760001 -1.891 7
9.6850004 -3.9389999 -1.862 9
10.4 -4.2290001 -1.825 11
4.9219999 -2.0510001 -1.291 4
5.7199998 -2.378 -1.399 27
4.7620001 -1.977 -1.081 4
4.7490001 -1.97 -0.99599999 0
9.6709995 -4.0079999 -1.863 11
10.431 -4.323 -1.8329999 8
4.848 -2.0580001 -1.274 31
4.7789998 -2.0250001 -1.171 7
5.0869999 -2.152 -1.1569999 22
5.2649999 -2.224 -1.1059999 4
9.651 -4.0739999 -1.862 11
5.3330002 -2.2509999 -0.93800002 0
4.6810002 -2.0239999 -1.232 15
4.5570002 -1.966 -1.118 6
5.1950002 -2.237 -1.183 16
5.2140002 -2.243 -1.096 14
5.348 -2.299 -1.0319999 5
5.3309999 -2.2920001 -0.93800002 0
4.7059999 -2.072 -1.2410001 14
4.553 -2 -1.119 2
4.7080002 -2.0650001 -1.073 7
5.0819998 -2.2260001 -1.069 17
5.2940001 -2.3169999 -1.022 4
5.3260002 -2.3310001 -0.93699998 0
4.6539998 -2.0869999 -1.228 13
4.5110002 -2.0179999 -1.109 81
4.6830001 -2.0910001 -1.068 9
4.763 -2.1240001 -1.002 4
5.3010001 -2.3610001 -1.023 0
5.29 -2.3559999 -0.93000001 0
4.6069999 -2.102 -1.217 13
4.5 -2.0480001 -1.107 160
4.677 -2.1240001 -1.067 8
4.7480001 -2.154 -0.99900001 3
4.7849998 -2.1689999 -0.92299998 2
10.422 -4.7220001 -1.831 8
4.5630002 -2.118 -1.206 9
4.5110002 -2.0880001 -1.11 3
4.6859999 -2.165 -1.068 6
8.8599997 -4.0879998 -1.863 15
4.7550001 -2.191 -0.91600001 1
10.412 -4.7969999 -1.826 11
4.5710001 -2.158 -1.2079999 0
4.5580001 -2.1459999 -1.1210001 5
4.6690001 -2.1930001 -1.064 6
8.8450003 -4.1490002 -1.858 17
4.7810001 -2.24 -0.92000002 1
10.421 -4.881 -1.823 12
4.48 -2.1500001 -1.183 0
4.566 -2.1849999 -1.122 4
4.6529999 -2.2219999 -1.059 13
8.8439999 -4.217 -1.855 21
9.7229996 -4.631 -1.867 12
4.8169999 -2.293 -0.83999997 2
6.9369998 -3.3829999 -1.831 16
4.4710002 -2.174 -1.098 2
4.6220002 -2.2420001 -1.05 1
8.8009996 -4.263 -1.842 22
9.7419996 -4.7140002 -1.865 13
10.442 -5.0500002 -1.8150001 11
6.96 -3.448 -1.836 16
7.5970001 -3.753 -1.862 14
8.2419996 -4.0630002 -1.869 15
8.8760004 -4.368 -1.852 15
9.776 -4.8049998 -1.865 15
4.8509998 -2.3829999 -0.83999997 2
6.9910002 -3.517 -1.841 16
7.618 -3.822 -1.864 17
8.2659998 -4.1370001 -1.8710001 17
8.9390001 -4.4660001 -1.86 16
9.7810001 -4.881 -1.859 16
10.516 -5.2449999 -1.812 10
7.0450001 -3.598 -1.851 15
7.6339998 -3.888 -1.863 15
8.2690001 -4.2010002 -1.865 15
8.9639997 -4.546 -1.858 16
9.8299999 -4.9790001 -1.8609999 17
10.571 -5.3499999 -1.812 11
7.079 -3.6689999 -1.8559999 16
7.652 -3.954 -1.863 15
8.2600002 -4.2589998 -1.857 15
8.8990002 -4.579 -1.8380001 25
9.8590002 -5.066 -1.857 18
10.636 -5.461 -1.813 12
7.1090002 -3.7379999 -1.859 16
7.6869998 -4.0300002 -1.865 17
8.2869997 -4.3330002 -1.8559999 18
8.9659996 -4.6789999 -1.8430001 23
9.8800001 -5.1490002 -1.851 20
10.674 -5.559 -1.808 12
7.1360002 -3.806 -1.8609999 14
7.7020001 -4.0949998 -1.862 16
8.3360004 -4.421 -1.859 16
8.9610004 -4.743 -1.8329999 25
9.7589998 -5.1570001 -1.818 19
10.727 -5.664 -1.804 13
7.1669998 -3.875 -1.862 15
7.744 -4.1739998 -1.865 16
8.3529997 -4.4899998 -1.854 19
8.9549999 -4.803 -1.822 28
9.724 -5.2080002 -1.799 23
10.771 -5.7639999 -1.7970001 12
7.1960001 -3.9430001 -1.863 13
7.7930002 -4.256 -1.869 14
8.3599997 -4.5539999 -1.846 22
9.0380001 -4.9130001 -1.8279999 23
9.9069996 -5.3769999 -1.821 22
10.861 -5.888 -1.798 12
7.2290001 -4.013 -1.864 14
7.8109999 -4.322 -1.863 14
8.3809996 -4.625 -1.84 22
9.0860004 -5.0029998 -1.825 19
9.8850002 -5.434 -1.803 19
10.95 -6.0139999 -1.796 13
7.2659998 -4.086 -1.865 16
7.8340001 -4.3899999 -1.859 15
8.4110003 -4.7010002 -1.836 20
9.0530005 -5.0479999 -1.8049999 18
9.9729996 -5.553 -1.803 23
11.065 -6.1539998 -1.7970001 13
7.3109999 -4.1630001 -1.867 15
7.901 -4.4840002 -1.864 15
8.4490004 -4.7810001 -1.832 23
9.1789999 -5.1820002 -1.816 20
10.119 -5.7030001 -1.814 22
11.139 -6.2709999 -1.791 11
7.3509998 -4.2360001 -1.867 15
7.927 -4.552 -1.859 15
8.4899998 -4.862 -1.827 25
9.191 -5.2509999 -1.804 22
10.131 -5.7779999 -1.799 33
11.231 -6.3979998 -1.786 11
7.3889999 -4.309 -1.865 13
7.9260001 -4.6059999 -1.846 19
8.526 -4.9400001 -1.821 20
9.2580004 -5.3520002 -1.801 19
10.125 -5.8429999 -1.779 24
11.334 -6.5320001 -1.781 10
7.4390001 -4.3889999 -1.8660001 12
7.9359999 -4.665 -1.835 22
8.5699997 -5.0219998 -1.816 21
9.2340002 -5.3979998 -1.78 20
10.259 -5.987 -1.783 23
11.471 -6.6859999 -1.779 10
7.5349998 -4.4949999 -1.877 14
7.9400001 -4.7189999 -1.822 27
8.6389999 -5.119 -1.814 23
9.3199997 -5.5079999 -1.779 18
10.353 -6.1069999 -1.779 20
11.617 -6.8449998 -1.778 10
7.5609999 -4.559 -1.87 12
8.0249996 -4.8210001 -1.826 22
8.6940002 -5.2059999 -1.809 18
9.3520002 -5.5869999 -1.766 21
10.517 -6.27 -1.786 16
11.749 -6.9959998 -1.773 9
7.5900002 -4.625 -1.863 20
8.0950003 -4.9130001 -1.827 23
8.7360001 -5.2859998 -1.8 18
9.4449997 -5.6999998 -1.7640001 19
10.664 -6.4229999 -1.788 15
11.903 -7.1589999 -1.771 9
7.6110001 -4.684 -1.853 21
8.1269999 -4.9819999 -1.817 28
8.7700005 -5.3590002 -1.789 17
9.5159998 -5.8000002 -1.756 19
10.814 -6.5780001 -1.788 14
12.074 -7.3340001 -1.768 9
7.6370001 -4.7459998 -1.844 22
8.1969995 -5.0749998 -1.8150001 26
8.8219995 -5.4429998 -1.78 17
9.5450001 -5.8730001 -1.74 19
10.962 -6.7309999 -1.7869999 12
12.227 -7.4980001 -1.76 9
7.6680002 -4.8099999 -1.834 24
8.2720003 -5.1690001 -1.813 25
8.901 -5.5430002 -1.775 18
9.5790005 -5.948 -1.723 23
11.12 -6.8909998 -1.786 11
12.441 -7.6989999 -1.76 7
7.7119999 -4.882 -1.827 24
8.3470001 -5.2620001 -1.8099999 26
8.9860001 -5.6459999 -1.77 20
9.6969995 -6.0749998 -1.72 21
11.309 -7.0710001 -1.7869999 10
12.651 -7.8979998 -1.757 6
7.809 -4.9860001 -1.832 23
8.4119997 -5.349 -1.803 27
9.0760002 -5.7519999 -1.765 29
9.7340002 -6.151 -1.702 22
11.475 -7.2350001 -1.784 10
12.888 -8.1140003 -1.756 7
7.888 -5.0780001 -1.83 24
8.4440002 -5.4130001 -1.788 32
9.1079998 -5.8189998 -1.748 30
9.7489996 -6.211 -1.678 25
11.67 -7.4180002 -1.7819999 9
13.137 -8.3380003 -1.7539999 8
7.987 -5.1830001 -1.8329999 23
8.4879999 -5.4850001 -1.776 26
9.1440001 -5.888 -1.73 30
9.8830004 -6.3449998 -1.675 23
11.875 -7.6079998 -1.78 9
13.427 -8.5889997 -1.753 8
8.0550003 -5.2659998 -1.827 23
8.5609999 -5.5739999 -1.767 23
9.2220001 -5.9829998 -1.719 27
10.055 -6.5040002 -1.675 20
12.055 -7.7800002 -1.773 7
13.72 -8.8400002 -1.752 9
8.1009998 -5.335 -1.8150001 29
8.6459999 -5.6690001 -1.761 22
9.2650003 -6.053 -1.701 19
10.351 -6.743 -1.694 21
12.307 -7.9990001 -1.773 7
14.03 -9.1040001 -1.749 8
8.1960001 -5.434 -1.813 25
8.7480001 -5.776 -1.756 25
9.3290005 -6.1370001 -1.6849999 20
11.09 -7.2729998 -1.7819999 11
12.536 -8.2019997 -1.768 8
9.9449997 -6.4959998 -1.209 0
8.2469997 -5.5040002 -1.799 27
8.8360004 -5.8709998 -1.748 27
9.3660002 -6.1999998 -1.663 21
9.8369999 -6.493 -1.551 7
9.8290005 -6.4720001 -1.3559999 29
9.757 -6.4130001 -1.155 33
8.2919998 -5.5669999 -1.784 26
8.882 -5.9369998 -1.729 26
9.3920002 -6.2550001 -1.6390001 23
9.7449999 -6.4699998 -1.505 30
9.7089996 -6.4310002 -1.308 32
9.6789999 -6.4000001 -1.114 35
8.3760004 -5.6560001 -1.777 24
8.9469995 -6.0149999 -1.714 26
9.434 -6.3179998 -1.6160001 28
9.6230001 -6.4250002 -1.456 30
9.6450005 -6.4239998 -1.268 32
9.6230001 -6.3979998 -1.076 35
8.4610004 -5.744 -1.767 18
9.0489998 -6.1149998 -1.704 19
9.4390001 -6.355 -1.586 33
9.5419998 -6.4039998 -1.4119999 32
9.5860004 -6.4180002 -1.228 37
9.5740004 -6.3990002 -1.038 37
8.559 -5.8390002 -1.76 21
9.118 -6.1919999 -1.687 18
9.4390001 -6.3860002 -1.5549999 31
9.5299997 -6.427 -1.378 36
9.5410004 -6.4190001 -1.189 42
9.552 -6.415 -1.002 50
8.6330004 -5.9159999 -1.745 22
9.1750002 -6.2600002 -1.666 21
9.4379997 -6.414 -1.522 31
9.5100002 -6.4419999 -1.342 35
9.5019999 -6.421 -1.152 43
9.5299997 -6.428 -0.96799999 45
8.7379999 -6.013 -1.737 18
9.2309999 -6.3239999 -1.645 25
9.4259996 -6.4320002 -1.487 32
9.4910002 -6.4559999 -1.307 36
9.5039997 -6.448 -1.118 46
9.5129995 -6.4429998 -0.93099999 47
8.8439999 -6.1100001 -1.728 17
9.2770004 -6.3800001 -1.6210001 27
9.4219999 -6.454 -1.4529999 34
9.474 -6.4689999 -1.271 38
9.4890003 -6.4619999 -1.0829999 45
9.4980001 -6.4559999 -0.89600003 43
8.9390001 -6.197 -1.7130001 20
9.302 -6.4180002 -1.591 31
9.4090004 -6.4660001 -1.4170001 33
9.4630003 -6.4829998 -1.235 40
9.4809999 -6.4780002 -1.0470001 42
9.4709997 -6.4590001 -0.85799998 41
8.9750004 -6.2399998 -1.688 21
9.3120003 -6.4439998 -1.559 31
9.4110003 -6.487 -1.383 36
9.4530001 -6.4949999 -1.198 41
9.4469995 -6.474 -1.008 43
9.4799995 -6.4840002 -0.824 48
9.0670004 -6.3210001 -1.671 20
9.323 -6.4689999 -1.526 32
9.4060001 -6.5009999 -1.347 39
9.4460001 -6.507 -1.1619999 40
9.4399996 -6.4860001 -0.972 43
9.474 -6.4970002 -0.787 42
9.1599998 -6.4000001 -1.653 25
9.3249998 -6.4850001 -1.4910001 31
9.4049997 -6.5139999 -1.311 35
9.448 -6.5229998 -1.126 42
9.4420004 -6.5019999 -0.93599999 42
9.4549999 -6.4980001 -0.74900001 40
9.2139997 -6.4499998 -1.627 25
9.3400002 -6.507 -1.457 31
9.4119997 -6.5320001 -1.275 35
9.448 -6.5349998 -1.089 45
9.4589996 -6.5250001 -0.90100002 45
9.4589996 -6.5120001 -0.713 44
9.2510004 -6.4850001 -1.598 27
9.3509998 -6.5240002 -1.421 32
9.4180002 -6.5450001 -1.239 40
9.4449997 -6.5419998 -1.052 44
9.4499998 -6.5279999 -0.86199999 42
9.4379997 -6.507 -0.67400002 42
9.276 -6.5100002 -1.5650001 29
9.3599997 -6.5380001 -1.386 34
9.4160004 -6.5510001 -1.202 40
9.4519997 -6.5539999 -1.015 47
9.4530001 -6.5370002 -0.82499999 44
9.46 -6.5289998 -0.63700002 43
9.2849998 -6.5209999 -1.529 30
9.3739996 -6.552 -1.35 38
9.4219999 -6.559 -1.164 46
9.4469995 -6.5549998 -0.97600001 44
9.4630003 -6.5489998 -0.78799999 40
9.46 -6.533 -0.60000002 38
9.3050003 -6.5370002 -1.494 31
9.3830004 -6.5609999 -1.313 34
9.4359999 -6.5710001 -1.128 49
9.4530001 -6.5609999 -0.93900001 42
9.4650002 -6.552 -0.75 38
9.4589996 -6.5339999 -0.56099999 32
9.3199997 -6.5479999 -1.4579999 33
9.3940001 -6.5679998 -1.276 35
9.4320002 -6.5679998 -1.0880001 44
9.46 -6.5650001 -0.89999998 40
9.4650002 -6.5510001 -0.71100003 38
9.4519997 -6.5289998 -0.52200001 35
9.3360004 -6.5560002 -1.421 32
9.401 -6.5700002 -1.238 38
9.4420004 -6.5710001 -1.051 44
9.4589996 -6.5609999 -0.861 39
9.4709997 -6.552 -0.67199999 38
9.4639997 -6.5339999 -0.48300001 37
9.3570004 -6.5640001 -1.385 34
9.4119997 -6.572 -1.2 41
9.4440002 -6.5669999 -1.011 42
9.467 -6.5609999 -0.82300001 41
9.4619999 -6.54 -0.63200003 41
9.4540005 -6.5209999 -0.44400001 37
9.3629999 -6.5609999 -1.345 34
9.4189997 -6.5689998 -1.16 45
9.4499998 -6.5640001 -0.972 43
9.4680004 -6.5539999 -0.78299999 40
9.4650002 -6.5339999 -0.59299999 41
9.4619999 -6.5190001 -0.405 37
9.3920002 -6.5700002 -1.309 34
9.4259996 -6.5630002 -1.1210001 49
9.4530001 -6.5549998 -0.93199998 47
9.4659996 -6.5419998 -0.74299997 43
9.4630003 -6.5219998 -0.55299997 40
9.4610004 -6.5079999 -0.36500001 40
9.3889999 -6.5560002 -1.2690001 35
9.4329996 -6.5549998 -1.082 41
9.4569998 -6.5450001 -0.89300001 48
9.4569998 -6.5229998 -0.70200002 47
9.4490004 -6.5 -0.51300001 42
9.4720001 -6.5019999 -0.32600001 44
9.3999996 -6.5479999 -1.229 38
9.4440002 -6.5469999 -1.0420001 47
9.4680004 -6.5370002 -0.85399997 46
9.4630003 -6.5120001 -0.66399997 49
9.4700003 -6.4990001 -0.47400001 46
9.4779997 -6.4910002 -0.28799999 45
9.4139996 -6.54 -1.191 43
9.4469995 -6.5320001 -1.002 52
9.4689999 -6.52 -0.81400001 54
9.4689999 -6.4980001 -0.62400001 47
9.474 -6.4840002 -0.435 55
9.4560003 -6.4580002 -0.24699999 39
9.4350004 -6.5339999 -1.152 45
9.4639997 -6.5229998 -0.963 44
9.4709997 -6.5019999 -0.773 49
9.4809999 -6.4860001 -0.58399999 51
9.4729996 -6.4640002 -0.39500001 45
9.4759998 -6.4520001 -0.208 44
9.4390001 -6.5139999 -1.1109999 43
9.4680004 -6.5029998 -0.92299998 47
9.4860001 -6.4889998 -0.73299998 50
9.4899998 -6.4699998 -0.54400003 48
9.4870005 -6.4499998 -0.35499999 45
9.4790001 -6.4320002 -0.168 40
9.4589996 -6.5029998 -1.072 44
9.4829998 -6.4889998 -0.88300002 55
9.4919996 -6.4679999 -0.69300002 53
9.493 -6.447 -0.50400001 51
9.4989996 -6.434 -0.31600001 46
9.4870005 -6.4130001 -0.12800001 41
9.474 -6.4860001 -1.0319999 42
9.4960003 -6.4699998 -0.84200001 45
9.5089998 -6.4530001 -0.65399998 48
9.5080004 -6.4310002 -0.46399999 45
9.4890003 -6.401 -0.27599999 42
9.5030003 -6.3969998 -0.089000002 45
9.4849997 -6.4629998 -0.991 45
9.5080004 -6.4489999 -0.80199999 50
9.5229998 -6.4330001 -0.61299998 55
9.526 -6.414 -0.42500001 46
9.5249996 -6.3959999 -0.236 41
9.5200005 -6.3790002 -0.048999999 44
9.4989996 -6.441 -0.95200002 49
9.5279999 -6.4310002 -0.76300001 51
9.5459995 -6.4169998 -0.574 52
9.5419998 -6.3930001 -0.38499999 48
9.5369997 -6.3730001 -0.19599999 48
9.5310001 -6.355 -0.0099999998 46
9.5290003 -6.427 -0.912 49
9.5459995 -6.4089999 -0.72299999 53
9.5530005 -6.388 -0.53399998 52
9.5570002 -6.369 -0.345 55
9.5489998 -6.3460002 -0.156 52
9.5459995 -6.3309999 0.028999999 53
9.5530005 -6.4070001 -0.87199998 49
9.5790005 -6.3940001 -0.68300003 58
9.5860004 -6.3740001 -0.49399999 59
9.5839996 -6.3509998 -0.30500001 48
9.5799999 -6.3309999 -0.117 50
9.5640001 -6.3080001 0.068999998 46
9.5830002 -6.3889999 -0.833 46
9.618 -6.382 -0.64499998 44
9.6269999 -6.3629999 -0.456 43
9.625 -6.3400002 -0.266 40
9.6129999 -6.316 -0.078000002 43
9.5860004 -6.2849998 0.108 42
9.6309996 -6.3800001 -0.796 39
9.6560001 -6.3670001 -0.60600001 42
9.6689997 -6.3509998 -0.417 39
9.6700001 -6.3309999 -0.227 47
9.6619997 -6.3080001 -0.039000001 39
9.632 -6.276 0.148 38
9.677 -6.368 -0.75800002 35
9.7089996 -6.3600001 -0.56900001 35
9.7349997 -6.3520002 -0.37900001 37
9.7329998 -6.329 -0.189 32
9.7159996 -6.3010001 0 32
9.6940002 -6.2740002 0.18799999 35
9.7589998 -6.3769999 -0.722 35
9.8039999 -6.3769999 -0.53299999 25
9.8479996 -6.3800001 -0.34299999 21
9.8470001 -6.3590002 -0.15099999 21
9.8529997 -6.3460002 0.039000001 25
9.7980003 -6.2969999 0.228 26
22.892 -14.848 -1.597 27
0 0 0 0
27.152 -17.462999 -0.83200002 39
26.913 -17.254 -0.303 38
23.577 -15.074 0.19 41
23.166 -14.78 0.63300002 51
23.365 -15.039 -1.5319999 21
0 0 0 0
26.424 -16.865 -0.70200002 35
0 0 0 0
26.671 -16.923 0.31999999 36
23.542 -14.907 0.736 43
27.285999 -17.422001 -1.6720001 38
25.834 -16.421 -1.0829999 27
26.414 -16.724001 -0.59600002 38
26.247999 -16.565001 -0.086000003 31
23.802 -14.982 0.37900001 0
23.75 -14.919 0.833 8
26.697001 -16.905001 -1.527 40
0 0 0 0
26.844999 -16.858 -0.49900001 22
26.372 -16.507999 0.015 30
26.518 -16.556 0.52399999 41
0 0 0 0
26.061001 -16.360001 -1.383 34
25.945999 -16.216 -0.87800002 18
26.48 -16.486 -0.38800001 35
26.559 -16.481001 0.119 35
26.322001 -16.291 0.62099999 34
25.993 -16.055 1.108 34
26.013 -16.184 -1.276 33
