# .PCD v0.7 - Point Cloud Data file format
VERSION 0.7
FIELDS x y z intensity
SIZE 4 4 4 4
TYPE F F F F
COUNT 1 1 1 1
WIDTH 1794
HEIGHT 1
VIEWPOINT 0 0 0 1 0 0 0
POINTS 1794
DATA ascii
48.066002 22.106001 5.0879998 77
48.084 22.174999 5.9310002 38
48.025002 22.219 6.7690001 60
34.521 15.582 1.712 26
0 0 0 0
48.092999 21.768999 4.0339999 68
48.125 21.825001 4.8699999 45
48.210999 21.923 5.7189999 4
48.049 21.914 6.539 69
34.523998 15.367 1.559 26
45.346001 20.205 2.8210001 5
48.153999 21.487 3.819 71
48.241001 21.568001 4.6560001 5
48.139999 21.573999 5.4790001 15
48.098999 21.618 6.316 70
34.506001 15.142 1.41 25
46.245998 20.312 2.675 5
48.175999 21.187 3.6070001 61
48.166 21.219999 4.4310002 67
48.150002 21.261 5.2589998 68
48.125999 21.309 6.0910001 58
34.543999 14.937 1.263 90
34.570999 14.959 1.848 17
46.450001 20.125 3.2720001 1
48.193001 20.916 4.2189999 68
48.171001 20.950001 5.0430002 73
48.153999 20.997 5.8720002 55
34.59 14.737 1.12 150
34.595001 14.747 1.702 44
46.894001 20.011 3.099 5
48.679001 20.802999 4.0469999 47
48.560001 20.792 4.8660002 44
48.394001 20.771999 5.6799998 39
32.963001 13.829 0.93099999 1
34.612 14.529 1.559 33
49.417 20.761 3.0580001 12
49.659 20.891001 3.9130001 43
49.523998 20.872999 4.7459998 41
49.367001 20.855 5.5739999 42
32.905998 13.594 0.79799998 2
34.584 14.291 1.416 26
50.333 20.816 2.908 11
50.645 20.972 3.7809999 42
50.529999 20.959 4.6279998 39
50.396 20.947001 5.4759998 40
32.896999 13.375 0.67000002 2
34.598999 14.069 1.281 51
34.655998 14.101 1.862 11
52.055 21.202 3.6700001 19
51.987 21.205999 4.5419998 14
51.542 21.068001 5.3779998 18
32.991001 13.195 0.54299998 4
34.647999 13.859 1.146 144
34.661999 13.869 1.725 38
0 0 0 0
52.773998 21.167 4.3969998 56
52.744999 21.193001 5.2839999 57
33.047001 12.997 0.419 3
33.071999 13.006 0.96799999 0
34.688999 13.647 1.591 37
52.193001 20.549 3.2639999 17
52.145 20.552 4.1339998 1
53.813 21.243999 5.1690001 40
33.695 13.025 0.30199999 18
33.485001 12.941 0.85399997 5
35.131001 13.58 1.477 2
54.962002 21.257999 3.224 15
55.181999 21.368 4.158 38
55.094002 21.364 5.073 42
33.929001 12.886 0.183 37
34.264 13.007 0.74800003 7
36.035999 13.681 1.381 4
90.012001 34.188999 4.9390001 18
95.297997 36.234001 6.8140001 30
94.825996 36.103001 8.3579998 26
33.539001 12.508 0.061999999 51
35.117001 13.09 0.64099997 6
57.560001 21.452999 1.997 12
92.442001 34.466 4.7309999 10
95.113998 35.493 6.4429998 10
94.734001 35.393002 7.9879999 48
33.416 12.234 -0.052999999 66
34.382 12.581 0.50800002 1
58.922001 21.556 1.836 21
90.471001 33.098999 4.3080001 18
90.134003 32.995998 5.776 9
94.815002 34.75 7.6459999 47
33.412998 12.004 -0.164 63
33.960999 12.191 0.38600001 26
36.889999 13.237 1.022 2
90.431 32.445999 3.9890001 31
90.486 32.481998 5.4770002 9
94.611 33.997002 7.2870002 31
33.460999 11.789 -0.27399999 62
34.073002 11.994 0.27599999 38
37.797001 13.298 0.92199999 6
84.113998 29.591999 3.425 7
90.443001 31.833 5.1659999 17
94.957001 33.446999 6.9809999 34
33.632999 11.618 -0.38100001 58
34.044998 11.749 0.16599999 40
38.755001 13.366 0.81900001 9
63.821999 22.004999 2.3889999 3
91.936996 31.709 4.9439998 20
94.859001 32.736 6.651 27
33.844002 11.455 -0.48699999 57
34.194 11.561 0.061999999 46
39.949001 13.496 0.72000003 10
47.573002 16.066 1.63 1
90.997002 30.735001 4.5999999 23
94.584999 31.966 6.3260002 26
34.314999 11.378 -0.59399998 43
34.436001 11.403 -0.039999999 3
41.234001 13.643 0.61799997 18
47.867001 15.829 1.493 1
51.679001 17.087 2.45 5
94.533997 31.261999 6.0190001 26
39.179001 12.716 -0.79100001 43
39.104 12.673 -0.15899999 59
42.234001 13.673 0.50800002 3
48.140999 15.574 1.357 49
47.833 15.473 2.1229999 20
52.193001 16.888 3.164 2
39.025002 12.396 -0.89499998 26
38.946999 12.35 -0.26699999 71
39.526001 12.519 0.36399999 21
47.658001 15.082 1.207 24
47.264999 14.953 1.961 34
48.563999 15.362 2.8 35
36.452999 11.32 -0.93400002 1
38.945 12.072 -0.373 71
39.483002 12.222 0.255 61
48.558998 15.019 1.096 2
47.702 14.745 1.8430001 25
0 0 0 0
0 0 0 0
39.063 11.829 -0.47600001 76
39.438 11.924 0.15000001 60
41.853001 12.64 0.82999998 3
48.397999 14.607 1.737 34
48.372002 14.594 2.5150001 35
0 0 0 0
39.250999 11.603 -0.579 60
39.465 11.648 0.048999999 60
42.278999 12.465 0.73100001 38
48.561001 14.304 1.6160001 28
49 14.429 2.4170001 36
35.991001 10.408 -1.1900001 49
39.502998 11.399 -0.676 60
39.702999 11.437 -0.045000002 61
41.653 11.982 0.61699998 48
42.333 12.163 1.304 19
48.851002 14.026 2.2850001 21
36.280998 10.232 -1.283 49
40.089001 11.281 -0.778 25
40.117001 11.267 -0.14 19
42.223 11.841 0.52600002 22
42.498001 11.904 1.207 51
50.412998 14.111 2.2360001 14
0 0 0 0
41.835999 11.475 -0.90399998 19
42.094002 11.523 -0.23899999 3
42.549 11.627 0.43399999 20
42.277 11.536 1.105 10
50.495998 13.766 2.1229999 46
31.649 8.4779997 -1.252 4
41.970001 11.212 -0.99400002 33
42.335999 11.284 -0.33000001 5
42.438999 11.29 0.34200001 17
42.165001 11.201 1.01 16
50.847 13.492 2.0250001 58
22.827999 5.9499998 -0.94800001 1
23.767 6.177 -0.61000001 1
47.513 12.319 -0.46700001 58
47.824001 12.376 0.28799999 46
42.458 10.968 0.92799997 2
50.541 13.039 1.906 69
22.851999 5.7930002 -0.99199998 79
23.298 5.8889999 -0.64200002 0
47.967999 12.09 -0.56199998 46
31.407 7.8979998 0.12800001 76
31.405001 7.8829999 0.625 123
31.433001 7.8790002 1.123 13
22.495001 5.5409999 -1.016 2
23.181 5.691 -0.68000001 0
23.954 5.8639998 -0.324 1
50.932999 12.439 0.113 19
50.799 12.38 0.91799998 61
50.272999 12.231 1.702 64
22.490999 5.3769999 -1.053 5
23.040001 5.4910002 -0.71499997 1
0 0 0 0
54.912998 13.015 0.029999999 25
54.794998 12.96 0.89499998 61
50.876999 12.01 1.633 15
22.424 5.2030001 -1.084 150
22.853001 5.283 -0.74400002 1
0 0 0 0
59.166 13.599 -0.061000001 27
54.823002 12.57 0.80599999 5
54.476002 12.466 1.659 48
22.444 5.0469999 -1.118 150
22.732 5.092 -0.77399999 1
0 0 0 0
59.261002 13.194 -0.15099999 23
59.129002 13.131 0.77999997 23
56.140999 12.439 1.623 26
22.465 4.8899999 -1.149 93
22.694 4.9200001 -0.80299997 1
0 0 0 0
24.607 5.2989998 -0.096000001 0
60.039001 12.896 0.708 13
60.282001 12.915 1.6569999 7
22.486 4.7329998 -1.178 72
22.681 4.7550001 -0.83099997 2
0 0 0 0
24.636 5.1269999 -0.127 0
60.424999 12.536 0.634 2
60.126999 12.439 1.574 35
22.57 4.5890002 -1.2079999 13
22.783001 4.612 -0.861 3
0 0 0 0
24.507999 4.9239998 -0.156 1
62.568001 12.528 0.58200002 28
67.135002 13.402 1.677 20
22.834999 4.48 -1.245 55
22.987 4.4899998 -0.89200002 81
23.749001 4.618 -0.54900002 0
24.474001 4.7389998 -0.18099999 0
63.370998 12.231 0.52399999 10
67.768997 13.037 1.6210001 26
23.007999 4.348 -1.276 4
23.153 4.355 -0.92000002 0
23.805 4.4569998 -0.57200003 6
0 0 0 0
113.439 21.075001 0.82800001 9
67.512001 12.501 1.55 13
25.052 4.5580001 -1.409 4
24.816 4.4920001 -1.006 4
23.874001 4.3000002 -0.59299999 1
0 0 0 0
125.828 22.469999 0.815 16
152.78 27.177999 3.3789999 14
27.188 4.7509999 -1.548 16
35.060001 6.0939999 -1.446 8
45.751999 7.9130001 -1.169 2
0 0 0 0
135.83701 23.278 0.77999997 25
99.652 17.007 2.1289999 29
26.938999 4.5139999 -1.55 14
23.065001 3.8429999 -0.96499997 87
23.042999 3.8169999 -0.60299999 10
23.379999 3.8529999 -0.245 79
0 0 0 0
99.963997 16.323999 2.073 33
23.127001 3.7090001 -1.342 19
23.261 3.7060001 -0.98500001 26
23.256001 3.684 -0.62 74
23.416 3.6900001 -0.257 95
23.298 3.652 0.107 24
103.711 16.184 2.099 14
23.464001 3.5940001 -1.3710001 9
23.537001 3.582 -1.006 35
23.237 3.5150001 -0.62800002 60
23.27 3.5 -0.26499999 79
106.297 15.9 0.45100001 6
118.435 17.618 2.3510001 19
23.709 3.4619999 -1.391 20
23.497999 3.4070001 -1.01 63
23.559 3.3940001 -0.64300001 16
32.933998 4.7150002 -0.384 117
32.783001 4.6669998 0.12899999 14
120.887 17.110001 2.368 19
26.424999 3.6689999 -1.5549999 11
32.171001 4.434 -1.388 11
32.202999 4.4070001 -0.88499999 150
32.939999 4.48 -0.389 120
32.814999 4.434 0.124 17
70.507004 9.4700003 1.369 98
26.341999 3.471 -1.551 14
33.036999 4.3210001 -1.427 4
32.529999 4.223 -0.89499998 7
45.553001 5.869 -0.54000002 29
109.34 13.997 0.412 40
116.352 14.797 2.256 18
26.347 3.2839999 -1.55 12
33.25 4.1100001 -1.434 4
0 0 0 0
0 0 0 0
78.575996 9.4960003 0.301 13
78.567001 9.4239998 1.53 95
26.48 3.1110001 -1.553 12
33.507999 3.904 -1.4400001 4
48.235001 5.572 -1.316 1
62.625999 7.1750002 -0.727 152
129.414 14.709 0.52100003 17
0 0 0 0
26.472 2.9230001 -1.546 13
33.749001 3.6930001 -1.441 3
0 0 0 0
62.737 6.7389998 -0.70999998 6
97.727997 10.412 0.42300001 38
97.865997 10.339 1.955 20
26.412001 2.7309999 -1.5319999 58
33.759998 3.4560001 -1.428 5
48.358002 4.901 -1.286 1
63.876999 6.4120002 -0.69700003 7
114.769 11.412 0.54400003 50
114.735 11.298 2.342 9
26.797001 2.5799999 -1.541 12
33.946999 3.233 -1.419 3
0 0 0 0
0 0 0 0
124.728 11.513 0.65899998 35
119.837 10.955 2.51 14
27.056999 2.4159999 -1.54 10
35.903999 3.1670001 -1.478 23
50.306 4.3870001 -1.28 1
66.268997 5.7129998 -0.64600003 14
66.255997 5.6469998 0.39300001 25
0 0 0 0
27.466999 2.26 -1.544 10
0 0 0 0
0 0 0 0
0 0 0 0
180.237 14.103 1.206 24
184.67799 14.273 4.1370001 25
27.747 2.0899999 -1.5369999 9
35.734001 2.6530001 -1.416 1
52.040001 3.8099999 -1.243 13
0 0 0 0
222.618 15.857 1.687 29
0 0 0 0
28.184999 1.928 -1.535 9
0 0 0 0
0 0 0 0
0 0 0 0
0 0 0 0
204.85201 12.955 4.98 31
28.603001 1.758 -1.528 8
38.896999 2.349 -1.464 3
0 0 0 0
0 0 0 0
0 0 0 0
0 0 0 0
29.082001 1.586 -1.52 7
38.860001 2.0780001 -1.4170001 5
0 0 0 0
0 0 0 0
0 0 0 0
0 0 0 0
29.6 1.4119999 -1.511 6
38.998001 1.817 -1.373 3
0 0 0 0
0 0 0 0
0 0 0 0
172.662 7.3249998 4.842 22
30.186001 1.233 -1.499 6
39.370998 1.566 -1.332 2
0 0 0 0
0 0 0 0
0 0 0 0
152.464 5.4229999 4.4990001 17
31.384001 1.0700001 -1.5140001 6
0 0 0 0
0 0 0 0
0 0 0 0
0 0 0 0
121.933 3.4990001 3.793 8
32.044998 0.87199998 -1.494 6
0 0 0 0
39.68 0.99400002 -0.58899999 0
59.764 1.4299999 0.061999999 87
0 0 0 0
103.119 2.2449999 3.3859999 7
32.993999 0.67500001 -1.483 5
39.011002 0.755 -1.132 9
38.987 0.713 -0.51099998 128
39.243 0.67500001 0.109 3
102.974 1.6619999 1.926 7
78.166 1.176 2.707 8
33.509998 0.463 -1.447 3
39.240002 0.498 -1.069 13
39.261002 0.45699999 -0.44299999 37
60.095001 0.63300002 0.27900001 28
89.114998 0.83600003 1.837 27
60.601002 0.50400001 2.2160001 6
35.759998 0.25400001 -1.476 1
0 0 0 0
60.125999 0.296 -0.56199998 62
83.297997 0.31799999 0.55199999 38
59.962002 0.162 1.3559999 6
60.647999 0.094999999 2.342 13
38.220001 0.015 -1.501 4
51.833 -0.032000002 -1.2079999 2
71.931 -0.131 -0.52200001 3
69.005997 -0.2 0.60299999 25
60.398998 -0.243 1.4960001 16
68.849998 -0.35600001 2.809 3
38.772999 -0.23899999 -1.441 5
55.167 -0.40200001 -1.1670001 7
60.757 -0.509 -0.31099999 124
57.060001 -0.542 0.62300003 8
60.703999 -0.64600003 1.6390001 21
56.937 -0.67400002 2.4530001 29
39.854 -0.509 -1.393 7
54.993999 -0.764 -1.039 41
55.342999 -0.83099997 -0.156 65
55.224998 -0.89200002 0.73199999 37
55.115002 -0.95200002 1.617 37
55.111 -1.016 2.506 29
39.240002 -0.75999999 -1.28 6
55.153999 -1.128 -0.91299999 47
117.448 -2.536 -0.050999999 23
103.716 -2.359 1.627 14
103.723 -2.4790001 3.302 27
53.442001 -1.34 2.5650001 43
40.207001 -1.043 -1.214 4
55.512001 -1.502 -0.77999997 14
104.616 -2.951 0.21799999 24
0 0 0 0
105.391 -3.214 3.6289999 24
40.812 -1.293 2.0669999 27
40.817001 -1.323 -1.1289999 17
72.889999 -2.448 -0.83600003 12
104.819 -3.641 0.493 20
40.887001 -1.4680001 0.85500002 3
103.982 -3.8559999 3.8640001 30
52.875 -2.0239999 2.825 68
44.333 -1.724 -1.108 1
69.002998 -2.763 -0.60699999 6
100.53 -4.1370001 0.74400002 18
100.298 -4.2449999 2.3740001 17
115.39 -5.0159998 4.6079998 50
52.931999 -2.3670001 2.9779999 73
51.311001 -2.3239999 -1.143 2
0 0 0 0
99.853996 -4.7529998 1.023 57
100.41 -4.8940001 2.664 29
53.630001 -2.678 2.299 2
53.118999 -2.7160001 3.145 74
62.813 -3.24 -1.222 4
96.938004 -5.1110001 -0.308 7
99.560997 -5.3649998 1.308 21
100.33 -5.5219998 2.9560001 37
53.612 -3.0179999 2.4590001 53
53.834 -3.0969999 3.3529999 75
59.813999 -3.4660001 -0.98699999 3
101.936 -6.0190001 -0.02 10
99.569 -5.9959998 1.609 35
100.309 -6.1599998 3.267 37
57 -3.5699999 2.793 71
56.625999 -3.615 3.707 74
50.186001 -3.223 -0.67500001 3
106.305 -6.9489999 0.30899999 37
99.671997 -6.632 1.926 46
26.974001 -1.827 0.96499997 6
27.041 -1.864 1.4119999 0
26.813999 -1.882 1.844 0
65.593002 -4.618 -0.67699999 9
106.401 -7.6129999 0.648 21
98.795998 -7.1859999 2.2279999 30
26.978001 -1.994 1.053 5
59.860001 -4.5009999 3.3280001 66
26.849001 -2.052 1.937 0
64.204002 -4.915 -0.456 37
98.002998 -7.6149998 0.917 54
24.686001 -1.947 0.63800001 28
24.625999 -1.973 1.044 41
24.589001 -2 1.451 43
24.601 -2.0320001 1.8609999 51
24.618 -2.0350001 -0.092 64
24.601999 -2.0610001 0.31299999 66
24.59 -2.0899999 0.72000003 56
24.613001 -2.1229999 1.13 44
24.622 -2.155 1.541 41
24.684 -2.1919999 1.957 53
24.672001 -2.1900001 -0.0070000002 21
97.516998 -8.7700005 1.585 48
79.996002 -7.2880001 2.628 35
24.806 -2.29 1.228 39
24.603001 -2.303 1.63 15
81.639 -7.7550001 6.7820001 15
60.834999 -5.7680001 0.197 82
97.803001 -9.3879995 1.942 38
79.950996 -7.77 2.9200001 89
24.806 -2.441 1.3200001 22
24.614 -2.454 1.724 0
80.580002 -8.1409998 7.0029998 73
60.999001 -6.1490002 0.41999999 38
83.635002 -8.5319996 1.972 56
79.808998 -8.2360001 3.2149999 74
81.147003 -8.4759998 4.632 30
80.325996 -8.4890003 5.9369998 53
19.174 -2.052 1.742 3
75.737 -8.0790005 0.80199999 13
79.629997 -8.585 2.1730001 30
79.388 -8.6560001 3.5 81
80.417999 -8.8699999 4.901 51
80.668999 -9.0080004 6.2839999 45
19.205 -2.1700001 1.822 32
75.612999 -8.5109997 1.091 10
80.117996 -9.1129999 2.5009999 57
20.51 -2.358 0.98500001 6
19.836 -2.306 1.289 50
19.337 -2.273 1.585 40
0 0 0 0
20.142 -2.385 0.37 65
20.103001 -2.404 0.708 58
20.040001 -2.4219999 1.045 49
20.344999 -2.4849999 1.4069999 4
0 0 0 0
0 0 0 0
20.124001 -2.5009999 0.45199999 59
20.066 -2.5179999 0.79000002 52
20.017 -2.536 1.127 47
20.128 -2.576 1.477 33
20.365 -2.6340001 1.844 46
20.431999 -2.671 2.2019999 53
79.821999 -10.373 2.1210001 19
20.319 -2.664 0.884 8
20.003 -2.6470001 1.211 48
19.99 -2.6730001 1.553 30
0 0 0 0
23.888 -3.2609999 2.681 15
65.112 -8.8310003 2.0050001 26
20.299999 -2.777 0.97000003 6
19.941999 -2.7539999 1.294 14
19.607 -2.733 1.61 42
19.528999 -2.7509999 1.942 51
19.502001 -2.7750001 2.28 51
64.359001 -9.0950003 2.263 72
64.505997 -9.1940002 3.3710001 27
73.957001 -10.633 5.1339998 25
0 0 0 0
19.525 -2.8599999 2.0320001 3
19.497 -2.8840001 2.3699999 1
64.143997 -9.4209995 2.5380001 58
64.310997 -9.5240002 3.648 45
73.703003 -11.01 5.454 33
81.419998 -12.273 7.4390001 27
23.868999 -3.631 2.5969999 56
15.307 -2.3510001 1.9349999 13
63.766998 -9.7159996 2.812 56
64.267998 -9.875 3.9419999 71
74.267998 -11.505 5.8400002 69
80.739998 -12.616 7.7550001 50
15.32 -2.415 1.74 6
15.255 -2.428 2.003 46
63.259998 -9.9799995 3.075 83
64 -10.176 4.2179999 36
74.995003 -12.022 6.2490001 43
15.318 -2.4760001 1.545 33
15.278 -2.4920001 1.8099999 54
15.266 -2.513 2.0799999 32
63.602001 -10.374 3.388 67
64.277 -10.564 4.5409999 24
15.352 -2.543 1.352 54
15.27 -2.55 1.614 53
15.293 -2.5780001 1.888 12
20.146999 -3.427 2.848 53
15.524 -2.6140001 0.90100002 19
15.378 -2.609 1.16 48
15.293 -2.615 1.4220001 59
15.323 -2.642 1.696 1
20.568001 -3.5769999 2.6440001 9
20.277 -3.5569999 2.971 56
15.389 -2.6719999 0.96700001 58
15.301 -2.6760001 1.23 60
15.529 -2.7379999 1.523 41
15.605 -2.773 1.807 16
20.497999 -3.674 2.7420001 4
15.598 -2.8199999 2.368 41
15.378 -2.75 1.043 54
15.437 -2.7809999 1.318 42
15.537 -2.819 1.602 51
15.567 -2.8469999 1.883 44
15.585 -2.8740001 2.1659999 47
15.572 -2.8970001 2.448 36
15.469 -2.845 1.126 13
15.533 -2.8770001 1.405 7
15.564 -2.905 1.6849999 44
15.563 -2.927 1.965 44
15.543 -2.948 2.2449999 36
15.703 -3.0039999 2.556 36
51.472 -9.7320004 4.0139999 7
51.778999 -9.8599997 4.9580002 2
20.247999 -3.8840001 2.3010001 0
15.587 -3.0120001 2.053 5
12.542 -2.4430001 1.881 4
20.645 -4.0570002 3.4760001 30
16.125999 -3.1300001 1.341 4
51.393002 -10.042 5.1919999 16
20.320999 -3.9990001 2.4189999 36
12.529 -2.484 1.719 2
20.195 -4.0370002 3.142 51
0 0 0 0
15.841 -3.152 1.401 12
51.591 -10.339 5.4910002 7
20.200001 -4.0760002 2.5139999 59
19.73 -4.0110002 2.8169999 59
20.51 -4.2030001 3.3069999 59
15.983 -3.303 2.875 0
15.795 -3.22 1.482 3
20.408001 -4.1880002 2.2820001 0
12.547 -2.5929999 1.631 2
12.552 -2.6129999 1.862 29
12.473 -2.6170001 2.082 0
19.902 -4.211 3.697 61
12.57 -2.622 1.247 3
12.562 -2.638 1.474 4
19.761 -4.1799998 2.6800001 62
12.491 -2.661 1.924 43
12.551 -2.6949999 2.1689999 1
19.867001 -4.3010001 3.8080001 53
12.563 -2.681 1.316 0
20.233 -4.3449998 2.487 60
12.503 -2.7030001 1.766 17
12.511 -2.7249999 2.0009999 35
20.004999 -4.3909998 3.575 46
19.743 -4.369 3.904 46
12.547 -2.7360001 1.3839999 1
20.104 -4.4120002 2.586 60
12.483 -2.7579999 1.836 39
12.506 -2.783 2.073 0
19.611 -4.3979998 3.622 50
19.652 -4.4429998 4.007 46
12.574 -2.799 1.4579999 4
12.557 -2.813 1.687 0
12.483 -2.8150001 1.909 28
12.562 -2.8540001 2.158 0
18.790001 -4.3010001 3.585 59
19.691 -4.5450001 4.138 17
15.611 -3.546 1.9 6
0 0 0 0
19.981001 -4.598 3.175 62
20.174 -4.6760001 3.5880001 62
18.964001 -4.4289999 3.7360001 63
16.181999 -3.8099999 3.5020001 0
20.045 -4.6420002 2.556 25
0 0 0 0
12.582 -2.951 2.075 2
19.775 -4.6719999 3.6370001 44
18.951 -4.5120001 3.852 53
9.7740002 -2.346 2.178 28
12.664 -2.9879999 1.6900001 0
12.589 -2.9890001 1.915 3
19.658001 -4.6989999 3.3629999 52
19.125999 -4.605 3.638 46
9.8970003 -2.401 2.075 17
9.7279997 -2.3789999 2.2320001 34
0 0 0 0
19.784 -4.7839999 3.1300001 60
19.135 -4.658 3.391 61
9.9840002 -2.448 1.962 9
9.8140001 -2.424 2.1210001 36
16.316 -4.0640001 3.8510001 1
0 0 0 0
19.537001 -4.8070002 3.211 60
19.356001 -4.7940001 3.5510001 51
9.9090004 -2.4719999 2.0109999 36
9.816 -2.4679999 2.1860001 19
18.15 -4.6009998 4.4060001 57
0 0 0 0
19.545 -4.8909998 3.3340001 62
9.9899998 -2.516 1.896 35
9.8549995 -2.5 2.063 42
0 0 0 0
11.096 -2.8599999 2.7679999 19
20.009001 -5.0580001 3.1559999 48
10.091 -2.5669999 1.784 34
9.9289999 -2.5420001 1.948 48
17.315001 -4.4650002 3.7390001 45
17.287001 -4.493 4.079 37
10.595 -2.776 2.7149999 38
10.169 -2.6110001 1.6670001 23
10.008 -2.585 1.832 47
9.9619999 -2.5910001 2.0190001 0
10.676 -2.796 2.375 0
10.632 -2.806 2.5799999 35
10.556 -2.809 2.7780001 32
10.095 -2.632 1.7180001 43
10.039 -2.6329999 1.902 3
10.682 -2.8210001 2.234 35
10.621 -2.825 2.4330001 36
10.568 -2.832 2.6359999 32
10.546 -2.8499999 2.849 31
10.207 -2.7 1.802 43
10.635 -2.8299999 2.0840001 45
10.63 -2.848 2.2939999 43
10.592 -2.859 2.4990001 33
10.593 -2.881 2.7149999 23
10.513 -2.8829999 2.914 13
10.645 -2.855 1.947 38
10.628 -2.868 2.152 40
10.617 -2.885 2.3610001 42
10.594 -2.8989999 2.5699999 34
0 0 0 0
14.031 -3.904 3.99 0
10.634 -2.891 2.013 33
10.619 -2.9059999 2.22 42
10.623 -2.9260001 2.434 30
16.98 -4.7119999 4.2360001 42
10.5 -2.937 2.8380001 1
14.299 -4.033 4.1669998 13
10.64 -2.931 2.0829999 34
10.648 -2.9519999 2.296 11
15.635 -4.3639998 3.687 29
17.187 -4.8319998 4.4070001 38
10.465 -2.9660001 2.9030001 19
17.537001 -5.0139999 5.2399998 42
0 0 0 0
15.594 -4.3790002 3.467 18
15.571 -4.402 3.779 30
16.834 -4.7950001 4.434 34
10.441 -2.997 2.971 5
14.272 -4.1329999 4.368 4
19.615 -5.54 4.099 21
0 0 0 0
15.588 -4.461 3.8900001 30
16.636 -4.7969999 4.4990001 15
14.34 -4.1690001 4.184 3
14.174 -4.1570001 4.4439998 8
18.257999 -5.2179999 3.937 60
15.483 -4.4530001 3.652 31
15.665 -4.5370002 4.0180001 45
10.425 -3.0420001 2.8940001 18
17.323999 -5.0970001 5.1820002 40
14.003 -4.1560001 4.4949999 14
17.820999 -5.152 3.964 14
15.454 -4.4970002 3.7520001 32
16.198999 -4.7459998 4.27 37
10.4 -3.0710001 2.9619999 13
0 0 0 0
13.123 -3.941 4.3119998 7
18.374001 -5.3699999 4.211 38
15.424 -4.5370002 3.8510001 3
10.495 -3.109 2.8399999 4
14.325 -4.276 4.1820002 0
14.261 -4.2940001 4.4759998 7
12.632 -3.8369999 4.2459998 26
0 0 0 0
16.466 -4.895 4.2249999 54
10.405 -3.115 2.8889999 7
14.391 -4.3429999 4.3060002 0
13.527 -4.1160002 4.3460002 8
12.749 -3.915 4.3839998 44
15.467 -4.6139998 3.7550001 13
15.584 -4.6799998 4.1079998 19
10.361 -3.1340001 2.95 11
16.395 -4.9990001 5.0250001 41
12.932 -3.977 4.2519999 23
12.957 -4.0209999 4.5560002 31
15.374 -4.632 3.8380001 21
15.585 -4.7270002 4.2160001 47
15.532 -4.7449999 4.5349998 16
14.955 -4.605 4.6939998 40
12.568 -3.904 4.2270002 29
6.1859999 -1.939 2.223 14
15.169 -4.6129999 3.891 0
10.378 -3.177 2.881 6
15.22 -4.6939998 4.553 48
12.253 -3.809 3.9360001 0
12.471 -3.911 4.289 34
6.1620002 -1.951 2.2620001 23
17.504 -5.3699999 4.612 55
10.367 -3.2019999 2.951 12
15.55 -4.8390002 4.7649999 44
0 0 0 0
6.2480001 -1.978 2.1960001 13
6.1279998 -1.9579999 2.2980001 24
10.35 -3.2030001 2.799 0
16.825001 -5.243 4.9099998 54
12.231 -3.8399999 3.836 2
12.47 -3.948 4.191 29
6.1760001 -1.972 2.2179999 25
6.1230001 -1.974 2.3440001 22
10.365 -3.233 2.875 11
15.873 -4.987 4.744 30
14.095 -4.4619999 4.5240002 11
6.2490001 -1.995 2.1470001 5
6.1560001 -1.983 2.2579999 26
10.384 -3.378 4.0580001 0
7.7919998 -2.45 2.2160001 40
13.106 -4.1500001 4.0120001 3
6.2779999 -2.003 2.0610001 2
6.1859999 -1.9910001 2.1719999 23
6.1300001 -1.9910001 2.296 28
0 0 0 0
7.7709999 -2.461 2.2639999 31
12.777 -4.0760002 4.0019999 17
6.2410002 -2.007 2.095 25
6.1500001 -1.994 2.2049999 37
6.1700001 -2.02 2.359 5
10.549 -3.4879999 4.29 0
7.7719998 -2.4790001 2.319 7
13.143 -4.223 4.211 21
6.2069998 -2.01 2.1289999 22
6.1360002 -2.0050001 2.247 32
12.492 -4.1209998 4.8740001 32
10.511 -3.503 4.3590002 2
12.948 -4.158 3.9530001 35
6.2930002 -2.036 2.0610001 0
6.1659999 -2.0109999 2.1600001 28
6.1370001 -2.0190001 2.2939999 22
0 0 0 0
10.67 -3.582 4.5110002 3
12.651 -4.0879998 3.9519999 22
6.217 -2.0239999 2.0810001 18
6.1389999 -2.0150001 2.1960001 34
12.358 -4.0929999 4.7119999 39
0 0 0 0
7.9840002 -2.6989999 3.4400001 1
13.059 -4.2459998 4.171 17
6.1729999 -2.0220001 2.1110001 24
6.1430001 -2.029 2.243 32
11.894 -3.9649999 4.6259999 38
10.492 -3.5320001 4.3390002 2
7.9159999 -2.694 3.474 25
6.2620001 -2.0469999 2.0439999 0
6.1490002 -2.026 2.1470001 29
6.1849999 -2.0550001 2.3039999 8
11.477 -3.849 4.5510001 35
7.9060001 -2.678 3.3310001 0
7.9039998 -2.707 3.5339999 29
6.3169999 -2.076 2.1070001 29
6.1430001 -2.0350001 2.1889999 34
12.322 -4.118 4.6810002 39
0 0 0 0
7.9330001 -2.7030001 3.405 23
7.895 -2.72 3.5940001 32
6.1620002 -2.036 2.099 27
6.1459999 -2.0469999 2.234 31
12.228 -4.1079998 4.7360001 42
0 0 0 0
7.8979998 -2.7060001 3.4519999 31
7.8959999 -2.7360001 3.658 34
6.152 -2.0420001 2.138 29
6.1880002 -2.0699999 2.2950001 7
11.699 -3.9489999 4.618 33
7.9250002 -2.701 3.3239999 12
7.8920002 -2.7190001 3.5120001 30
7.9130001 -2.757 3.73 32
6.1420002 -2.0469999 2.178 30
12.41 -4.171 4.691 42
0 0 0 0
7.8889999 -2.7019999 3.369 31
7.8769999 -2.7260001 3.5669999 34
7.9310002 -2.777 3.8039999 29
6.1459999 -2.056 2.2219999 25
12.215 -4.1220002 4.7049999 37
7.928 -2.7 3.2460001 1
7.8839998 -2.7119999 3.4260001 33
7.8940001 -2.7449999 3.6359999 35
7.9439998 -2.796 3.8740001 17
6.1919999 -2.0799999 2.2820001 7
11.82 -4.0040002 4.6360002 39
7.9070001 -2.7030001 3.2950001 25
7.8759999 -2.72 3.4820001 32
7.9060001 -2.7609999 3.704 33
7.9910002 -2.825 3.9619999 4
12.389 -4.1750002 4.652 46
11.604 -3.944 4.6339998 37
7.8730001 -2.701 3.339 33
7.8899999 -2.7349999 3.5480001 33
7.9359999 -2.7820001 3.78 28
8.0780001 -2.8670001 4.0700002 12
12.372 -4.1810002 4.7309999 37
7.9439998 -2.7079999 3.2290001 1
7.8790002 -2.7119999 3.3989999 34
7.8969998 -2.747 3.6099999 37
7.9530001 -2.7980001 3.849 12
8.0690002 -2.875 4.131 7
12.067 -4.0890002 4.697 38
7.9109998 -2.704 3.2709999 18
7.875 -2.7190001 3.454 34
7.9089999 -2.7590001 3.675 36
7.9879999 -2.8199999 3.928 3
10.854 -3.881 5.6430001 27
11.843 -4.0219998 4.691 42
7.8670001 -2.6960001 3.3080001 31
7.8769999 -2.7260001 3.5109999 33
7.9229999 -2.7720001 3.74 32
8.0430002 -2.8469999 4.0159998 5
10.996 -3.944 5.8039999 38
0 0 0 0
7.868 -2.7019999 3.3629999 33
7.8870001 -2.7349999 3.572 37
7.9359999 -2.783 3.8050001 28
8.0760002 -2.8659999 4.0939999 15
10.731 -3.859 5.7490001 34
7.9260001 -2.701 3.2449999 3
7.8769999 -2.7090001 3.421 34
7.8990002 -2.7449999 3.6340001 39
7.9569998 -2.796 3.8729999 23
8.0570002 -2.8659999 4.1459999 0
11.173 -4.0279999 6.0739999 36
7.9039998 -2.697 3.29 17
7.882 -2.714 3.477 34
7.9089999 -2.7520001 3.694 40
7.9660001 -2.8039999 3.9349999 21
11.104 -3.9579999 5.7979999 41
9.0439997 -3.2679999 4.9879999 0
7.8860002 -2.6930001 3.3340001 28
7.882 -2.717 3.5309999 37
7.9159999 -2.7579999 3.753 39
8.0190001 -2.826 4.0190001 27
10.707 -3.823 5.671 34
9.118 -3.3 5.099 4
7.8889999 -2.6949999 3.3870001 29
7.8940001 -2.723 3.589 40
7.934 -2.767 3.816 36
8.0419998 -2.8369999 4.0890002 6
9.1169996 -3.2579999 4.8959999 0
9.2790003 -3.3629999 5.2610002 14
7.8959999 -2.698 3.4400001 29
7.8979998 -2.7249999 3.642 42
7.9330001 -2.7679999 3.869 36
10.902 -3.849 5.619 28
9.1309996 -3.266 4.9689999 2
9.8129997 -3.5610001 5.6370001 9
7.8940001 -2.697 3.49 29
7.9099998 -2.7290001 3.7 43
7.9460001 -2.773 3.9289999 33
11.338 -4.0040002 5.9229999 38
9.2040005 -3.2939999 5.0749998 3
0 0 0 0
7.9000001 -2.697 3.5420001 31
7.915 -2.73 3.753 42
7.9510002 -2.773 3.983 33
11.363 -4.013 6.0120001 39
9.4549999 -3.385 5.2810001 31
8.6999998 -3.1600001 5.1269999 2
7.9089999 -2.698 3.5940001 32
7.9239998 -2.7309999 3.8080001 43
7.947 -2.77 4.033 31
11.419 -4.0310001 6.119 33
9.3079996 -3.3310001 5.2639999 19
7.5599999 -2.7460001 4.5100002 5
7.9229999 -2.6989999 3.648 32
7.9330001 -2.7309999 3.8610001 41
7.9499998 -2.7690001 4.086 26
8.9530001 -3.158 4.8569999 0
9.2290001 -3.3010001 5.2820001 21
7.5349998 -2.7360001 4.5489998 23
7.9260001 -2.6949999 3.698 33
7.947 -2.7320001 3.9170001 42
7.9439998 -2.763 4.1339998 32
8.9799995 -3.164 4.9310002 2
7.7059999 -2.7539999 4.4629998 12
7.9130001 -2.872 4.8330002 18
7.941 -2.6949999 3.7509999 30
7.9450002 -2.7260001 3.9630001 44
7.9450002 -2.7590001 4.1830001 35
8.4370003 -2.9679999 4.6859999 22
8.2510004 -2.944 4.8330002 3
0 0 0 0
7.9619999 -2.6949999 3.806 27
7.947 -2.72 4.0110002 46
7.9400001 -2.7509999 4.2290001 38
7.921 -2.7809999 4.4489999 33
7.948 -2.8310001 4.7069998 21
0 0 0 0
7.9860001 -2.6960001 3.8629999 19
7.9520001 -2.7149999 4.0599999 40
7.9400001 -2.744 4.276 38
7.9130001 -2.7720001 4.493 35
7.9250002 -2.8169999 4.744 36
0 0 0 0
8.0270004 -2.7019999 3.927 5
7.9619999 -2.71 4.1100001 37
7.9369998 -2.7349999 4.3200002 35
7.928 -2.77 4.5489998 37
7.9180002 -2.8080001 4.789 35
0 0 0 0
8.0579996 -2.7019999 3.9849999 0
7.967 -2.7019999 4.1560001 36
7.9450002 -2.7290001 4.369 40
7.9330001 -2.763 4.598 32
7.9180002 -2.8 4.8369999 32
7.9190001 -2.848 5.098 20
8.3059998 -2.7739999 4.151 5
8.0970001 -2.7360001 4.2659998 30
7.948 -2.721 4.414 36
7.9419999 -2.757 4.6479998 33
7.9299998 -2.7950001 4.8909998 29
7.9580002 -2.852 5.1719999 23
8.8800001 -2.9530001 4.4819999 1
8.3739996 -2.8180001 4.4559999 27
8.5649996 -2.9189999 4.803 39
8.052 -2.7839999 4.757 14
7.9520001 -2.793 4.9499998 29
7.9520001 -2.8410001 5.2150002 23
8.8900003 -2.9419999 4.5300002 0
8.4630003 -2.8340001 4.5450001 26
8.6140003 -2.9230001 4.8740001 27
8.2250004 -2.832 4.9029999 0
8.0480003 -2.8150001 5.053 18
7.927 -2.8210001 5.244 31
8.8640003 -2.918 4.559 0
8.54 -2.845 4.6279998 17
10.208 -3.447 5.8280001 23
8.3769999 -2.8699999 5.0359998 3
8.0780001 -2.812 5.1149998 35
7.8779998 -2.7909999 5.256 31
8.4379997 -2.7620001 4.3790002 4
8.4460001 -2.799 4.6170001 5
10.746 -3.609 6.1869998 16
8.257 -2.8150001 5.006 13
7.9619999 -2.7579999 5.0830002 14
7.8860002 -2.78 5.303 28
8.4820004 -2.76 4.4400001 19
8.2360001 -2.7130001 4.54 9
8.2320004 -2.7490001 4.7779999 0
8.2049999 -2.7809999 5.0139999 12
7.8930001 -2.7190001 5.0780001 18
7.875 -2.7620001 5.336 31
8.5129995 -2.7520001 4.4920001 19
8.1330004 -2.6619999 4.5190001 11
8.2089996 -2.724 4.8010001 1
8.1149998 -2.734 4.9959998 27
7.744 -2.652 5.02 13
7.8870001 -2.7509999 5.3829999 32
8.632 -2.7709999 4.5910001 18
8.3929996 -2.7290001 4.698 22
8.1160002 -2.675 4.7820001 5
8.0010004 -2.678 4.961 11
7.8039999 -2.6559999 5.0939999 30
7.8870001 -2.734 5.421 27
8.4219999 -2.684 4.5120001 5
8.1149998 -2.619 4.5749998 23
8.1120005 -2.655 4.8130002 10
7.5710001 -2.516 4.7270002 1
7.9520001 -2.688 5.2249999 8
7.9180002 -2.7260001 5.4780002 21
8.408 -2.658 4.5359998 0
8.1520004 -2.6110001 4.6269999 36
8.0679998 -2.6210001 4.8179998 10
7.5650001 -2.4949999 4.7529998 0
7.914 -2.655 5.2329998 6
7.934 -2.7119999 5.5229998 1
9.4820004 -2.9719999 5.1490002 4
8.1859999 -2.599 4.6760001 23
8.1040001 -2.6110001 4.869 11
0 0 0 0
7.9120002 -2.635 5.2620001 3
9.9680004 -3.3829999 6.9780002 19
9.257 -2.8759999 5.0570002 2
8.1859999 -2.5769999 4.7030001 16
8.0719995 -2.5780001 4.8779998 10
0 0 0 0
7.9039998 -2.6099999 5.2849998 2
9.9610004 -3.3529999 7.0100002 25
9.1379995 -2.8139999 5.0209999 0
8.1969995 -2.5569999 4.7360001 11
8.007 -2.5350001 4.8639998 6
7.5749998 -2.437 4.8390002 0
7.8699999 -2.5769999 5.2880001 1
9.46 -3.158 6.6900001 26
9.9829998 -3.0439999 5.5149999 5
8.2390003 -2.5450001 4.7849998 12
8.2840004 -2.598 5.0580001 14
7.6350002 -2.4330001 4.901 3
7.8870001 -2.559 5.3249998 0
9.5360003 -3.154 6.7740002 26
9.1040001 -2.747 5.0539999 6
8.3509998 -2.5539999 4.8730001 12
8.0100002 -2.487 4.9130001 9
0 0 0 0
7.8829999 -2.5320001 5.3449998 0
9.2910004 -3.0439999 6.6269999 28
8.8640003 -2.6459999 4.9429998 1
8.4919996 -2.5699999 4.9770002 9
8.0279999 -2.4660001 4.9439998 10
9.6409998 -3.01 6.2410002 35
7.8569999 -2.4979999 5.348 0
9.3409996 -3.03 6.6880002 29
11.684 -3.4489999 6.5419998 50
8.6239996 -2.5810001 5.0739999 5
8.1160002 -2.4660001 5.0170002 30
0 0 0 0
7.8639998 -2.474 5.3709998 2
9.4139996 -3.0209999 6.7620001 22
10.936 -3.191 6.1459999 34
9.4280005 -2.789 5.5669999 11
0 0 0 0
8.974 -2.7409999 5.849 31
7.8860002 -2.4530001 5.402 4
9.4060001 -2.984 6.776 26
11.046 -3.1830001 6.2290001 38
0 0 0 0
8.8079996 -2.6140001 5.4790001 33
9.0509996 -2.7320001 5.915 26
7.835 -2.408 5.381 6
9.3669996 -2.938 6.7649999 23
11.519 -3.2780001 6.5139999 45
0 0 0 0
8.7740002 -2.572 5.473 35
0 0 0 0
7.8779998 -2.392 5.4229999 9
9.3409996 -2.8940001 6.7600002 27
0 0 0 0
8.7639999 -2.4960001 5.217 4
8.7700005 -2.5369999 5.4819999 34
0 0 0 0
0 0 0 0
9.1929998 -2.812 6.664 29
11.581 -3.2079999 6.5809999 45
8.7469997 -2.457 5.217 4
8.6800003 -2.477 5.4349999 34
8.2379999 -2.391 5.4169998 3
8.5389996 -2.5250001 5.8979998 25
9.4860001 -2.8640001 6.8860002 36
11.745 -3.207 6.6849999 40
0 0 0 0
0 0 0 0
0 0 0 0
7.8610001 -2.2920001 5.4359999 3
9.3000002 -2.7679999 6.757 27
8.6879997 -2.3369999 4.9520001 2
8.3540001 -2.279 4.9970002 3
0 0 0 0
9.7919998 -2.7609999 6.4520001 39
7.8610001 -2.2590001 5.4400001 0
9.0699997 -2.661 6.5939999 26
8.7189999 -2.309 4.974 8
8.2869997 -2.2260001 4.961 5
8.5159998 -2.325 5.3499999 50
10.076 -2.799 6.6430001 39
9.9469995 -2.816 6.8850002 29
9.5830002 -2.7690001 6.967 27
9.4370003 -2.4590001 5.388 40
8.3079996 -2.197 4.9759998 9
8.4580002 -2.2720001 5.3140001 34
9.1999998 -2.5150001 6.066 26
9.2550001 -2.579 6.4050002 30
0 0 0 0
10.131 -2.596 5.7849998 54
8.3219995 -2.164 4.9840002 10
8.4320002 -2.2279999 5.2969999 34
9.8610001 -2.652 6.4990001 31
8.776 -2.405 6.0710001 32
9.5229998 -2.665 6.9180002 44
0 0 0 0
8.3970003 -2.1459999 5.027 33
8.4110003 -2.184 5.2820001 36
9.4689999 -2.503 6.2379999 26
8.526 -2.2969999 5.8930001 23
7.7940001 -2.145 5.6560001 8
10.745 -2.658 6.131 33
8.599 -2.1589999 5.145 44
8.3629999 -2.1340001 5.2470002 42
8.8450003 -2.2969999 5.8200002 29
0 0 0 0
7.994 -2.161 5.7930002 6
7.2729998 -1.766 4.1459999 27
8.3299999 -2.0539999 4.9780002 35
8.5489998 -2.142 5.3569999 52
8.8610001 -2.2590001 5.823 31
6.9460001 -1.8049999 4.7880001 0
7.98 -2.118 5.7719998 20
7.336 -1.748 4.1760001 26
7.217 -1.745 4.3070002 42
7.131 -1.753 4.461 45
7.1669998 -1.793 4.7010002 40
9.5059996 -2.425 6.54 37
8.1940002 -2.135 5.914 30
6.5710001 -1.535 3.7349999 8
7.7340002 -1.834 4.6069999 16
5.9310002 -1.4299999 3.7030001 3
8.2349997 -2.0209999 5.3899999 41
7.1570001 -1.791 4.9120002 9
0 0 0 0
6.105 -1.397 3.4630001 21
7.4489999 -1.7309999 4.428 30
5.9359999 -1.402 3.697 8
8.2410002 -1.982 5.3800001 37
7.072 -1.735 4.8410001 7
8.0279999 -2.0109999 5.7639999 25
6.099 -1.367 3.451 22
6.7919998 -1.546 4.027 16
0 0 0 0
0 0 0 0
9.3509998 -2.2460001 6.381 29
7.8000002 -1.913 5.5830002 40
6.1040001 -1.339 3.444 23
6.1700001 -1.374 3.648 30
5.9070001 -1.337 3.6589999 2
7.697 -1.774 4.9949999 50
9.0530005 -2.128 6.1570001 27
0 0 0 0
6.1269999 -1.314 3.447 25
6.099 -1.3279999 3.5940001 35
5.9450002 -1.317 3.6689999 3
8.4759998 -1.911 5.4809999 38
0 0 0 0
0 0 0 0
6.158 -1.291 3.4519999 19
6.1059999 -1.299 3.585 34
6.0960002 -1.319 3.7490001 8
0 0 0 0
0 0 0 0
8.2620001 -1.896 5.8429999 27
6.2069998 -1.271 3.4660001 0
6.1220002 -1.272 3.5799999 17
6.0869999 -1.2869999 3.7279999 31
0 0 0 0
7.8179998 -1.716 5.2529998 33
8.1079998 -1.818 5.7090001 36
6.2719998 -1.253 3.4879999 17
6.125 -1.243 3.5669999 22
6.1020002 -1.2589999 3.721 35
6.0949998 -1.28 3.891 3
0 0 0 0
7.5219998 -1.646 5.2690001 10
6.6259999 -1.291 3.668 0
6.1420002 -1.215 3.5599999 30
6.1259999 -1.233 3.717 10
6.0890002 -1.248 3.868 27
0 0 0 0
9.1680002 -1.957 6.3889999 35
6.48 -1.23 3.569 5
6.158 -1.187 3.5510001 25
6.0040002 -1.177 3.6240001 1
6.0949998 -1.217 3.852 29
0 0 0 0
8.8179998 -1.835 6.1110001 30
8.1450005 -1.505 4.4629998 1
6.1609998 -1.156 3.5339999 24
6.1399999 -1.1720001 3.6860001 13
6.1560001 -1.197 3.868 12
6.1550002 -1.221 4.0489998 36
8.2279997 -1.6670001 5.6680002 31
11.266 -2.0239999 6.1389999 36
6.25 -1.141 3.5650001 1
6.151 -1.143 3.6719999 3
0 0 0 0
6.086 -1.174 3.98 29
8.4160004 -1.659 5.7610002 24
7.2820001 -1.271 3.944 9
7.473 -1.326 4.237 1
6.1479998 -1.11 3.6470001 6
0 0 0 0
6.1279998 -1.149 3.9809999 25
6.0710001 -1.163 4.1290002 13
7.1090002 -1.206 3.8269999 6
7.4640002 -1.286 4.204 0
8.493 -1.489 5.006 39
6.2010002 -1.107 3.8239999 1
0 0 0 0
6.1030002 -1.136 4.1220002 25
7.1399999 -1.175 3.8180001 22
11.026 -1.844 6.1690001 34
8.2709999 -1.4069999 4.842 19
6.223 -1.079 3.812 10
6.1599998 -1.089 3.947 2
6.132 -1.108 4.112 16
7.1739998 -1.1440001 3.8099999 17
11.009 -1.784 6.1170001 41
8.3260002 -1.374 4.8400002 40
6.1880002 -1.04 3.7620001 0
0 0 0 0
6.1139998 -1.072 4.0689998 2
7.1939998 -1.1109999 3.7920001 0
11.06 -1.7359999 6.0999999 28
8.3649998 -1.336 4.8260002 29
6.2090001 -1.011 3.747 1
6.2319999 -1.035 3.934 0
6.132 -1.041 4.0489998 0
11.381 -1.701 5.9530001 47
11.369 -1.727 6.2220001 43
0 0 0 0
9.1129999 -1.436 5.4569998 39
6.1149998 -0.98400003 3.8299999 3
7.9809999 -1.312 5.2280002 34
11.449 -1.653 5.941 49
7.1799998 -1.054 3.898 7
9.7299995 -1.455 5.526 21
9.1719999 -1.398 5.448 39
6.1609998 -0.958 3.826 7
8.2270002 -1.308 5.3439999 29
11.76 -1.6390001 6.052 47
7.2410002 -1.027 3.8989999 23
0 0 0 0
9.29 -1.367 5.4720001 47
6.1500001 -0.92400002 3.7869999 4
8.0790005 -1.24 5.2030001 44
11.95 -1.6059999 6.0970001 47
7.2360001 -0.98900002 3.862 9
10.827 -1.508 6.0440001 44
8.9569998 -1.272 5.2290001 9
8.7779999 -1.273 5.3579998 26
8.2220001 -1.219 5.2470002 37
9.8809996 -1.28 4.9959998 3
10.576 -1.393 5.5949998 35
7.5869999 -1.018 4.198 1
0 0 0 0
8.9820004 -1.256 5.4330001 30
8.75 -1.251 5.5339999 28
9.7609997 -1.216 4.8899999 2
11.489 -1.457 6.0219998 46
7.5749998 -0.97799999 4.152 15
9.3369999 -1.23 5.3520002 13
9.1540003 -1.232 5.4850001 36
8.3879995 -1.154 5.2540002 26
9.7180004 -1.163 4.822 27
9.1389999 -1.113 4.744 0
7.3270001 -0.90899998 3.9779999 29
9.3739996 -1.187 5.3210001 47
9.9429998 -1.2869999 5.9000001 28
0 0 0 0
9.6599998 -1.109 4.7449999 6
9.8260002 -1.149 5.0500002 27
7.2880001 -0.86900002 3.9170001 5
7.6719999 -0.93300003 4.3119998 0
10.057 -1.25 5.9089999 24
9.066 -1.153 5.566 29
9.6929998 -1.066 4.7119999 40
10.875 -1.219 5.5310001 7
9.5979996 -1.097 5.1059999 8
7.7290001 -0.90200001 4.2989998 8
9 -1.073 5.2329998 37
8.9239998 -1.089 5.4229999 33
0 0 0 0
0 0 0 0
0 0 0 0
0 0 0 0
9.1040001 -1.04 5.2379999 23
9.0159998 -1.054 5.421 25
10.425 -1.049 4.96 34
9.7440004 -0.99900001 4.8509998 31
10.777 -1.127 5.612 42
7.401 -0.79000002 4.0300002 27
8.4549999 -0.92299998 4.8119998 12
9.1099997 -1.0190001 5.4180002 27
10.158 -0.97399998 4.7779999 6
11.637 -1.138 5.7280002 47
9.8249998 -0.98100001 5.059 60
7.572 -0.77200001 4.0770001 25
0 0 0 0
9.0340004 -0.96499997 5.3130002 31
10.922 -0.99699998 5.0780001 22
11.177 -1.04 5.4390001 42
0 0 0 0
7.3870001 -0.71799999 3.9319999 0
8.9239998 -0.88800001 4.9650002 43
9.1149998 -0.92900002 5.2989998 13
11.613 -1.006 5.3340001 44
11.036 -0.97600001 5.3060002 19
10.309 -0.93099999 5.1859999 42
0 0 0 0
7.3649998 -0.69700003 4.0489998 12
7.8460002 -0.76099998 4.5079999 14
11.553 -0.949 5.2410002 36
10.519 -0.88300002 4.9959998 5
0 0 0 0
0 0 0 0
0 0 0 0
9.1040001 -0.83899999 5.1680002 44
0 0 0 0
0 0 0 0
11.47 -0.93199998 5.6290002 38
10.01 -0.833 5.138 38
9.4639997 -0.80699998 5.079 27
8.6969995 -0.76099998 4.8769999 36
11.789 -0.86400002 5.2119999 14
12.703 -0.95200002 5.882 42
0 0 0 0
0 0 0 0
7.9809999 -0.64399999 4.2290001 4
7.6849999 -0.63599998 4.2550001 54
11.668 -0.80500001 5.0890002 37
12.61 -0.88999999 5.7610002 40
10.797 -0.77999997 5.1630001 46
10.358 -0.76800001 5.1810002 34
0 0 0 0
7.98 -0.62400001 4.362 48
9.5389996 -0.61699998 4.1030002 25
12.538 -0.83099997 5.652 51
0 0 0 0
0 0 0 0
7.4710002 -0.53500003 3.8559999 2
8.0019999 -0.58899999 4.3169999 25
0 0 0 0
11.806 -0.73199999 5.2470002 48
11.714 -0.74599999 5.4510002 10
11.131 -0.72799999 5.4200001 40
7.5339999 -0.50700003 3.8369999 0
7.7270002 -0.53500003 4.1129999 92
10.765 -0.60699999 4.4990001 56
9.5710001 -0.55400002 4.1929998 43
12.613 -0.75 5.7880001 40
8.5710001 -0.52399999 4.1160002 2
0 0 0 0
8.1569996 -0.52899998 4.283 33
11.274 -0.58999997 4.6420002 45
0 0 0 0
12.4 -0.68699998 5.6079998 35
8.5930004 -0.49000001 4.0679998 26
8.4049997 -0.49399999 4.1630001 2
8.191 -0.49599999 4.2410002 26
11.564 -0.56 4.6890001 44
10.422 -0.51899999 4.4320002 26
9.5559998 -0.49000001 4.2589998 12
8.816 -0.46599999 4.1139998 15
8.4449997 -0.461 4.1230001 29
8.323 -0.47 4.2490001 15
0 0 0 0
10.853 -0.498 4.5450001 41
0 0 0 0
8.8199997 -0.43099999 4.0549998 7
8.4440002 -0.42699999 4.0619998 39
8.2950001 -0.433 4.1729999 43
0 0 0 0
11.514 -0.484 4.7459998 46
0 0 0 0
9.2659998 -0.417 4.1950002 12
8.7530003 -0.40700001 4.1479998 36
8.0050001 -0.38600001 3.967 30
10.403 -0.384 4.0190001 52
9.3100004 -0.35600001 3.776 3
10.936 -0.43399999 4.6529999 43
7.4650002 -0.30700001 3.3280001 13
8.7810001 -0.375 4.098 46
7.9029999 -0.34999999 3.858 59
10.338 -0.345 3.927 80
0 0 0 0
11.253 -0.405 4.711 39
7.5349998 -0.28200001 3.306 22
0 0 0 0
7.9829998 -0.32300001 3.8380001 52
11.184 -0.33199999 4.1750002 55
11.088 -0.34400001 4.349 53
0 0 0 0
9.9359999 -0.33500001 4.289 4
7.454 -0.26199999 3.3710001 1
8.0100002 -0.294 3.7909999 32
11.283 -0.296 4.138 51
8.4429998 -0.23199999 3.2550001 87
11.231 -0.32300001 4.546 51
10.899 -0.32800001 4.6269999 42
7.467 -0.236 3.3210001 32
0 0 0 0
11.109 -0.25400001 4 48
8.4549999 -0.20299999 3.2019999 3
8.4680004 -0.215 3.369 47
8.2950001 -0.221 3.4630001 0
7.5180001 -0.211 3.289 7
0 0 0 0
11.097 -0.21699999 3.9219999 18
10.545 -0.219 3.9219999 64
8.467 -0.186 3.3099999 47
0 0 0 0
10.843 -0.26699999 4.665 49
8.2130003 -0.214 3.7 36
10.905 -0.178 3.7809999 18
0 0 0 0
8.6560001 -0.162 3.322 32
8.3319998 -0.16599999 3.359 45
8.5950003 -0.183 3.6340001 29
7.598 -0.17200001 3.365 36
10.709 -0.142 3.6400001 8
9.9429998 -0.14300001 3.5610001 2
0 0 0 0
8.5240002 -0.14300001 3.3740001 45
8.5410004 -0.154 3.5469999 39
7.5999999 -0.147 3.3080001 43
10.629 -0.108 3.5420001 21
13.822 -0.156 4.855 50
10.669 -0.133 3.944 64
8.4849997 -0.116 3.2969999 49
8.5089998 -0.127 3.47 36
7.6469998 -0.124 3.27 17
10.452 -0.075999998 3.4100001 9
10.297 -0.086000003 3.5439999 4
10.128 -0.096000001 3.6719999 8
11.089 -0.117 4.2270002 36
8.4350004 -0.098999999 3.3770001 41
8.1890001 -0.107 3.4389999 38
10.621 -0.046999998 3.3929999 27
13.47 -0.072999999 4.5430002 45
10.131 -0.066 3.6010001 25
0 0 0 0
8.4870005 -0.075000003 3.335 44
7.6440001 -0.077 3.1530001 39
10.459 -0.017000001 3.27 10
10.468 -0.028000001 3.457 6
10.174 -0.037999999 3.543 3
9.8730001 -0.048 3.6199999 13
0 0 0 0
8.2290001 -0.059 3.3299999 37
10.6 0.0089999996 3.2409999 53
10.548 -0.001 3.4100001 18
10.217 -0.011 3.4860001 6
10.205 -0.022 3.668 1
11.03 -0.035999998 4.1700001 34
0 0 0 0
10.586 0.037 3.1630001 0
10.606 0.026000001 3.3540001 10
10.354 0.014 3.4579999 27
10.149 0.0040000002 3.573 13
10.699 -0.0070000002 3.964 46
8.3409996 -0.015 3.2479999 50
13.916 0.082000002 4.0609999 14
10.583 0.052000001 3.2709999 47
10.418 0.041000001 3.404 8
10.241 0.029999999 3.53 12
9.9619999 0.017999999 3.615 28
7.8150001 0.0049999999 2.9820001 39
13.158 0.109 3.7479999 19
10.605 0.077 3.2019999 58
10.481 0.066 3.349 18
10.363 0.055 3.4949999 1
9.9300003 0.041999999 3.529 15
7.7360001 0.025 2.8929999 29
13.209 0.139 3.6700001 42
10.633 0.102 3.1359999 0
10.602 0.090999998 3.3099999 42
10.435 0.079000004 3.4419999 3
10.165 0.067000002 3.5369999 27
7.7849998 0.043000001 2.852 1
13.245 0.168 3.5869999 34
13.727 0.162 3.95 49
10.571 0.114 3.224 28
10.509 0.103 3.3900001 2
10.371 0.092 3.53 40
10.048 0.079000004 3.6029999 20
13.231 0.19499999 3.49 43
13.235 0.183 3.714 22
13.61 0.176 4.052 49
10.534 0.126 3.3199999 33
10.403 0.114 3.4619999 7
10.336 0.103 3.6270001 23
13.161 0.22 3.3789999 47
13.162 0.208 3.5999999 20
13.603 0.20200001 3.951 22
10.443 0.145 3.214 32
10.484 0.13600001 3.411 7
10.302 0.124 3.5369999 41
13.38 0.248 3.342 46
13.217 0.233 3.52 43
13.098 0.22 3.71 27
10.394 0.16500001 3.122 0
10.451 0.156 3.3210001 39
10.2 0.14300001 3.4219999 13
13.422 0.27200001 3.257 48
13.289 0.25799999 3.4430001 51
13.245 0.24600001 3.654 35
13.551 0.23899999 3.97 49
10.442 0.175 3.2390001 39
13.819 0.219 4.5300002 32
13.519 0.29699999 3.184 22
13.263 0.28 3.3410001 49
12.987 0.26199999 3.4879999 46
13.178 0.255 3.7620001 13
10.41 0.192 3.151 0
10.386 0.182 3.326 15
13.505 0.317 3.086 2
13.364 0.30199999 3.2709999 42
13.247 0.289 3.4619999 46
13.253 0.27700001 3.687 43
13.618 0.273 4.02 32
10.411 0.2 3.253 40
15.821 0.39399999 3.5020001 41
13.442 0.324 3.1930001 55
13.18 0.30599999 3.348 57
12.989 0.29100001 3.516 29
13.22 0.285 3.803 5
10.58 0.219 3.2249999 9
15.884 0.417 3.404 15
13.541 0.34400001 3.1199999 9
13.332 0.32800001 3.29 43
13.036 0.31 3.4330001 52
13.211 0.303 3.7019999 19
13.792 0.30500001 4.0999999 48
19.115999 0.52600002 3.961 61
15.929 0.42500001 3.556 41
13.552 0.35100001 3.2460001 48
13.269 0.333 3.3970001 48
13.091 0.317 3.5710001 40
13.623 0.31900001 3.947 28
18.929001 0.54100001 3.789 56
15.812 0.44 3.4170001 34
13.551 0.366 3.1470001 30
13.376 0.35100001 3.325 43
13.045 0.33199999 3.46 48
13.21 0.32499999 3.7260001 24
19.07 0.565 3.681 61
15.731 0.454 3.2850001 1
16 0.449 3.5999999 49
13.508 0.368 3.2579999 44
13.139 0.34799999 3.3859999 47
13.124 0.33700001 3.6010001 31
19.054001 0.58099997 3.5420001 84
18.906 0.56199998 3.813 61
15.914 0.461 3.4630001 17
13.585 0.38299999 3.1760001 47
13.378 0.36700001 3.348 31
13.066 0.34900001 3.4860001 47
19.066999 0.597 3.4070001 29
18.872 0.57700002 3.668 74
15.753 0.46900001 3.313 0
13.614 0.396 3.082 0
13.596 0.38499999 3.3 39
13.199 0.36399999 3.4219999 45
25.68 0.82200003 4.408 6
19.049999 0.59500003 3.5680001 64
18.910999 0.57700002 3.8410001 55
15.931 0.47499999 3.4909999 12
13.599 0.39500001 3.201 57
13.28 0.37599999 3.3429999 39
0 0 0 0
19.041 0.60600001 3.4289999 39
18.820999 0.58600003 3.6860001 63
18.851999 0.57300001 3.9920001 58
13.617 0.40400001 3.1029999 3
13.524 0.39199999 3.3010001 30
0 0 0 0
25.656 0.82999998 4.4359999 7
19.040001 0.602 3.5899999 60
18.846001 0.583 3.8510001 51
15.928 0.48100001 3.51 27
13.574 0.40000001 3.211 50
0 0 0 0
0 0 0 0
19.024 0.60900003 3.447 53
18.813999 0.58899999 3.7060001 60
18.909 0.579 4.026 54
13.612 0.40799999 3.1159999 5
0 0 0 0
0 0 0 0
25.622 0.82800001 4.4580002 14
19.017 0.60100001 3.608 60
18.805 0.58200002 3.865 52
15.903 0.48100001 3.5220001 33
60.030998 2.0320001 8.165 11
0 0 0 0
0 0 0 0
19.021999 0.60500002 3.47 57
18.819 0.58600003 3.7290001 58
18.954 0.57700002 4.0580001 52
57.161999 1.938 7.3709998 20
0 0 0 0
0 0 0 0
25.65 0.81699997 4.4920001 28
18.959 0.59100002 3.6170001 59
18.816999 0.57499999 3.888 51
56.946999 1.926 6.9380002 67
59.952999 1.988 8.2150002 7
0 0 0 0
0 0 0 0
19.042 0.59299999 3.494 61
18.820999 0.57499999 3.75 59
56.883999 1.914 6.533 66
57.272999 1.888 7.4429998 22
0 0 0 0
0 0 0 0
19.24 0.597 3.3889999 6
18.936001 0.57499999 3.632 64
56.574001 1.887 6.0960002 75
56.891998 1.86 6.9889998 70
0 0 0 0
0 0 0 0
0 0 0 0
19.080999 0.57499999 3.5179999 70
56.563999 1.864 5.6939998 69
56.858002 1.836 6.5799999 64
57.470001 1.8200001 7.5250001 20
0 0 0 0
0 0 0 0
19.212 0.57300001 3.4030001 5
54.370998 1.763 5.092 31
56.584 1.8 6.151 77
56.847 1.771 7.039 65
64.920998 1.983 9.0229998 5
0 0 0 0
25.426001 0.74599999 4.3179998 4
54.549999 1.735 4.7290001 79
56.396 1.7589999 5.7360001 61
56.701 1.733 6.6209998 93
57.549 1.724 7.592 14
0 0 0 0
0 0 0 0
54.353001 1.6900001 4.3369999 78
54.247002 1.653 5.138 53
56.457001 1.6849999 6.1929998 70
56.925999 1.665 7.105 54
64.806999 1.858 9.0740004 12
0 0 0 0
54.02 1.633 3.9300001 72
54.407001 1.612 4.77 96
56.386002 1.637 5.7880001 47
56.398998 1.603 6.6360002 70
57.658001 1.6059999 7.6599998 11
0 0 0 0
53.970001 1.58 3.5539999 16
53.585999 1.5369999 4.3249998 69
54.403 1.528 5.2030001 43
56.136002 1.544 6.211 71
57.424 1.5470001 7.223 53
64.843002 1.711 9.1400003 14
57.82 1.632 3.4100001 26
53.790001 1.4859999 3.9690001 93
54.029999 1.462 4.7940001 104
56.346001 1.493 5.8460002 64
56.332001 1.461 6.6919999 69
57.903 1.47 7.756 9
53.862 1.457 2.8050001 5
53.799999 1.424 3.5999999 41
53.536999 1.386 4.3779998 85
54.967999 1.392 5.3150001 75
56.096001 1.39 6.2649999 63
57.361 1.391 7.2729998 60
111.205 2.8670001 5.033 9
53.841999 1.3559999 3.2290001 5
53.615002 1.3200001 4.0100002 85
54.044998 1.3 4.8470001 93
56.382999 1.327 5.902 56
56.365002 1.296 6.7459998 52
111.167 2.7090001 4.2649999 22
53.719002 1.277 2.8499999 63
53.896999 1.252 3.6589999 92
53.633999 1.217 4.4380002 82
54.553001 1.209 5.3270001 106
56.223 1.216 6.3280001 66
111.102 2.539 3.5009999 9
96.557999 2.1530001 4.467 21
53.280998 1.159 3.2509999 87
53.435001 1.1339999 4.052 84
54.099998 1.12 4.9089999 76
55.570999 1.1210001 5.869 104
154.22099 3.2750001 3.813 17
96.880997 2.0050001 3.822 5
53.735001 1.0829999 2.911 86
53.472 1.05 3.6900001 86
53.618999 1.025 4.4949999 99
54.154999 1.008 5.3449998 71
150.034 2.9289999 2.701 39
103.139 1.956 3.365 21
54.213001 0.99900001 2.566 5
53.193001 0.95300001 3.302 86
53.355 0.92900002 4.1040001 75
53.924999 0.912 4.947 70
59.963001 1.0599999 0.676 2
103.028 1.767 2.671 18
78.228996 1.301 3.177 20
53.563 0.86299998 2.961 96
53.297001 0.83200002 3.7349999 88
53.422001 0.80800003 4.533 70
39.266998 0.61799997 0.17900001 2
102.962 1.566 1.978 6
77.962997 1.146 2.641 3
53.453999 0.75999999 2.598 24
53.013 0.727 3.3570001 95
53.324001 0.70599997 4.1630001 73
39.109001 0.53500003 -0.081 26
102.867 1.3559999 1.293 27
97.487999 1.238 2.658 21
60.452 0.73799998 2.5369999 11
53.306 0.625 3.0179999 91
53.317001 0.60000002 3.803 65
39.213001 0.45199999 -0.34 49
60.049999 0.662 0.35600001 30
98.142998 1.036 2.0220001 30
78.102997 0.78799999 2.756 63
53.327 0.51200002 2.664 35
53.014 0.48500001 3.4260001 91
39.512001 0.36700001 -0.60000002 3
60.002998 0.52700001 -0.037 128
89.138 0.74000001 1.2460001 45
78.192001 0.61299998 2.24 27
60.612999 0.44800001 2.6259999 19
53.141998 0.36899999 3.0829999 80
59.786999 0.414 -1.298 4
59.986 0.38600001 -0.42899999 123
60.007 0.35800001 0.44600001 8
83.911003 0.46200001 1.854 9
59.344002 0.30000001 2.178 48
53.301998 0.24600001 2.7379999 2
0 0 0 0
0 0 0 0
60.118 0.212 0.059 6
83.311996 0.25600001 1.298 21
59.758999 0.15700001 1.803 60
69.041 0.15000001 3.0880001 4
38.640999 0.07 -1.3430001 3
58.354 0.079999998 -1.177 2
78.709999 0.074000001 -0.43700001 75
78.599998 0.037 0.70599997 52
60.063999 0.003 1.4170001 11
60.648998 -0.023 2.312 18
34.368 -0.028999999 -1.415 3
45.327 -0.059 -1.207 1
65.003998 -0.112 -0.78100002 26
