# .PCD v0.7 - Point Cloud Data file format
VERSION 0.7
FIELDS x y z intensity
SIZE 4 4 4 4
TYPE F F F F
COUNT 1 1 1 1
WIDTH 1819
HEIGHT 1
VIEWPOINT 0 0 0 1 0 0 0
POINTS 1819
DATA ascii
3.066 -0.63800001 -1.8609999 7
3.221 -0.66500002 -1.857 8
3.3940001 -0.69499999 -1.858 9
3.5669999 -0.72500002 -1.854 8
3.7379999 -0.755 -1.8430001 9
3.9349999 -0.79100001 -1.84 9
3.1029999 -0.64899999 -1.859 7
3.2639999 -0.67699999 -1.857 8
3.4389999 -0.70700002 -1.858 8
3.6140001 -0.73900002 -1.853 9
3.7950001 -0.77100003 -1.845 9
3.997 -0.80800003 -1.842 9
3.1489999 -0.662 -1.8609999 7
3.3180001 -0.69099998 -1.862 8
3.4860001 -0.72100002 -1.857 9
3.6670001 -0.75300002 -1.853 8
3.848 -0.78600001 -1.844 9
4.0630002 -0.82599998 -1.845 9
3.1930001 -0.67400002 -1.86 7
3.362 -0.70300001 -1.86 8
3.539 -0.73500001 -1.858 9
3.7119999 -0.76599997 -1.849 8
3.901 -0.80000001 -1.842 9
4.1220002 -0.84200001 -1.8430001 9
3.2390001 -0.68599999 -1.86 7
3.4059999 -0.71499997 -1.857 9
3.5869999 -0.74800003 -1.8559999 9
3.763 -0.77999997 -1.846 9
3.964 -0.81699997 -1.8430001 9
4.1900001 -0.85900003 -1.844 9
3.2850001 -0.69800001 -1.86 7
3.4579999 -0.72899997 -1.858 9
3.6389999 -0.76099998 -1.854 9
3.825 -0.79500002 -1.847 9
4.0380001 -0.83499998 -1.848 10
4.2589998 -0.87699997 -1.844 10
3.335 -0.70999998 -1.86 8
3.513 -0.74299997 -1.859 9
3.694 -0.77499998 -1.854 10
3.878 -0.80900002 -1.844 9
4.0949998 -0.85000002 -1.844 10
4.3309999 -0.89499998 -1.844 11
3.388 -0.72299999 -1.8609999 8
3.563 -0.755 -1.857 9
3.75 -0.78899997 -1.853 10
3.9400001 -0.824 -1.844 9
4.1630001 -0.866 -1.844 9
4.4029999 -0.912 -1.844 10
3.4349999 -0.73500001 -1.858 8
3.6129999 -0.76700002 -1.854 9
3.8 -0.801 -1.848 9
4.013 -0.84100002 -1.848 9
4.2350001 -0.88300002 -1.845 10
4.474 -0.92900002 -1.842 10
3.493 -0.74800003 -1.86 8
3.677 -0.78200001 -1.8559999 9
3.8640001 -0.81599998 -1.849 9
4.0809999 -0.85699999 -1.849 9
4.3109999 -0.90100002 -1.846 11
4.5469999 -0.94599998 -1.839 10
3.549 -0.76099998 -1.86 8
3.7290001 -0.79299998 -1.852 9
3.927 -0.82999998 -1.848 9
4.1479998 -0.87199998 -1.847 10
4.3790002 -0.91600001 -1.8430001 10
4.625 -0.96399999 -1.837 11
3.6010001 -0.77200001 -1.857 8
3.7939999 -0.80800003 -1.854 9
3.9960001 -0.84600002 -1.849 10
4.2280002 -0.88999999 -1.85 11
4.4580002 -0.93400002 -1.8430001 11
4.7069998 -0.98199999 -1.835 10
3.6630001 -0.78500003 -1.857 8
3.8570001 -0.82099998 -1.853 9
4.0640001 -0.86000001 -1.848 10
4.2969999 -0.90499997 -1.847 10
4.5359998 -0.94999999 -1.841 11
4.7989998 -1.002 -1.836 11
3.7279999 -0.79900002 -1.858 9
3.915 -0.833 -1.849 10
4.1409998 -0.87599999 -1.85 10
4.3759999 -0.921 -1.847 11
4.6149998 -0.96700001 -1.8380001 11
4.8930001 -1.021 -1.836 10
3.786 -0.81099999 -1.855 9
3.99 -0.84899998 -1.851 10
4.217 -0.89099997 -1.85 11
4.4580002 -0.93699998 -1.847 11
4.7020001 -0.98400003 -1.837 11
4.993 -1.041 -1.837 11
3.8529999 -0.824 -1.855 9
4.0580001 -0.86199999 -1.849 10
4.2979999 -0.90799999 -1.852 11
4.5310001 -0.95200002 -1.842 10
4.7979999 -1.0039999 -1.8380001 12
5.0949998 -1.062 -1.837 11
3.918 -0.83600003 -1.853 9
4.1360002 -0.87699997 -1.85 10
4.3699999 -0.921 -1.848 11
4.6100001 -0.96700001 -1.839 10
4.8990002 -1.023 -1.84 11
5.1999998 -1.082 -1.837 11
3.9820001 -0.84799999 -1.85 9
4.2080002 -0.88999999 -1.848 11
4.454 -0.93699998 -1.848 11
4.7030001 -0.98500001 -1.84 10
4.994 -1.041 -1.8380001 11
5.3049998 -1.102 -1.834 11
4.0570002 -0.861 -1.85 9
4.3000002 -0.90700001 -1.853 11
4.5419998 -0.95300001 -1.848 11
4.802 -1.003 -1.841 11
5.099 -1.0599999 -1.839 12
5.4130001 -1.122 -1.832 11
4.132 -0.875 -1.849 10
4.3779998 -0.921 -1.851 11
4.6269999 -0.96799999 -1.845 11
4.9050002 -1.021 -1.842 11
5.2080002 -1.08 -1.8380001 11
5.54 -1.145 -1.834 11
4.2179999 -0.889 -1.852 10
4.4569998 -0.93400002 -1.848 12
4.7140002 -0.98299998 -1.8430001 11
5.0050001 -1.039 -1.841 11
5.3119998 -1.098 -1.835 12
5.6630001 -1.166 -1.832 13
4.3010001 -0.903 -1.852 10
4.5419998 -0.94800001 -1.846 12
4.8140001 -1 -1.8430001 13
5.1160002 -1.057 -1.842 11
5.4250002 -1.117 -1.8329999 12
5.77 -1.184 -1.824 19
4.3779998 -0.91500002 -1.849 10
4.631 -0.963 -1.845 12
4.914 -1.016 -1.8430001 12
5.2189999 -1.074 -1.839 10
5.5300002 -1.1339999 -1.827 11
5.8509998 -1.1950001 -1.807 20
4.4699998 -0.93000001 -1.85 11
4.7199998 -0.97600001 -1.842 12
5.027 -1.034 -1.846 11
5.3280001 -1.091 -1.836 11
5.6890001 -1.16 -1.836 13
5.961 -1.212 -1.7970001 18
4.5630002 -0.94400001 -1.851 11
4.823 -0.99199998 -1.8430001 12
5.1350002 -1.051 -1.845 12
5.4419999 -1.109 -1.834 11
5.776 -1.1720001 -1.821 19
6.1700001 -1.248 -1.8150001 15
4.6529999 -0.95700002 -1.849 11
4.9229999 -1.007 -1.842 13
5.2449999 -1.067 -1.8430001 10
5.573 -1.1289999 -1.835 11
5.862 -1.183 -1.804 21
6.3600001 -1.279 -1.823 11
4.7379999 -0.96799999 -1.8430001 11
5.0310001 -1.022 -1.841 13
5.3540001 -1.082 -1.84 12
5.7140002 -1.15 -1.8380001 15
5.9899998 -1.201 -1.799 20
6.5229998 -1.303 -1.823 11
4.8340001 -0.98100001 -1.841 11
5.1350002 -1.036 -1.839 12
5.4699998 -1.098 -1.837 12
5.7859998 -1.1569999 -1.818 22
6.2150002 -1.238 -1.821 15
6.684 -1.327 -1.8200001 11
4.9429998 -0.995 -1.8430001 11
5.2470002 -1.051 -1.837 11
5.598 -1.1160001 -1.837 11
5.8790002 -1.1670001 -1.802 21
6.3990002 -1.265 -1.827 12
6.869 -1.354 -1.8200001 11
5.0549998 -1.01 -1.8430001 11
5.3670001 -1.066 -1.837 12
5.7309999 -1.133 -1.836 18
6.0289998 -1.187 -1.803 21
6.5650001 -1.288 -1.826 13
7.0599999 -1.38 -1.819 11
5.1690001 -1.024 -1.8430001 12
5.487 -1.081 -1.835 12
5.803 -1.138 -1.814 25
6.2670002 -1.223 -1.827 13
6.7379999 -1.3099999 -1.824 12
7.2540002 -1.406 -1.817 11
5.277 -1.036 -1.839 11
5.618 -1.097 -1.835 12
5.895 -1.146 -1.799 21
6.4450002 -1.247 -1.831 13
6.908 -1.332 -1.8200001 12
7.4699998 -1.4349999 -1.817 12
5.3940001 -1.049 -1.837 11
5.7379999 -1.11 -1.829 18
6.0689998 -1.168 -1.806 21
6.6059999 -1.266 -1.8279999 12
7.1069999 -1.357 -1.821 12
7.6820002 -1.462 -1.814 13
5.5170002 -1.062 -1.836 11
5.8130002 -1.113 -1.808 23
6.3119998 -1.2029999 -1.83 11
6.777 -1.286 -1.825 12
7.303 -1.38 -1.818 12
7.8969998 -1.488 -1.8099999 12
5.652 -1.076 -1.836 12
5.9200001 -1.1210001 -1.796 21
6.4749999 -1.221 -1.829 12
6.9569998 -1.306 -1.822 12
7.5100002 -1.404 -1.816 11
8.1470003 -1.518 -1.809 11
5.7620001 -1.085 -1.827 16
6.1090002 -1.1440001 -1.807 18
6.6409998 -1.238 -1.826 12
7.1550002 -1.3279999 -1.821 12
7.7389998 -1.4299999 -1.8150001 12
8.3900003 -1.546 -1.803 12
5.8390002 -1.086 -1.8049999 17
6.3509998 -1.175 -1.83 13
6.8169999 -1.255 -1.823 12
7.3520002 -1.348 -1.818 12
7.9720001 -1.456 -1.813 11
8.6599998 -1.576 -1.8 12
5.9840002 -1.099 -1.803 17
6.5040002 -1.188 -1.824 12
7.0089998 -1.274 -1.823 12
7.559 -1.368 -1.814 12
8.2080002 -1.48 -1.807 12
8.9420004 -1.607 -1.796 12
6.1869998 -1.1210001 -1.817 14
6.6729999 -1.2029999 -1.822 12
7.204 -1.2920001 -1.821 12
7.8000002 -1.393 -1.816 11
8.4519997 -1.5039999 -1.802 11
9.2320004 -1.637 -1.79 12
6.4000001 -1.1440001 -1.832 11
6.8470001 -1.217 -1.819 12
7.4029999 -1.3099999 -1.818 13
8.0139999 -1.4119999 -1.809 11
8.7180004 -1.53 -1.798 12
9.5480003 -1.67 -1.7869999 12
6.5630002 -1.156 -1.829 12
7.033 -1.233 -1.817 11
7.6300001 -1.331 -1.819 11
8.2530003 -1.433 -1.8049999 12
8.9919996 -1.5549999 -1.793 13
9.8940001 -1.705 -1.784 12
6.737 -1.169 -1.827 11
7.2319999 -1.248 -1.816 12
7.8540001 -1.349 -1.816 11
8.5089998 -1.455 -1.801 11
9.2969999 -1.5829999 -1.789 12
10.257 -1.74 -1.78 13
6.8979998 -1.178 -1.8200001 10
7.4320002 -1.262 -1.813 13
8.0679998 -1.363 -1.809 11
8.776 -1.476 -1.7970001 12
9.6129999 -1.61 -1.784 12
10.647 -1.777 -1.775 12
7.0949998 -1.191 -1.8200001 12
7.6459999 -1.276 -1.8099999 12
8.3120003 -1.38 -1.804 12
9.0570002 -1.497 -1.791 13
9.9750004 -1.642 -1.783 12
11.042 -1.811 -1.767 13
7.3010001 -1.204 -1.8200001 12
7.8829999 -1.293 -1.8099999 11
8.5570002 -1.396 -1.798 12
9.3500004 -1.5190001 -1.786 12
10.338 -1.6720001 -1.779 12
11.473 -1.848 -1.76 12
7.5 -1.214 -1.816 13
8.1129999 -1.306 -1.8049999 11
8.8269997 -1.414 -1.793 12
9.6850004 -1.544 -1.784 12
10.724 -1.702 -1.774 12
11.956 -1.89 -1.756 12
7.7049999 -1.224 -1.811 12
8.3479996 -1.318 -1.8 12
9.1140003 -1.431 -1.789 12
10.026 -1.567 -1.779 12
11.137 -1.733 -1.768 13
12.449 -1.929 -1.747 10
7.948 -1.237 -1.812 11
8.6009998 -1.33 -1.794 12
9.4180002 -1.449 -1.786 12
10.4 -1.592 -1.776 12
11.566 -1.762 -1.76 14
12.989 -1.971 -1.738 11
8.1789999 -1.245 -1.807 11
8.8730001 -1.3430001 -1.79 12
9.75 -1.4680001 -1.783 12
10.782 -1.615 -1.77 13
12.016 -1.791 -1.75 13
13.609 -2.02 -1.734 10
8.4060001 -1.252 -1.799 12
9.1540003 -1.355 -1.785 11
10.09 -1.485 -1.778 12
11.181 -1.637 -1.762 13
12.532 -1.826 -1.745 12
14.224 -2.0639999 -1.722 11
8.6619997 -1.26 -1.795 12
9.4630003 -1.368 -1.7819999 12
10.452 -1.502 -1.772 12
11.622 -1.661 -1.756 13
13.099 -1.863 -1.74 11
14.948 -2.1170001 -1.716 8
8.9320002 -1.268 -1.791 12
9.783 -1.38 -1.777 12
10.834 -1.518 -1.767 13
12.083 -1.684 -1.749 12
13.653 -1.8940001 -1.728 9
15.735 -2.1719999 -1.7079999 9
9.2189999 -1.275 -1.786 12
10.119 -1.39 -1.772 12
11.239 -1.535 -1.761 13
12.571 -1.707 -1.74 12
14.315 -1.934 -1.723 8
16.555 -2.2260001 -1.696 10
9.5170002 -1.281 -1.7819999 12
10.473 -1.4 -1.767 12
11.654 -1.548 -1.752 13
13.108 -1.7309999 -1.732 11
14.964 -1.966 -1.7079999 10
17.6 -2.3 -1.6950001 44
9.8380003 -1.2869999 -1.778 12
10.857 -1.411 -1.763 13
12.119 -1.5650001 -1.7460001 12
13.694 -1.757 -1.726 10
15.73 -2.007 -1.701 9
18.172001 -2.3069999 -1.643 53
10.162 -1.29 -1.772 12
11.243 -1.418 -1.755 13
12.604 -1.579 -1.739 13
14.305 -1.781 -1.717 11
16.556 -2.049 -1.692 10
19.400999 -2.388 -1.6390001 13
10.525 -1.295 -1.7690001 12
11.653 -1.424 -1.747 12
13.126 -1.5930001 -1.7309999 12
14.974 -1.8049999 -1.706 8
17.424 -2.0869999 -1.676 11
20.804001 -2.4779999 -1.636 11
10.898 -1.2970001 -1.765 13
12.108 -1.431 -1.7410001 11
13.712 -1.608 -1.725 11
15.704 -1.83 -1.696 9
18.681999 -2.1630001 -1.688 34
22.117001 -2.5450001 -1.61 11
11.279 -1.296 -1.756 13
12.594 -1.436 -1.734 11
14.311 -1.619 -1.714 9
16.518999 -1.8559999 -1.686 10
19.476999 -2.174 -1.646 64
23.657 -2.6229999 -1.586 8
11.684 -1.293 -1.748 12
13.111 -1.4400001 -1.726 11
14.975 -1.632 -1.705 8
17.407 -1.882 -1.675 11
20.242001 -2.1730001 -1.594 34
25.445 -2.714 -1.562 15
12.14 -1.2920001 -1.743 11
13.659 -1.441 -1.717 11
15.645 -1.638 -1.691 9
18.304001 -1.901 -1.6569999 12
21.922001 -2.26 -1.603 9
27.111 -2.776 -1.5140001 9
12.594 -1.286 -1.734 11
14.245 -1.442 -1.709 11
16.421 -1.647 -1.681 10
19.396 -1.9299999 -1.647 13
23.445999 -2.3150001 -1.584 7
29.218 -2.8640001 -1.471 7
13.084 -1.278 -1.725 11
14.871 -1.439 -1.699 11
17.282 -1.658 -1.6720001 11
20.562 -1.956 -1.632 15
25.079 -2.3640001 -1.5549999 8
31.617001 -2.9560001 -1.418 5
13.633 -1.2690001 -1.7180001 11
15.569 -1.4349999 -1.689 9
18.223 -1.664 -1.659 12
21.806999 -1.973 -1.608 10
26.739 -2.398 -1.511 7
35.351002 -3.1440001 -1.395 21
14.227 -1.2589999 -1.712 10
16.268 -1.425 -1.674 10
19.233999 -1.668 -1.647 13
22.988001 -1.975 -1.572 8
28.711 -2.444 -1.472 7
36.847 -3.1070001 -1.2589999 19
14.82 -1.243 -1.702 10
17.073999 -1.416 -1.664 10
20.277 -1.665 -1.627 14
24.538 -1.994 -1.548 7
31.07 -2.5 -1.431 6
37.625 -2.9979999 -1.0930001 40
15.467 -1.224 -1.692 10
17.91 -1.401 -1.65 11
21.417 -1.6569999 -1.605 14
26.101999 -1.998 -1.511 7
34.266998 -2.5929999 -1.399 7
37.937 -2.8410001 -0.90700001 88
16.129 -1.199 -1.678 9
18.826 -1.382 -1.635 13
22.688999 -1.646 -1.582 10
28.040001 -2.0109999 -1.479 6
37.063 -2.6270001 -1.326 25
43.347 -3.0380001 -0.81900001 4
16.896 -1.173 -1.668 10
19.843 -1.359 -1.619 14
24.121 -1.631 -1.557 9
30.063999 -2.0079999 -1.432 5
38.071999 -2.5109999 -1.17 42
56.701 -3.6930001 -0.78799999 2
17.712 -1.142 -1.6569999 11
20.923 -1.329 -1.6 15
25.65 -1.607 -1.527 8
32.669998 -2.0179999 -1.392 6
42.953999 -2.6170001 -1.107 32
43.410999 -2.6099999 -0.39199999 142
18.554001 -1.103 -1.641 12
22.054001 -1.291 -1.576 11
27.261999 -1.572 -1.489 7
35.472 -2.0139999 -1.339 2
43.417 -2.427 -0.91000003 51
83.572998 -4.598 -0.35299999 19
19.540001 -1.062 -1.631 14
23.343 -1.247 -1.553 8
28.999001 -1.523 -1.441 5
38.978001 -2.013 -1.285 1
48.634998 -2.4690001 -0.78899997 14
83.792999 -4.1849999 0.034000002 38
20.493 -1.0089999 -1.6109999 15
24.723 -1.194 -1.527 8
31.268999 -1.482 -1.4069999 5
42.837002 -1.993 -1.212 16
48.667999 -2.221 -0.565 131
48.66 -2.178 0.243 68
21.6 -0.949 -1.5930001 14
26.164 -1.126 -1.4910001 6
33.612 -1.416 -1.355 4
44.620998 -1.841 -1.056 4
84.376999 -3.4059999 -0.59399998 16
100.882 -3.983 0.96200001 20
22.749001 -0.88099998 -1.572 11
27.789 -1.05 -1.456 6
0 0 0 0
48.485001 -1.74 -0.926 17
54.455002 -1.905 -0.13699999 64
54.351002 -1.852 0.76099998 43
24.028999 -0.79900002 -1.549 9
29.535999 -0.95499998 -1.413 6
0 0 0 0
54.029999 -1.647 -0.792 22
54.458 -1.612 0.1 67
139.617 -4.007 2.5610001 14
25.306999 -0.704 -1.517 8
31.620001 -0.85000002 -1.3710001 4
44.683998 -1.16 -1.198 1
54.493 -1.365 -0.56300002 5
87.032997 -2.099 0.53500003 31
122.724 -2.8469999 2.7750001 42
26.841 -0.60000002 -1.4910001 7
34.138 -0.72899997 -1.331 3
52.535999 -1.071 -1.181 2
46.695 -0.90700001 -0.28099999 4
86.879997 -1.61 0.903 18
0 0 0 0
28.422001 -0.47499999 -1.455 7
38.120998 -0.60000002 -1.323 48
46.818001 -0.69199997 -0.85500002 16
46.616001 -0.64300001 -0.083999999 50
131.474 -1.693 1.913 32
181.27 -2.1619999 5.6079998 24
30.162001 -0.33199999 -1.416 6
40.082001 -0.40400001 -1.224 56
47.116001 -0.42899999 -0.66600001 118
46.717999 -0.38100001 0.104 8
139.94701 -1.012 2.598 20
193.27499 -1.204 6.7529998 28
31.990999 -0.169 -1.369 5
42.835999 -0.18700001 -1.1339999 21
78.811996 -0.26699999 -0.79799998 8
87.420998 -0.211 0.54299998 60
124.567 -0.184 2.8039999 34
124.816 -0.061999999 4.8460002 20
0 0 0 0
46.241001 0.064999998 -1.04 4
78.553001 0.191 -0.484 39
133.86301 0.458 1.355 13
185.713 0.81199998 4.9000001 25
0 0 0 0
0 0 0 0
54.924999 0.40099999 -1.021 15
78.140999 0.64600003 -0.184 69
0 0 0 0
185.817 1.9119999 5.6059999 25
0 0 0 0
39.369999 0.48199999 -1.222 2
55.703999 0.73699999 -0.82499999 20
77.875 1.108 0.108 21
0 0 0 0
0 0 0 0
130.981 2.26 6.5560002 31
41.206001 0.75199997 -1.125 1
45.941002 0.884 -0.51099998 105
0 0 0 0
0 0 0 0
0 0 0 0
122.663 2.855 6.573 29
45.701 1.11 -1.082 7
45.522999 1.153 -0.34200001 114
45.606998 1.199 0.391 1
185.05901 5.0560002 4.5780001 35
0 0 0 0
122.683 3.6010001 6.9970002 15
45.491001 1.382 -0.917 61
45.591 1.429 -0.186 60
81.153999 2.6270001 0.97399998 65
0 0 0 0
0 0 0 0
122.828 4.3499999 7.4120002 33
0 0 0 0
77 2.8829999 -0.059 40
81.024002 3.1159999 1.239 59
133.354 5.2719998 4.1890001 10
0 0 0 0
0 0 0 0
0 0 0 0
76.780998 3.355 0.19400001 13
81.196999 3.632 1.507 23
142.98199 6.5450001 4.9489999 106
129.907 6.079 6.5819998 22
0 0 0 0
76.682999 3.7579999 -0.787 9
80.515999 4.027 0.46000001 57
101.27 5.1659999 2.198 13
166.668 8.6780005 6.289 16
129.50999 6.8769999 6.9619999 17
0 0 0 0
57.713001 3.191 -0.414 150
57.230999 3.2249999 0.50300002 11
0 0 0 0
166.216 9.71 6.7729998 36
131.27699 7.8109999 7.4520001 37
137.33299 8.3240004 10 25
56.881001 3.5109999 -0.237 150
81.666 5.1209998 0.958 14
91.093002 5.8080001 2.5209999 6
170.17599 11.039 7.4330001 38
133.709 8.8199997 7.98 18
0 0 0 0
76.153 5.191 -0.096000001 60
88.661003 6.1350002 1.296 49
90.014999 6.3200002 2.747 21
0 0 0 0
138.897 10.049 8.6719999 31
0 0 0 0
76.087997 5.6750002 0.112 19
80.192001 6.0640001 1.39 18
89.695999 6.8779998 2.9809999 24
0 0 0 0
0 0 0 0
0 0 0 0
79.266998 6.4349999 0.331 43
76.792999 6.3099999 1.535 3
89.531998 7.4520001 3.211 17
0 0 0 0
0 0 0 0
0 0 0 0
78.981003 6.9310002 0.53100002 53
79.848999 7.092 1.802 27
89.801003 8.0679998 3.4489999 6
0 0 0 0
0 0 0 0
0 0 0 0
78.933998 7.4580002 0.72899997 49
79.991997 7.6409998 2.0020001 12
0 0 0 0
0 0 0 0
0 0 0 0
0 0 0 0
79.033997 7.9949999 0.91500002 36
87.813004 8.9700003 2.401 59
0 0 0 0
0 0 0 0
0 0 0 0
0 0 0 0
79.226997 8.5500002 1.097 38
87.971001 9.5810003 2.602 52
0 0 0 0
0 0 0 0
0 0 0 0
0 0 0 0
79.833 9.151 1.274 30
88.319 10.216 2.799 43
169.129 19.747999 8.0290003 17
0 0 0 0
0 0 0 0
0 0 0 0
87.515999 10.632 1.576 62
88.843002 10.886 2.9960001 32
0 0 0 0
0 0 0 0
0 0 0 0
0 0 0 0
87.863998 11.284 1.7539999 55
89.703003 11.614 3.1989999 8
145.54201 18.996 7.4819999 22
0 0 0 0
0 0 0 0
0 0 0 0
88.388 11.962 1.924 51
141.36501 19.278999 5.2950001 12
138.644 19.059999 7.3759999 34
141.597 19.625999 9.7720003 51
269.39999 37.662998 22.863001 43
0 0 0 0
80.519997 11.464 1.892 6
0 0 0 0
138.642 20.021999 7.612 20
141.758 20.635 10.02 27
0 0 0 0
0 0 0 0
80.554001 12.028 2.0209999 4
141.319 21.242001 5.7589998 15
139.06599 21.056 7.8540001 14
141.29201 21.561001 10.213 74
0 0 0 0
0 0 0 0
141.15601 22.083 3.756 27
0 0 0 0
138.45 21.959999 8.0319996 20
141.064 22.531 10.408 27
0 0 0 0
0 0 0 0
177.582 29.054001 4.9749999 24
144.79601 23.84 6.323 28
141.53799 23.459 8.4040003 21
141.754 23.652 10.652 21
0 0 0 0
0 0 0 0
0 0 0 0
0 0 0 0
0 0 0 0
265.04599 46.108002 20.257999 54
0 0 0 0
0 0 0 0
0 0 0 0
0 0 0 0
153.73399 27.672001 9.5030003 25
0 0 0 0
0 0 0 0
0 0 0 0
0 0 0 0
144.54401 26.903999 6.8210001 22
145.04601 27.157 9.1230001 29
264.547 49.84 20.811001 43
0 0 0 0
0 0 0 0
153.26801 29.487 4.98 25
143.334 27.715 6.8990002 40
144.226 28.046 9.2069998 41
264.32401 51.717999 21.051001 54
0 0 0 0
0 0 0 0
174.465 34.831001 5.8200002 23
141.366 28.367001 6.927 38
0 0 0 0
0 0 0 0
0 0 0 0
0 0 0 0
162.00101 33.525002 5.5219998 36
140.90199 29.294001 7.007 37
141.522 29.59 9.2659998 21
0 0 0 0
0 0 0 0
41.536999 8.8360004 4.6939998 55
0 0 0 0
140.537 30.261 7.0799999 15
140.593 30.419001 9.2930002 27
0 0 0 0
41.362999 9.0489998 4.0419998 65
41.263 9.0839996 4.691 49
142.823 31.674 5.0370002 28
139.632 31.106001 7.1100001 27
0 0 0 0
40.407001 9.0900002 3.3310001 24
40.236 9.1020002 3.9549999 61
41.035999 9.3380003 4.6880002 52
118.902 27.253 4.2449999 29
139.21201 32.046001 7.1500001 21
118.735 27.461 7.9660001 15
40.366001 9.3830004 3.346 58
40.023998 9.3509998 3.9530001 56
40.820999 9.5930004 4.6820002 46
136.438 32.292999 4.9099998 14
137.558 32.698002 7.1100001 15
40.155998 9.5880003 2.707 4
39.783001 9.5430002 3.3110001 55
40.143002 9.6800003 3.9790001 45
35.931999 8.7119999 4.1350002 36
140.21201 34.236 5.0760002 27
0 0 0 0
41.556 10.229 2.8110001 65
39.903 9.8690004 3.3299999 61
36.025002 8.9569998 3.5799999 1
36.054001 9.0139999 4.158 49
56.379002 14.193 2.046 62
56.359001 14.242 2.9300001 79
43.389 11.008 2.9400001 13
39.806 10.145 3.3269999 53
36.332001 9.3059998 3.615 1
35.566002 9.1560001 4.1069999 45
56.125 14.552 2.0369999 63
56.032001 14.582 2.914 87
56.057999 14.644 3.8 72
39.715 10.421 3.3210001 52
35.532001 9.368 3.5369999 42
35.361 9.3690004 4.086 48
55.987999 14.939 2.0239999 59
55.985001 14.991 2.904 71
55.942001 15.037 3.7850001 18
39.863998 10.759 3.3299999 10
35.507 9.6280003 3.5320001 43
35.367001 9.6359997 4.085 39
55.769001 15.301 2.0020001 56
55.771 15.351 2.881 78
55.766998 15.404 3.763 20
40.959 11.362 3.415 19
35.771 9.9700003 3.553 1
35.036999 9.8109999 4.0419998 37
114.321 32.237 4.0679998 53
0 0 0 0
0 0 0 0
41.743 11.9 3.4679999 33
35.067001 10.039 3.474 2
34.875999 10.032 4.0149999 31
113.494 32.875999 3.9890001 45
136.67999 39.715 6.9590001 15
40.875999 11.918 2.7290001 38
40.821999 11.947 3.375 1
35.153999 10.33 3.4690001 18
35.179001 10.387 4.0380001 19
112.711 33.511002 3.901 46
40.736 12.145 2.0539999 23
133.339 39.888 8.8380003 25
43.875 13.172 3.608 42
40.974998 12.354 4.0250001 11
34.889 10.565 3.9890001 12
40.709999 12.414 1.381 25
120.974 36.994999 6.0180001 30
120.554 36.979 7.914 20
43.705002 13.456 3.5680001 52
43.091999 13.32 4.2090001 43
36.034 11.188 4.0999999 30
40.655998 12.71 1.349 35
119.627 37.493 5.8670001 32
40.091 12.604 2.6040001 36
39.733002 12.533 3.2160001 1
39.674999 12.563 3.848 12
35.923 11.424 4.0640001 32
110.356 35.344002 3.5639999 53
40.465 12.995 1.95 41
40.525002 13.053 2.599 37
43.471001 14.046 3.484 14
39.606998 12.846 3.8110001 9
35.875999 11.683 4.0320001 51
0 0 0 0
34.556999 11.362 1.632 100
34.532001 11.384 2.1819999 98
34.521999 11.418 2.7349999 91
34.497002 11.451 3.289 27
35.401001 11.798 3.9489999 40
0 0 0 0
34.495998 11.607 1.5930001 102
34.481998 11.632 2.1440001 93
34.466 11.661 2.698 87
34.448002 11.696 3.2520001 39
35.219002 12.006 3.895 44
35.775002 12.284 1.04 40
34.443001 11.856 1.551 94
34.443001 11.885 2.1029999 79
34.346001 11.887 2.6500001 7
31.445999 10.92 2.9349999 16
31.367001 10.934 3.4360001 16
34.301998 12.045 0.95200002 4
34.335999 12.082 1.502 26
123.318 43.495998 7.3769999 12
31.396 11.106 2.3840001 30
34.294998 12.173 3.1600001 15
34.283001 12.214 3.7160001 84
0 0 0 0
34.342999 12.349 1.456 33
31.448999 11.336 1.839 12
31.329 11.324 2.3380001 2
34.296001 12.436 3.115 78
36.108002 13.142 3.869 9
109.958 40.317001 2.7379999 63
31.572001 11.596 1.293 0
31.445999 11.576 1.795 30
34.264 12.646 2.5109999 81
32.219002 11.928 2.8840001 2
32.418999 12.042 3.431 24
0 0 0 0
31.334 11.748 1.234 37
34.234001 12.864 1.901 63
30.556999 11.513 2.1930001 14
30.311001 11.454 2.6689999 26
30.195 11.45 3.152 21
31.228001 11.933 0.67299998 27
31.275999 11.969 1.179 1
30.747999 11.791 1.6569999 33
114.329 43.952 8.0190001 30
115.758 44.634998 10.011 29
36.393002 14.079 3.743 9
31.212999 12.17 0.616 20
31.101999 12.143 1.118 31
112.101 43.854 5.8470001 10
113.877 44.653999 7.7930002 29
115.314 45.344002 9.776 31
0 0 0 0
112.091 44.564999 1.999 14
0 0 0 0
30.927999 12.335 1.557 27
30.77 12.3 2.0510001 25
115.008 46.098999 9.5500002 28
30.875999 12.414 3.0710001 15
109.248 44.282001 1.728 14
112.062 45.486 3.5969999 8
0 0 0 0
30.780001 12.54 1.993 2
30.676001 12.53 2.49 21
26.462999 10.842 2.5840001 3
109.268 45.137001 1.498 29
0 0 0 0
114.061 47.242001 5.2870002 20
114.258 47.424999 7.1729999 29
27.362 11.385 2.1670001 0
26.666 11.126 2.553 29
109.204 45.948002 1.2589999 26
0 0 0 0
113.854 48.028 5.0349998 20
0 0 0 0
26.787001 11.348 2.0680001 26
27.469999 11.67 2.575 10
26.906 11.528 0.248 50
26.875 11.525 0.68800002 42
26.83 11.521 1.127 40
26.766001 11.516 1.5650001 38
26.732 11.526 2.0050001 30
114.987 49.720001 10.538 28
26.903 11.734 0.183 23
26.813 11.704 0.62199998 48
26.74 11.687 1.061 18
116.249 50.891998 6.5370002 26
115.511 50.679001 8.408 21
118.425 52.092999 10.588 17
0 0 0 0
64.741997 28.750999 1.347 3
26.649 11.848 0.99400002 15
26.591999 11.841 1.433 16
115.641 51.599998 8.1520004 21
116.68 52.188999 10.172 16
54.673 24.674999 0.093999997 6
64.461998 29.108 1.178 18
63.983002 28.922001 2.2290001 33
26.479 11.987 1.3609999 22
26.537001 12.035 1.807 29
116.594 53.002998 9.8909998 34
53.250999 24.431 -0.048999999 3
63.556 29.173 0.99299997 8
63.224998 29.051001 2.04 31
63.661999 29.292999 3.1140001 11
26.542 12.236 1.7410001 14
26.445999 12.219 2.177 14
51.709999 24.115999 -0.192 4
64.186996 29.945999 0.82800001 6
63.112 29.466 1.867 32
63.575001 29.719999 2.9419999 28
114.246 53.497002 7.2020001 34
114.511 53.741001 9.1379995 12
51.433998 24.372 -0.336 26
63.737 30.207001 0.64700001 9
62.716999 29.745001 1.684 23
63.470001 30.138 2.766 32
114.218 54.319 6.8979998 42
59.157001 28.193001 4.5669999 14
51.098 24.591 -0.486 34
63.307999 30.469 0.458 31
62.872002 30.278 1.508 19
63.383999 30.559999 2.5869999 28
59.152 28.563999 3.4089999 7
58.117001 28.121 4.3280001 42
39.499001 19.302 -0.495 3
59.571999 29.112 0.252 5
57.365002 28.048 1.207 7
63.054001 30.858999 2.388 23
58.890999 28.865999 3.2260001 2
57.902 28.436001 4.1500001 39
22.486 11.156 -0.35299999 72
22.546 11.184 0.026000001 33
22.535999 11.183 0.40599999 1
22.476 11.163 0.78399998 45
22.525999 11.203 1.168 17
57.500999 28.650999 3.9549999 38
22.386 11.27 -0.42300001 91
22.416 11.283 -0.045000002 53
22.434 11.295 0.33399999 51
22.434 11.302 0.71499997 41
22.375999 11.287 1.092 41
22.451 11.343 1.478 32
30.440001 15.544 -0.676 2
55.271999 28.212999 -0.28799999 21
56.806 29.000999 0.667 18
64.176003 32.786999 1.846 14
22.403 11.458 1.025 11
22.434 11.492 1.408 1
30.427999 15.757 -0.778 14
41.5 21.481001 -0.35499999 1
57.794998 29.917 0.48899999 9
63.453999 32.861 1.62 11
64.624001 33.498001 2.7550001 24
60.713001 31.518 3.6240001 23
27.826 14.607 -0.80800003 2
41.467999 21.754 -0.49399999 50
41.438999 21.737 0.213 38
41.421001 21.737 0.92400002 20
41.346001 21.716999 1.63 21
41.401001 21.775 2.342 15
27.365 14.557 -0.889 18
37.132999 19.738001 -0.56900001 1
56.393002 29.969999 0.101 7
65.522003 34.832001 1.2410001 9
64.669998 34.407001 2.3340001 22
41.383999 22.046 2.204 7
0 0 0 0
34.532001 18.598 -0.65399998 0
54.521 29.354 -0.093999997 8
0 0 0 0
64.911003 34.978001 2.119 21
65.296997 35.230999 3.2590001 3
25.964001 14.176 -1.034 31
30.318001 16.537001 -0.68400002 3
53.73 29.292 -0.28299999 17
54.985001 29.98 0.65600002 10
0 0 0 0
111.995 61.162998 5.2059999 9
25.455 14.071 -1.11 33
29.722 16.412001 -0.78100002 12
42.84 23.643999 -0.382 5
55.228001 30.476999 0.465 4
0 0 0 0
0 0 0 0
24.829 13.893 -1.178 29
26.219 14.653 -0.78799999 1
42.504002 23.737 -0.537 20
54.855 30.629 0.25799999 2
59.914001 33.466 1.322 13
0 0 0 0
24.643 13.953 -1.2640001 29
25.409 14.367 -0.85900003 5
36.757999 20.767 -0.602 17
36.874001 20.827 0.037999999 1
53.18 30.042999 0.98100001 7
109.967 62.172001 3.941 9
24.237 13.882 -1.342 28
25.756001 14.73 -0.97299999 32
32.397999 18.513 -0.65499997 0
36.764 20.997999 -0.098999999 40
36.737 20.983999 0.542 18
36.716 20.986 1.182 17
23.802 13.787 -1.413 27
24.549 14.197 -1.025 22
31.509001 18.202999 -0.76200002 10
52.362999 30.233 -0.345 26
53.088001 30.649 0.58099997 22
36.728001 21.216999 1.046 3
18.127001 10.615 -1.149 0
24.312 14.211 -1.1109999 26
27.57 16.098 -0.77499998 9
41.412998 24.163 -0.433 2
52.978001 30.907 0.37599999 3
52.151001 30.436001 1.2869999 6
18.128 10.73 -1.225 15
23.767 14.041 -1.184 31
25.809999 15.227 -0.829 2
42.648998 25.141001 -0.61500001 18
53.842999 31.733 0.171 7
52.063999 30.691999 1.084 8
17.816999 10.654 -1.279 54
17.902 10.683 -0.96600002 1
24.278 14.468 -0.87800002 2
40.251999 23.964001 -0.74000001 9
52.449001 31.215 -0.037999999 11
17.860001 10.631 0.301 0
17.665001 10.67 -1.344 48
17.774 10.712 -1.033 85
17.796 10.708 -0.71700001 75
17.806 10.704 -0.40000001 73
17.792999 10.69 -0.083999999 41
17.798 10.694 0.23 30
17.474001 10.657 -1.405 28
17.726 10.786 -1.1059999 94
17.73 10.77 -0.78899997 100
17.740999 10.764 -0.472 90
17.733 10.752 -0.156 44
17.743 10.757 0.15800001 35
17.236 10.61 -1.46 17
17.715 10.879 -1.181 67
17.719999 10.862 -0.86199999 69
17.719999 10.848 -0.54500002 69
17.722 10.841 -0.228 41
17.767 10.867 0.086000003 23
16.695 10.37 -1.488 14
17.636999 10.927 -1.252 37
23.346001 14.436 -1.234 31
26.486 16.354 -0.92500001 35
40.228001 24.818001 -0.685 6
53.479 32.984001 0.041999999 8
16.048 10.056 -1.501 13
17.524 10.952 -1.321 40
22.107 13.785 -1.265 24
24.645 15.345 -0.96499997 26
40.007 24.886 -0.84899998 20
52.683998 32.757999 -0.176 21
15.568 9.8380003 -1.526 12
17.447001 10.993 -1.391 29
22.195999 13.954 -1.367 26
23.198999 14.56 -1.0089999 24
0 0 0 0
43.423 27.207001 -0.32699999 1
15.295 9.743 -1.567 17
17.205 10.927 -1.447 15
21.434 13.58 -1.411 23
22.393999 14.163 -1.0700001 27
27.219 17.193001 -0.80699998 17
43.317001 27.343 -0.50700003 14
15.135 9.7159996 -1.62 17
16.646 10.652 -1.475 14
20.764 13.253 -1.46 22
21.924 13.966 -1.142 26
24.209999 15.403 -0.82099998 4
31.98 20.33 -0.50800002 41
14.913 9.6440001 -1.664 14
15.996 10.311 -1.489 13
18.789 12.079 -1.403 12
21.382 13.717 -1.206 24
24.431 15.649 -0.93400002 30
31.906 20.419001 -0.64300001 58
14.501 9.4440002 -1.6849999 11
15.405 9.9989996 -1.502 12
17.877001 11.571 -1.414 17
21.202 13.693 -1.289 25
23.35 15.055 -0.99400002 26
31.829 20.5 -0.77700001 9
14.021 9.1929998 -1.693 10
14.95 9.7670002 -1.526 13
17.409 11.34 -1.455 16
20.815001 13.527 -1.3559999 22
22.381001 14.519 -1.051 28
26.415001 17.117001 -0.759 2
13.535 8.9320002 -1.696 9
14.734 9.6870003 -1.571 17
16.733 10.967 -1.474 14
20.544001 13.431 -1.4299999 25
21.334 13.921 -1.094 25
24.295 15.833 -0.80400002 0
13.114 8.7069998 -1.705 9
14.62 9.6689997 -1.626 16
16.034 10.57 -1.483 13
0 0 0 0
20.576 13.501 -1.1440001 22
24.25 15.889 -0.90600002 5
12.69 8.4729996 -1.7079999 8
14.411 9.5839996 -1.668 13
15.438 10.232 -1.498 12
18.159 12.002 -1.424 17
20.569 13.567 -1.235 23
22.927999 15.099 -0.95700002 12
12.272 8.2379999 -1.709 7
14.003 9.3610001 -1.684 10
14.932 9.9469995 -1.516 11
17.514999 11.634 -1.4529999 16
20.448 13.552 -1.318 22
0 0 0 0
11.891 8.0229998 -1.71 7
13.563 9.1110001 -1.694 9
14.528 9.724 -1.541 15
16.781 11.198 -1.467 14
20.177999 13.432 -1.3890001 22
20.722 13.769 -1.046 22
11.326 7.677 -1.682 26
13.1 8.8400002 -1.696 9
14.362 9.6549997 -1.587 18
16.124001 10.805 -1.48 13
19.679001 13.154 -1.442 21
20.451 13.644 -1.1210001 22
11.217 7.6360002 -1.717 52
12.681 8.5930004 -1.699 8
14.283 9.6400003 -1.643 16
15.524 10.443 -1.495 12
18.200001 12.21 -1.413 14
20.323999 13.607 -1.2029999 22
11.11 7.5929999 -1.751 36
12.296 8.3640003 -1.702 7
14.075 9.5340004 -1.681 10
14.977 10.11 -1.507 12
17.572001 11.829 -1.4400001 16
20.212 13.577 -1.2819999 22
10.633 7.2919998 -1.725 6
11.938 8.1470003 -1.707 7
13.684 9.2989998 -1.696 10
14.522 9.835 -1.525 11
16.983 11.467 -1.466 15
20.086 13.531 -1.3609999 22
10.364 7.131 -1.728 6
11.538 7.8990002 -1.701 7
13.254 9.033 -1.701 9
14.236 9.6669998 -1.558 17
16.23 10.988 -1.472 14
19.684999 13.295 -1.419 31
10.102 6.9699998 -1.7309999 6
11.148 7.652 -1.693 49
12.825 8.7639999 -1.7029999 8
14.146 9.6300001 -1.609 19
15.662 10.627 -1.489 13
0 0 0 0
9.8549995 6.8169999 -1.732 6
11.063 7.6110001 -1.73 48
12.446 8.5240002 -1.707 8
14.086 9.6079998 -1.665 15
15.087 10.257 -1.499 12
17.693001 11.996 -1.428 16
9.6230001 6.6700001 -1.735 6
10.805 7.448 -1.737 18
12.079 8.2869997 -1.709 7
13.81 9.4350004 -1.691 10
14.654 9.9779997 -1.518 11
17.112 11.619 -1.4529999 15
9.4180002 6.539 -1.739 6
10.43 7.2010002 -1.722 5
11.744 8.0690002 -1.7130001 7
13.436 9.1920004 -1.7029999 9
14.252 9.7150002 -1.538 15
16.465 11.191 -1.4680001 14
9.2080002 6.402 -1.7410001 6
10.188 7.0430002 -1.726 5
11.232 7.7249999 -1.686 20
12.982 8.8889999 -1.701 9
14.126 9.6370001 -1.584 19
15.879 10.8 -1.483 13
9.0279999 6.2820001 -1.7460001 6
9.9530001 6.8850002 -1.729 5
11.088 7.631 -1.712 55
12.601 8.6330004 -1.704 8
14.106 9.6280003 -1.64 17
15.32 10.423 -1.493 12
8.8479996 6.1599998 -1.749 7
9.7299995 6.7340002 -1.732 6
11.038 7.598 -1.75 36
12.277 8.4119997 -1.711 7
13.967 9.533 -1.681 12
14.84 10.095 -1.507 11
8.6730003 6.039 -1.75 6
9.507 6.5799999 -1.7309999 6
10.584 7.2859998 -1.721 6
11.905 8.1560001 -1.707 7
13.627 9.2969999 -1.696 10
14.424 9.8079996 -1.524 11
8.5209999 5.9320002 -1.756 7
9.3179998 6.447 -1.735 6
10.349 7.1199999 -1.725 6
11.513 7.8829999 -1.698 7
13.236 9.0240002 -1.701 9
14.216 9.658 -1.559 18
8.342 5.8039999 -1.753 7
9.1289997 6.3109999 -1.737 7
10.117 6.954 -1.727 6
11.208 7.6659999 -1.697 45
12.856 8.7550001 -1.702 8
14.205 9.6389999 -1.614 19
8.1859999 5.6900001 -1.753 11
8.9729996 6.1960001 -1.743 7
9.901 6.7979999 -1.73 6
11.16 7.6230001 -1.734 51
12.498 8.4989996 -1.704 8
14.174 9.6020002 -1.666 14
8.1009998 5.6230001 -1.767 11
8.8059998 6.0710001 -1.745 6
9.6960001 6.6459999 -1.732 6
10.883 7.4200001 -1.734 11
12.148 8.2449999 -1.7029999 7
13.893 9.3929996 -1.687 10
7.928 5.493 -1.76 7
8.6529999 5.954 -1.749 7
9.5010004 6.4990001 -1.733 6
10.567 7.1890001 -1.723 6
11.867 8.0360003 -1.709 7
13.529 9.125 -1.693 9
7.789 5.3839998 -1.758 10
8.4829998 5.8239999 -1.7460001 7
9.3290005 6.3660002 -1.737 7
10.333 7.013 -1.724 6
11.375 7.6830001 -1.681 29
13.176 8.8629999 -1.699 9
7.6500001 5.2740002 -1.756 9
8.3280001 5.7030001 -1.745 11
9.1610003 6.2340002 -1.739 7
10.13 6.855 -1.726 6
11.369 7.6560001 -1.721 49
12.839 8.6099997 -1.702 8
7.573 5.2059999 -1.765 12
8.2019997 5.599 -1.748 12
9.0059996 6.1079998 -1.742 7
9.9370003 6.7020001 -1.729 5
11.187 7.5079999 -1.733 20
12.509 8.3590002 -1.702 8
7.4879999 5.1300001 -1.772 9
8.1079998 5.5159998 -1.756 13
8.8570004 5.9860001 -1.744 7
9.7440004 6.5479999 -1.73 6
10.85 7.2540002 -1.719 6
12.193 8.1160002 -1.702 7
7.3660002 5.0279999 -1.768 7
8.0039997 5.4239998 -1.761 9
8.7270002 5.875 -1.748 7
9.5679998 6.4039998 -1.7309999 6
10.619 7.0710001 -1.719 6
11.713 7.763 -1.675 21
7.2509999 4.9289999 -1.765 8
7.8379998 5.289 -1.751 9
8.5830002 5.7540002 -1.748 7
9.4160004 6.2740002 -1.735 7
10.412 6.901 -1.72 5
11.631 7.6729999 -1.702 52
7.1420002 4.8330002 -1.762 9
7.7470002 5.2030001 -1.756 10
8.4219999 5.619 -1.743 9
9.2639999 6.1430001 -1.738 7
10.217 6.7389998 -1.721 5
11.554 7.5840001 -1.729 32
7.0929999 4.776 -1.773 13
7.6300001 5.099 -1.7539999 12
8.3290005 5.5279999 -1.75 11
9.1040001 6.0050001 -1.737 6
10.031 6.5809999 -1.722 6
11.2 7.3130002 -1.712 6
7.02 4.7020001 -1.776 11
7.5760002 5.0359998 -1.765 12
8.1949997 5.4099998 -1.747 13
8.974 5.8870001 -1.74 7
9.8719997 6.4400001 -1.725 7
10.987 7.1329999 -1.714 6
6.9349999 4.619 -1.775 9
7.4640002 4.9330001 -1.761 7
8.1450005 5.3449998 -1.761 12
8.8570004 5.776 -1.743 7
9.7089996 6.296 -1.726 7
10.784 6.9580002 -1.715 7
6.869 4.5469999 -1.778 8
7.3909998 4.855 -1.765 8
8.0190001 5.23 -1.757 7
8.7349997 5.6609998 -1.745 7
9.5790005 6.1719999 -1.7309999 7
10.601 6.7950001 -1.717 5
6.7839999 4.4619999 -1.775 7
7.2950001 4.7600002 -1.763 8
7.9130001 5.1269999 -1.756 8
8.6239996 5.5510001 -1.747 7
9.434 6.0370002 -1.732 7
10.43 6.6399999 -1.7180001 6
6.7199998 4.3899999 -1.776 8
7.1999998 4.6659999 -1.758 10
7.7989998 5.0180001 -1.752 9
8.5089998 5.4390001 -1.7460001 7
9.309 5.915 -1.734 7
10.246 6.4759998 -1.717 7
6.6560001 4.3169999 -1.776 10
7.152 4.6020002 -1.765 11
7.7420001 4.9450002 -1.7589999 13
8.3739996 5.3130002 -1.7410001 11
9.1960001 5.8000002 -1.737 7
10.105 6.3379998 -1.72 7
6.5970001 4.2459998 -1.777 8
7.0650001 4.5110002 -1.762 11
7.6350002 4.8390002 -1.7539999 11
8.3140001 5.2329998 -1.749 12
9.0719995 5.6760001 -1.737 7
9.9619999 6.1989999 -1.721 7
6.5409999 4.177 -1.777 10
7.0450001 4.4619999 -1.773 11
7.6009998 4.7789998 -1.7640001 12
8.2069998 5.125 -1.747 14
8.9680004 5.5650001 -1.739 7
9.823 6.0619998 -1.722 7
6.5 4.1160002 -1.78 12
6.9629998 4.3730001 -1.768 7
7.4990001 4.6739998 -1.758 8
8.1520004 5.0469999 -1.7539999 10
8.8669996 5.4549999 -1.74 7
9.7159996 5.9450002 -1.726 7
6.4390001 4.0430002 -1.778 9
6.921 4.309 -1.773 9
7.4499998 4.6030002 -1.763 8
8.0719995 4.9530001 -1.755 9
8.7779999 5.3520002 -1.742 7
9.5939999 5.8169999 -1.726 7
6.395 3.9779999 -1.778 12
6.849 4.2259998 -1.7690001 8
7.3759999 4.5159998 -1.761 8
7.9949999 4.8610001 -1.755 8
8.6719999 5.2389998 -1.7410001 8
9.493 5.7020001 -1.729 8
6.3600001 3.9200001 -1.781 8
6.802 4.1570001 -1.7690001 8
7.3060002 4.4310002 -1.758 8
7.902 4.7579999 -1.751 9
8.6059999 5.1490002 -1.745 8
9.3959999 5.5890002 -1.7309999 7
6.3179998 3.8559999 -1.781 8
6.7449999 4.0819998 -1.767 9
7.263 4.3610001 -1.762 12
7.8330002 4.6700001 -1.751 11
8.493 5.0310001 -1.739 9
9.302 5.4780002 -1.732 8
6.2789998 3.7939999 -1.78 8
6.71 4.02 -1.77 10
7.1939998 4.277 -1.758 9
7.757 4.5780001 -1.748 10
8.4440002 4.9499998 -1.744 8
9.2189999 5.3730001 -1.734 8
6.2459998 3.7349999 -1.781 8
6.664 3.951 -1.7690001 8
7.1539998 4.2080002 -1.76 18
7.737 4.5180001 -1.756 13
8.3669996 4.8530002 -1.742 15
9.1309996 5.2649999 -1.734 8
6.2160001 3.677 -1.781 8
6.6020002 3.8710001 -1.762 15
7.1300001 4.1479998 -1.765 10
7.6659999 4.428 -1.752 12
8.3030005 4.7639999 -1.743 11
9.0480003 5.1589999 -1.734 8
6.1820002 3.6159999 -1.781 9
6.6209998 3.8399999 -1.777 10
7.085 4.0760002 -1.7640001 12
7.6550002 4.3709998 -1.761 13
8.2670002 4.6890001 -1.748 14
8.9770002 5.0609999 -1.734 7
6.1570001 3.5610001 -1.781 8
6.54 3.75 -1.763 12
7.0650001 4.0180001 -1.7690001 11
7.5809999 4.2800002 -1.755 8
8.2229996 4.6100001 -1.751 11
8.9189997 4.9689999 -1.7359999 7
6.132 3.5050001 -1.781 7
6.5409999 3.7049999 -1.772 15
7.0079999 3.938 -1.7640001 8
7.5549998 4.2129998 -1.7589999 11
8.1859999 4.5339999 -1.7539999 14
8.8540001 4.8730001 -1.7359999 8
6.0869999 3.437 -1.774 13
6.5149999 3.6459999 -1.772 7
7.0100002 3.891 -1.772 11
7.4879999 4.125 -1.752 8
8.1049995 4.434 -1.747 8
8.8059998 4.7870002 -1.738 7
6.0869999 3.3940001 -1.78 12
6.4819999 3.582 -1.7690001 14
6.9419999 3.8050001 -1.762 8
7.4559999 4.0549998 -1.753 8
8.073 4.3600001 -1.749 9
8.7489996 4.6950002 -1.737 7
6.0799999 3.346 -1.783 8
6.5100002 3.5510001 -1.783 10
6.927 3.747 -1.765 8
7.4180002 3.9820001 -1.751 8
8.0249996 4.2779999 -1.747 8
8.7069998 4.612 -1.738 8
6.0370002 3.2780001 -1.775 15
6.4520001 3.473 -1.772 7
6.9060001 3.6860001 -1.765 8
7.4000001 3.9200001 -1.7539999 8
7.974 4.1939998 -1.743 9
8.6520004 4.5209999 -1.7359999 8
6.0539999 3.244 -1.784 13
6.4369998 3.418 -1.772 14
6.8790002 3.6210001 -1.763 8
7.3579998 3.8440001 -1.75 11
7.9400001 4.119 -1.743 10
8.6099997 4.4369998 -1.735 8
6.0489998 3.1949999 -1.785 8
6.4310002 3.3670001 -1.774 8
6.8670001 3.5650001 -1.765 8
7.3439999 3.783 -1.751 11
7.9190001 4.0489998 -1.744 8
8.5500002 4.3429999 -1.729 10
6.0159998 3.1329999 -1.778 18
6.4159999 3.3110001 -1.773 8
6.8499999 3.5050001 -1.7640001 9
7.3390002 3.7260001 -1.7539999 9
7.9060001 3.9849999 -1.7460001 14
8.5469999 4.2800002 -1.734 8
6.0250001 3.092 -1.7819999 13
6.4099998 3.26 -1.774 11
6.8390002 3.4489999 -1.7640001 8
7.309 3.6570001 -1.75 16
7.8720002 3.911 -1.742 8
8.4849997 4.1869998 -1.726 11
6.0349998 3.052 -1.786 8
6.4029999 3.2090001 -1.773 8
6.835 3.3970001 -1.765 9
7.3099999 3.6029999 -1.753 8
7.8660002 3.849 -1.744 16
8.4870005 4.1240001 -1.7309999 12
6.0009999 2.9879999 -1.777 17
6.3990002 3.158 -1.773 8
6.8280001 3.3410001 -1.765 10
7.2820001 3.5350001 -1.748 14
7.875 3.7939999 -1.749 11
8.4580002 4.0469999 -1.728 12
6.02 2.9519999 -1.7819999 12
6.4169998 3.118 -1.779 9
6.8280001 3.289 -1.765 9
7.3169999 3.4960001 -1.758 14
7.8249998 3.711 -1.739 15
8.4750004 3.9920001 -1.734 13
5.993 2.891 -1.774 11
6.4050002 3.062 -1.775 8
6.8140001 3.2290001 -1.762 11
7.29 3.427 -1.752 10
7.8740001 3.674 -1.751 16
8.4359999 3.9089999 -1.727 12
6.0040002 2.8499999 -1.776 17
6.3979998 3.0079999 -1.772 8
6.8169999 3.178 -1.762 11
7.2810001 3.3670001 -1.749 21
7.816 3.5869999 -1.738 10
8.4610004 3.8559999 -1.733 20
6.027 2.813 -1.781 13
6.4219999 2.97 -1.777 9
6.8319998 3.132 -1.7640001 8
7.3080001 3.323 -1.755 10
7.8470001 3.5409999 -1.744 19
8.4519997 3.7869999 -1.7309999 10
6.0159998 2.7609999 -1.775 9
6.4089999 2.914 -1.771 8
6.8140001 3.0710001 -1.758 12
7.29 3.2579999 -1.749 15
7.836 3.4749999 -1.74 10
8.4560003 3.724 -1.73 19
6.0120001 2.711 -1.77 16
6.4310002 2.8729999 -1.774 8
6.8499999 3.033 -1.7640001 9
7.323 3.2160001 -1.7539999 18
7.8249998 3.4100001 -1.7359999 19
8.4680004 3.664 -1.7309999 9
6.0450001 2.678 -1.777 13
6.4089999 2.813 -1.765 10
6.8569999 2.984 -1.763 8
7.3319998 3.1630001 -1.753 9
7.8990002 3.382 -1.749 12
8.4560003 3.595 -1.725 16
6.0929999 2.652 -1.786 8
6.4450002 2.779 -1.77 8
6.8829999 2.941 -1.765 10
7.3400002 3.1110001 -1.751 18
7.8540001 3.302 -1.735 12
8.5080004 3.5510001 -1.732 13
6.0489998 2.585 -1.7690001 13
6.4640002 2.7360001 -1.771 8
6.8870001 2.8889999 -1.761 9
7.3930001 3.075 -1.7589999 13
7.9099998 3.2639999 -1.743 19
8.4870005 3.477 -1.724 13
6.0770001 2.5480001 -1.771 17
6.4749999 2.6889999 -1.768 11
6.915 2.8469999 -1.763 9
7.3839998 3.0139999 -1.752 10
7.9310002 3.2119999 -1.742 9
8.5539999 3.438 -1.7309999 14
6.1139998 2.5150001 -1.776 10
6.5040002 2.6500001 -1.77 8
6.9369998 2.8010001 -1.763 9
7.3889999 2.9579999 -1.747 17
7.9200001 3.1459999 -1.734 16
8.5620003 3.375 -1.727 9
6.1240001 2.47 -1.772 10
6.5120001 2.602 -1.765 12
6.9520001 2.7520001 -1.76 9
7.4349999 2.918 -1.75 9
7.9959998 3.1140001 -1.743 13
8.5699997 3.312 -1.721 15
6.1469998 2.4300001 -1.771 18
6.5370002 2.5599999 -1.765 17
6.9749999 2.707 -1.758 9
7.46 2.8710001 -1.748 10
8 3.053 -1.7359999 9
8.6370001 3.2720001 -1.727 10
6.1880002 2.3989999 -1.775 11
6.5739999 2.5239999 -1.767 8
7.0110002 2.6670001 -1.7589999 9
7.5 2.8280001 -1.75 12
8.0249996 3.0020001 -1.733 15
8.6560001 3.2130001 -1.722 12
6.2360001 2.368 -1.781 7
6.579 2.474 -1.7589999 14
7.04 2.6240001 -1.757 9
7.5240002 2.78 -1.7460001 9
8.092 2.9649999 -1.738 9
8.7270002 3.1730001 -1.726 9
6.211 2.309 -1.7640001 15
6.619 2.438 -1.761 22
7.0819998 2.5840001 -1.758 9
7.5640001 2.7360001 -1.745 9
8.1149998 2.911 -1.733 10
8.7790003 3.1240001 -1.725 10
6.243 2.2720001 -1.763 12
6.6830001 2.408 -1.767 8
7.1339998 2.5469999 -1.76 10
7.6059999 2.691 -1.744 9
8.1660004 2.865 -1.732 9
8.8249998 3.072 -1.723 9
6.3369999 2.256 -1.779 8
6.677 2.3540001 -1.755 12
7.1810002 2.5079999 -1.761 20
7.6739998 2.6559999 -1.748 11
8.25 2.832 -1.738 12
8.8889999 3.027 -1.723 10
6.329 2.2030001 -1.766 11
6.7189999 2.316 -1.7539999 23
7.2129998 2.4630001 -1.756 13
7.7020001 2.6070001 -1.742 9
8.2810001 2.779 -1.732 10
8.9530001 2.9809999 -1.721 9
6.3660002 2.1670001 -1.7640001 22
6.8000002 2.2909999 -1.7640001 9
7.257 2.4230001 -1.755 10
7.789 2.5769999 -1.749 12
8.3649998 2.744 -1.7359999 13
9.0200005 2.9349999 -1.72 10
6.4159999 2.1340001 -1.766 18
6.7940001 2.237 -1.749 13
7.2839999 2.3759999 -1.748 26
7.8189998 2.527 -1.742 22
8.441 2.7049999 -1.737 19
9.0869999 2.888 -1.717 10
6.4520001 2.096 -1.763 17
6.8579998 2.2060001 -1.752 30
7.3520002 2.342 -1.75 27
7.882 2.4879999 -1.7410001 11
8.4949999 2.6589999 -1.732 13
9.1639996 2.8440001 -1.715 10
6.4980001 2.0610001 -1.762 17
6.901 2.1670001 -1.749 22
7.3800001 2.2950001 -1.742 14
7.9180002 2.4400001 -1.733 19
8.5059996 2.598 -1.7180001 26
9.2580004 2.8050001 -1.716 10
6.5799999 2.0380001 -1.77 8
6.9699998 2.1359999 -1.752 17
7.4549999 2.263 -1.744 23
7.9970002 2.405 -1.734 23
8.6140003 2.5680001 -1.723 18
9.3409996 2.7609999 -1.712 10
6.638 2.0039999 -1.77 8
7.0409999 2.105 -1.7539999 15
7.5190001 2.2260001 -1.743 20
8.0640001 2.365 -1.7309999 10
8.7279997 2.5369999 -1.727 11
9.4280005 2.717 -1.709 10
6.6869998 1.969 -1.767 8
7.1149998 2.0739999 -1.756 9
7.5949998 2.1919999 -1.743 19
8.132 2.325 -1.728 24
8.7799997 2.487 -1.7180001 11
9.5500002 2.6819999 -1.71 9
6.7480001 1.936 -1.767 8
7.1700001 2.0350001 -1.752 8
7.6869998 2.161 -1.7460001 16
8.2480001 2.296 -1.733 23
8.8999996 2.4549999 -1.721 11
9.6529999 2.641 -1.707 9
6.783 1.895 -1.7589999 17
7.2420001 2.003 -1.751 8
7.7540002 2.1229999 -1.742 9
8.342 2.2620001 -1.733 21
8.9519997 2.405 -1.71 26
9.7670002 2.6010001 -1.704 9
6.8379998 1.86 -1.755 17
7.303 1.966 -1.747 9
7.836 2.0880001 -1.7410001 9
8.4589996 2.2320001 -1.7359999 18
9.1140003 2.382 -1.7180001 27
9.8839998 2.5599999 -1.7 10
6.9039998 1.826 -1.753 17
7.3699999 1.929 -1.744 21
7.9219999 2.053 -1.739 10
8.5319996 2.1889999 -1.729 9
9.2449999 2.3499999 -1.719 22
9.9820004 2.5150001 -1.692 13
6.987 1.7970001 -1.7539999 17
7.4640002 1.9 -1.745 19
7.994 2.013 -1.733 11
8.6309996 2.1530001 -1.726 9
9.3950005 2.3210001 -1.722 23
10.171 2.49 -1.697 22
7.1149998 1.778 -1.766 9
7.5450001 1.865 -1.742 17
8.1149998 1.9859999 -1.7359999 21
8.7349997 2.1159999 -1.722 9
9.4870005 2.276 -1.7130001 9
10.314 2.4519999 -1.693 17
7.198 1.747 -1.765 10
7.6339998 1.8329999 -1.7410001 17
8.2089996 1.95 -1.733 18
8.8339996 2.0780001 -1.716 14
9.6169996 2.24 -1.709 10
10.509 2.425 -1.696 23
7.2709999 1.7130001 -1.76 9
7.7480001 1.8049999 -1.743 10
8.3260002 1.919 -1.732 18
9.0050001 2.0550001 -1.723 19
9.7449999 2.2019999 -1.704 10
10.67 2.388 -1.691 11
7.3569999 1.681 -1.758 9
7.8460002 1.773 -1.7410001 9
8.4849997 1.897 -1.74 13
9.1590004 2.027 -1.725 17
9.8789997 2.164 -1.697 14
10.845 2.3529999 -1.686 10
7.4530001 1.651 -1.758 10
7.9549999 1.743 -1.74 10
8.5719995 1.857 -1.7309999 10
9.2939997 1.993 -1.721 18
10.097 2.1429999 -1.704 18
11.032 2.319 -1.682 10
7.5430002 1.618 -1.7539999 9
8.0830002 1.714 -1.742 10
8.7049999 1.826 -1.729 10
9.4289999 1.957 -1.716 11
10.263 2.109 -1.699 17
11.188 2.276 -1.67 17
7.665 1.591 -1.756 10
8.1890001 1.6799999 -1.737 10
8.8479996 1.796 -1.728 11
9.5710001 1.9220001 -1.711 10
10.443 2.075 -1.6950001 18
11.546 2.2720001 -1.686 35
7.7540002 1.557 -1.75 10
8.3140001 1.65 -1.735 10
8.9899998 1.7640001 -1.725 10
9.7489996 1.892 -1.709 11
10.642 2.0439999 -1.691 10
11.692 2.2219999 -1.668 20
7.8839998 1.529 -1.751 10
8.4530001 1.62 -1.735 10
9.1420002 1.733 -1.723 10
9.9449997 1.865 -1.71 11
10.854 2.0139999 -1.688 10
11.978 2.1989999 -1.668 16
7.994 1.497 -1.747 10
8.5970001 1.591 -1.733 10
9.3120003 1.704 -1.722 10
10.132 1.8329999 -1.706 11
11.083 1.983 -1.684 11
12.252 2.1689999 -1.664 10
8.1330004 1.469 -1.747 10
8.7530003 1.562 -1.732 10
9.4910002 1.674 -1.72 10
10.337 1.802 -1.7029999 11
11.322 1.9529999 -1.6799999 12
12.561 2.1429999 -1.66 12
8.2720003 1.4400001 -1.7460001 11
8.9169998 1.533 -1.732 10
9.6660004 1.642 -1.716 10
10.538 1.77 -1.697 10
11.592 1.926 -1.678 11
12.866 2.1140001 -1.653 11
8.4139996 1.41 -1.743 11
9.0790005 1.503 -1.728 10
9.8620005 1.613 -1.714 11
10.791 1.744 -1.697 12
11.887 1.9 -1.675 10
13.223 2.0899999 -1.65 12
8.5600004 1.38 -1.74 11
9.2589998 1.474 -1.727 10
10.088 1.586 -1.714 11
11.018 1.712 -1.6900001 11
12.179 1.87 -1.669 10
13.579 2.062 -1.642 11
8.7329998 1.352 -1.74 10
9.4420004 1.444 -1.723 10
10.302 1.5549999 -1.709 11
11.292 1.684 -1.688 11
12.519 1.846 -1.6670001 11
13.996 2.04 -1.637 11
8.9069996 1.323 -1.738 10
9.6450005 1.414 -1.721 10
10.542 1.526 -1.706 10
11.58 1.656 -1.684 10
12.895 1.822 -1.665 10
14.437 2.016 -1.631 10
9.099 1.295 -1.737 10
9.8520002 1.3839999 -1.717 10
10.788 1.4960001 -1.701 10
11.897 1.6289999 -1.681 10
13.263 1.794 -1.658 9
14.927 1.995 -1.625 8
9.29 1.266 -1.735 10
10.078 1.355 -1.714 11
11.055 1.467 -1.697 10
12.24 1.603 -1.678 10
13.64 1.7640001 -1.648 10
15.477 1.978 -1.62 8
9.4779997 1.234 -1.729 11
10.33 1.327 -1.7130001 11
11.339 1.437 -1.692 10
12.581 1.574 -1.6720001 10
14.093 1.7410001 -1.6440001 9
16.025999 1.956 -1.6109999 9
9.6960001 1.206 -1.727 10
10.577 1.2970001 -1.7079999 10
11.652 1.409 -1.689 9
12.952 1.546 -1.666 9
14.538 1.7130001 -1.633 7
16.695999 1.942 -1.605 10
9.9209995 1.176 -1.723 10
10.828 1.265 -1.7 11
11.992 1.381 -1.6849999 10
13.38 1.52 -1.661 10
15.115 1.6950001 -1.631 8
17.379 1.923 -1.595 11
10.17 1.147 -1.721 11
11.122 1.2359999 -1.697 10
12.356 1.354 -1.682 10
13.799 1.4910001 -1.652 10
15.712 1.674 -1.625 9
18.157 1.909 -1.585 11
10.433 1.117 -1.717 10
11.443 1.207 -1.693 10
12.737 1.323 -1.675 9
14.309 1.466 -1.648 8
16.334999 1.65 -1.6160001 9
18.993 1.892 -1.571 13
10.696 1.085 -1.71 10
11.787 1.177 -1.689 10
13.155 1.294 -1.669 9
14.844 1.439 -1.64 8
17.056999 1.63 -1.608 10
19.954 1.881 -1.559 14
10.985 1.054 -1.705 10
12.15 1.147 -1.684 9
13.612 1.265 -1.663 9
15.458 1.415 -1.635 8
17.822001 1.607 -1.595 11
20.99 1.8660001 -1.54 13
11.32 1.024 -1.702 10
12.536 1.1160001 -1.677 9
14.102 1.235 -1.655 9
16.066 1.386 -1.623 9
18.712999 1.589 -1.586 12
22.197001 1.857 -1.523 13
11.658 0.99299997 -1.697 10
12.966 1.086 -1.6720001 9
14.646 1.206 -1.648 8
16.82 1.363 -1.618 10
19.643 1.567 -1.569 13
23.540001 1.848 -1.5 13
12.051 0.96200001 -1.694 10
13.434 1.054 -1.666 9
15.252 1.177 -1.64 8
17.589001 1.334 -1.604 11
20.700001 1.544 -1.55 15
25.004 1.836 -1.4680001 11
12.448 0.92900002 -1.687 10
13.928 1.021 -1.658 10
15.923 1.147 -1.633 9
18.478001 1.308 -1.592 12
21.997 1.531 -1.5369999 14
26.796 1.8329999 -1.438 7
12.892 0.89700001 -1.682 10
14.476 0.98900002 -1.649 8
16.656 1.117 -1.624 10
19.445 1.281 -1.5779999 13
23.264999 1.505 -1.508 9
28.604 1.818 -1.39 6
13.374 0.86299998 -1.676 9
15.114 0.958 -1.645 8
17.469 1.085 -1.613 11
20.547001 1.253 -1.561 15
24.893 1.489 -1.485 8
30.907 1.816 -1.342 4
13.883 0.82800001 -1.668 10
15.779 0.92299998 -1.635 9
18.365999 1.053 -1.601 12
21.799 1.225 -1.5420001 12
26.610001 1.466 -1.448 6
33.838001 1.8279999 -1.291 4
14.458 0.79299998 -1.66 10
16.551001 0.889 -1.627 10
19.384001 1.0190001 -1.587 13
23.219999 1.197 -1.521 10
28.632 1.4450001 -1.4069999 5
39.409 1.95 -1.296 4
15.08 0.75599998 -1.652 8
17.367001 0.85100001 -1.615 11
20.457001 0.98199999 -1.566 14
24.832001 1.166 -1.494 6
31.065001 1.428 -1.3609999 4
41.59 1.87 -1.1440001 1
15.797 0.71899998 -1.646 9
18.268999 0.81300002 -1.602 12
21.783001 0.94700003 -1.551 13
26.568001 1.128 -1.455 6
0 0 0 0
0 0 0 0
16.558001 0.67900002 -1.635 10
