# .PCD v0.7 - Point Cloud Data file format
VERSION 0.7
FIELDS x y z intensity
SIZE 4 4 4 4
TYPE F F F F
COUNT 1 1 1 1
WIDTH 1871
HEIGHT 1
VIEWPOINT 0 0 0 1 0 0 0
POINTS 1871
DATA ascii
59.973999 -8.8739996 2.6789999 52
60.740002 -8.9119997 3.6329999 26
20.968 -3.0510001 1.572 0
20.091 -2.901 1.813 49
16.778 -2.405 1.771 12
16.754 -2.382 0.465 0
16.822001 -2.3699999 0.72000003 5
61.348 -8.5710001 3.5569999 37
20.851999 -2.888 1.525 15
19.962 -2.7420001 1.7640001 42
25.870001 -3.527 2.681 2
59.872002 -8.0959997 1.549 33
60.283001 -8.0780001 2.467 24
60.728001 -8.0640001 3.4030001 67
20.778999 -2.7360001 1.479 12
20.101999 -2.6240001 1.737 52
25.604 -3.316 2.6029999 20
59.544998 -7.6409998 1.421 64
60.181 -7.6469998 2.3410001 62
24.934 -3.1389999 1.346 1
20.490999 -2.556 1.416 47
20.284 -2.507 1.709 44
20.433001 -2.5050001 2.033 63
20.426001 -2.48 0.44400001 67
20.400999 -2.4519999 0.75 60
20.441 -2.4319999 1.059 72
20.426001 -2.408 1.367 65
20.421 -2.385 1.676 50
20.466999 -2.369 1.9910001 55
20.457001 -2.3440001 0.40000001 67
20.348 -2.306 0.70200002 63
20.478001 -2.2969999 1.015 56
20.469 -2.273 1.323 58
20.695999 -2.2750001 1.651 15
46.925999 -5.1129999 4.4569998 4
25.15 -2.711 0.433 37
20.271 -2.1619999 0.653 1
20.118999 -2.122 0.94999999 26
20.499001 -2.1400001 1.277 68
25.033001 -2.586 1.938 42
24.985001 -2.556 2.313 36
25.084 -2.5369999 0.37200001 56
25.083 -2.5079999 0.74699998 58
19.982 -1.975 0.89499998 53
25.087999 -2.4519999 1.501 65
20.487 -1.9809999 1.535 45
28.549 -2.7309999 2.572 19
25.169001 -2.3800001 0.31 1
63.569 -5.9380002 1.735 17
19.948999 -1.841 0.84299999 3
19.75 -1.801 1.132 31
19.716 -1.776 1.426 49
20.459 -1.822 1.789 10
64.612 -5.6849999 0.62800002 47
63.200001 -5.4879999 1.558 32
28.854 -2.473 1.143 0
19.749001 -1.671 1.079 30
19.370001 -1.619 1.35 53
19.155001 -1.581 1.624 55
28.729 -2.3410001 0.20100001 51
28.709999 -2.3050001 0.62900001 46
28.740999 -2.277 1.0599999 47
28.726 -2.2449999 1.49 41
28.816 -2.221 1.928 12
19.285 -1.467 1.581 6
76.766998 -5.7579999 0.31999999 61
31.74 -2.3440001 0.60600001 4
29.122 -2.1199999 0.991 42
33.564999 -2.4070001 1.646 35
29.58 -2.092 1.895 14
33.478001 -2.3329999 2.6489999 40
31.718 -2.177 0.039999999 2
33.584 -2.266 0.542 49
33.576 -2.2290001 1.044 44
29.379 -1.92 1.354 29
29.537001 -1.9 1.8049999 22
33.73 -2.1370001 2.569 9
33.678001 -2.0969999 -0.059 0
38.307999 -2.3429999 0.50300002 52
38.219002 -2.296 1.073 41
38.403 -2.2679999 1.653 26
29.705 -1.724 1.724 0
29.782 -1.699 2.177 20
38.464001 -2.154 -0.18700001 99
38.460999 -2.1099999 0.384 16
38.265999 -2.0599999 0.954 52
38.005001 -2.006 1.516 1
37.999001 -1.967 2.086 4
50.646999 -2.572 3.5420001 8
29.208 -1.452 -0.237 0
43.076 -2.098 0.292 39
43.365002 -2.066 0.94099998 34
38.130001 -1.777 1.398 19
37.922001 -1.727 1.9579999 35
37.792 -1.686 2.52 41
29.124001 -1.268 -0.33399999 121
29.256001 -1.242 0.1 1
46.646999 -1.932 0.85500002 3
43.867001 -1.774 1.461 22
38 -1.498 1.835 44
37.868999 -1.455 2.3970001 72
29.105 -1.0880001 -0.43399999 124
48.977001 -1.7819999 0 54
48.950001 -1.732 0.73100001 43
48.960999 -1.6849999 1.464 37
49.050999 -1.6390001 2.2019999 37
37.894001 -1.227 2.2679999 45
29.368999 -0.921 -0.542 62
58.132 -1.763 -0.206 106
49.155998 -1.4400001 0.55900002 1
57.929001 -1.641 1.526 42
58.250999 -1.592 2.4070001 32
48.827999 -1.289 2.75 7
29.07 -0.73699999 -0.64200002 14
29.011999 -0.70499998 -0.208 51
62.624001 -1.46 0.484 29
62.804001 -1.402 1.424 16
57.137001 -1.221 2.152 1
56.833 -1.159 2.993 8
28.971001 -0.56199998 -0.74800003 129
28.996 -0.53299999 -0.317 133
29.014999 -0.505 0.116 4
76.532997 -1.256 1.45 25
62.828999 -0.96899998 2.131 8
56.972 -0.82599998 2.7869999 2
28.993 -0.391 -0.861 115
28.992001 -0.36300001 -0.428 132
102.071 -1.177 0.016000001 10
105.506 -1.118 1.597 19
72.375 -0.69700003 2.1789999 13
62.956001 -0.54699999 2.8399999 21
0 0 0 0
29.219999 -0.19599999 -0.54699999 30
101.652 -0.58700001 -0.38100001 13
109.974 -0.52899998 1.233 31
106.386 -0.41 2.7869999 11
72.314003 -0.20900001 2.977 31
29.032 -0.055 -1.095 92
29.07 -0.028999999 -0.66100001 124
29.115999 0 -0.227 100
140.883 0.132 1.011 33
154.41299 0.28600001 3.425 17
86.761002 0.23899999 3.227 33
29.33 0.109 -1.227 38
29.052 0.13500001 -0.77999997 103
29.027 0.162 -0.345 117
0 0 0 0
0 0 0 0
148.604 1.253 4.914 16
33.549 0.31400001 -1.5470001 6
0 0 0 0
0 0 0 0
116.699 1.4119999 -0.126 151
0 0 0 0
0 0 0 0
30.899 0.46000001 -1.559 4
39.556999 0.62699997 -1.403 1
0 0 0 0
0 0 0 0
144.23599 2.678 1.385 15
0 0 0 0
28.971001 0.59100002 -1.59 5
36.569 0.778 -1.457 1
0 0 0 0
0 0 0 0
132.83299 3.1830001 0.69800001 75
0 0 0 0
27.108999 0.69999999 -1.6109999 6
24.318001 0.64899999 -1.079 0
24.237 0.667 -0.70899999 12
24.105 0.685 -0.34299999 2
0 0 0 0
0 0 0 0
25.191999 0.78500003 -1.614 5
24.247 0.77499998 -1.187 20
24.1 0.792 -0.81699997 52
24.014999 0.81 -0.45100001 94
24.084999 0.833 -0.090000004 0
0 0 0 0
23.584999 0.85900003 -1.623 6
23.979 0.89300001 -1.286 14
23.785999 0.90600002 -0.917 4
23.927 0.93099999 -0.56 114
24.139999 0.95999998 -0.20100001 18
0 0 0 0
22.348 0.93000001 -1.646 8
23.514999 0.99800003 -1.375 4
23.591999 1.021 -1.022 150
23.93 1.0549999 -0.67400002 122
24.077 1.082 -0.31400001 29
0 0 0 0
21.122 0.98699999 -1.659 12
24.483999 1.163 -1.55 6
24.059 1.163 -1.158 1
24.204 1.1900001 -0.79799998 27
0 0 0 0
0 0 0 0
19.909 1.031 -1.663 14
23.497999 1.2359999 -1.605 8
24.225 1.2920001 -1.286 22
24.427999 1.323 -0.926 4
55.852001 3.073 -1.271 3
0 0 0 0
18.813 1.068 -1.668 13
22.121 1.273 -1.623 12
26.976999 1.574 -1.568 5
34.081001 2.016 -1.4630001 7
50.417999 3.0220001 -1.398 7
0 0 0 0
17.830999 1.1 -1.674 11
20.816999 1.301 -1.636 13
25.059 1.585 -1.586 5
31.09 1.99 -1.493 4
42.280998 2.7409999 -1.388 3
0 0 0 0
16.962 1.1289999 -1.682 10
19.658001 1.323 -1.648 14
23.399 1.5930001 -1.604 8
28.851999 1.9859999 -1.5369999 5
37.702 2.625 -1.433 7
0 0 0 0
16.127001 1.15 -1.686 14
18.521999 1.334 -1.651 12
22.030001 1.602 -1.625 13
26.690001 1.961 -1.5599999 5
0 0 0 0
0 0 0 0
15.402 1.17 -1.6950001 14
17.580999 1.348 -1.6619999 11
20.724001 1.604 -1.641 15
24.679001 1.928 -1.574 6
31.775 2.507 -1.541 37
39.837002 3.174 -1.325 1
14.719 1.186 -1.701 12
16.681 1.355 -1.669 11
19.476 1.597 -1.648 13
23.027 1.903 -1.5930001 11
28.537001 2.381 -1.5369999 5
0 0 0 0
14.104 1.2 -1.71 13
15.891 1.363 -1.679 14
18.285999 1.581 -1.649 12
21.598 1.882 -1.614 15
27.049999 2.3759999 -1.604 26
33.011002 2.9260001 -1.4529999 6
13.522 1.211 -1.717 15
15.162 1.367 -1.688 12
17.339001 1.575 -1.661 11
20.298 1.857 -1.6289999 15
24.259001 2.237 -1.573 7
30.157 2.8039999 -1.492 5
12.978 1.219 -1.723 16
14.467 1.367 -1.693 14
16.443001 1.564 -1.668 13
19.261 1.844 -1.653 13
22.677999 2.188 -1.596 11
27.778999 2.7 -1.528 5
12.506 1.228 -1.734 15
13.833 1.3660001 -1.7 14
15.663 1.556 -1.679 14
17.937 1.794 -1.643 12
21.268999 2.141 -1.618 16
25.641001 2.5999999 -1.5549999 5
12.056 1.234 -1.744 14
13.28 1.367 -1.711 14
14.938 1.546 -1.689 13
16.978001 1.768 -1.654 10
19.893999 2.086 -1.6289999 14
23.337 2.4630001 -1.55 19
11.639 1.24 -1.7539999 14
12.776 1.368 -1.723 15
14.269 1.536 -1.698 12
16.105 1.743 -1.663 13
18.687 2.0339999 -1.638 13
21.725 2.3800001 -1.568 27
11.213 1.239 -1.7589999 15
12.301 1.3660001 -1.733 15
13.634 1.522 -1.705 14
15.377 1.725 -1.6799999 13
17.493999 1.974 -1.637 11
20.684999 2.348 -1.614 15
10.824 1.24 -1.766 14
11.838 1.3609999 -1.7410001 15
13.073 1.511 -1.715 14
14.634 1.699 -1.688 13
16.603001 1.938 -1.654 12
19.382999 2.2750001 -1.628 13
10.457 1.238 -1.773 16
11.404 1.3559999 -1.749 14
12.553 1.499 -1.724 16
13.989 1.677 -1.698 13
15.75 1.898 -1.664 14
18.104 2.1919999 -1.628 12
10.118 1.237 -1.78 14
10.995 1.349 -1.756 15
12.073 1.487 -1.734 16
13.354 1.651 -1.705 14
15.059 1.8710001 -1.683 13
17.186001 2.145 -1.65 16
9.8219995 1.237 -1.7920001 16
10.609 1.34 -1.762 15
11.635 1.476 -1.744 15
12.822 1.633 -1.717 14
14.301 1.829 -1.687 13
16.204 2.0810001 -1.656 12
9.526 1.234 -1.8 13
10.283 1.336 -1.775 16
11.201 1.46 -1.751 16
12.303 1.6109999 -1.726 16
13.667 1.796 -1.699 13
15.42 2.0350001 -1.671 13
9.2449999 1.2309999 -1.809 15
9.9490004 1.3279999 -1.783 14
10.801 1.446 -1.7589999 15
11.823 1.5880001 -1.734 16
13.086 1.765 -1.709 13
14.643 1.983 -1.679 13
8.9370003 1.221 -1.809 13
9.651 1.322 -1.794 15
10.445 1.4349999 -1.77 16
11.391 1.569 -1.744 15
12.564 1.737 -1.721 16
13.956 1.936 -1.689 14
8.6990004 1.2180001 -1.8200001 14
9.3599997 1.314 -1.803 15
10.123 1.424 -1.7819999 15
10.986 1.55 -1.7539999 15
12.063 1.707 -1.7309999 14
13.351 1.896 -1.701 14
8.4379997 1.209 -1.823 13
9.0500002 1.299 -1.804 14
9.7969999 1.41 -1.79 15
10.602 1.529 -1.762 15
11.593 1.678 -1.739 15
12.804 1.859 -1.714 14
8.1940002 1.201 -1.8279999 14
8.7880001 1.29 -1.812 14
9.4870005 1.395 -1.798 15
10.261 1.513 -1.775 15
11.157 1.649 -1.747 14
12.267 1.819 -1.722 14
7.9380002 1.188 -1.826 14
8.5299997 1.278 -1.818 14
9.1920004 1.38 -1.804 14
9.9239998 1.493 -1.783 14
10.772 1.625 -1.758 14
11.796 1.784 -1.733 15
7.7160001 1.178 -1.831 15
8.2639999 1.263 -1.819 15
8.882 1.36 -1.8049999 13
9.6079998 1.474 -1.7920001 14
10.404 1.6 -1.768 14
11.337 1.748 -1.7410001 14
7.474 1.163 -1.827 14
8.0220003 1.25 -1.822 16
8.6409998 1.348 -1.816 16
9.3079996 1.454 -1.799 14
10.047 1.573 -1.775 14
10.919 1.714 -1.75 13
7.2610002 1.151 -1.827 14
7.7620001 1.2309999 -1.819 14
8.3690004 1.329 -1.817 16
9.0050001 1.432 -1.803 14
9.7270002 1.55 -1.785 14
10.544 1.684 -1.761 14
7.066 1.14 -1.83 13
7.5380001 1.217 -1.821 14
8.1160002 1.311 -1.8200001 15
8.7460003 1.415 -1.813 17
9.4300003 1.528 -1.795 15
10.198 1.656 -1.772 14
6.8920002 1.13 -1.836 14
7.3210001 1.201 -1.821 15
7.881 1.294 -1.824 14
8.4799995 1.393 -1.816 15
9.1359997 1.5039999 -1.802 14
9.8640003 1.626 -1.781 15
6.7049999 1.117 -1.836 14
7.1220002 1.187 -1.824 14
7.6339998 1.272 -1.821 15
8.2030001 1.368 -1.8150001 16
8.8380003 1.476 -1.8049999 14
9.5469999 1.597 -1.789 15
6.5289998 1.104 -1.837 14
6.9429998 1.174 -1.829 15
7.4180002 1.255 -1.823 15
7.9720001 1.349 -1.821 15
8.5819998 1.454 -1.813 14
9.2480001 1.569 -1.7970001 14
6.3699999 1.092 -1.84 12
6.757 1.158 -1.83 13
7.2150002 1.237 -1.825 15
7.717 1.324 -1.818 14
8.3179998 1.428 -1.816 16
8.9569998 1.54 -1.803 14
6.1960001 1.077 -1.837 14
6.5819998 1.1440001 -1.832 15
7.026 1.221 -1.829 14
7.5009999 1.303 -1.821 13
8.0719995 1.403 -1.819 14
8.6739998 1.51 -1.806 16
6.0599999 1.067 -1.8430001 13
6.421 1.13 -1.835 15
6.8470001 1.204 -1.8329999 15
7.2950001 1.283 -1.824 14
7.8309999 1.378 -1.821 14
8.4040003 1.48 -1.8099999 16
5.9219999 1.0549999 -1.847 13
6.2589998 1.114 -1.837 15
6.665 1.186 -1.834 14
7.098 1.263 -1.826 16
7.592 1.351 -1.8200001 14
8.1599998 1.4529999 -1.8150001 15
5.7800002 1.0420001 -1.848 13
6.1170001 1.101 -1.841 15
6.4829998 1.1670001 -1.8329999 15
6.9039998 1.242 -1.8279999 15
7.3839998 1.3279999 -1.823 14
7.9190001 1.425 -1.817 15
5.6370001 1.027 -1.846 13
5.9710002 1.087 -1.8430001 15
6.3340001 1.152 -1.8380001 13
6.7379999 1.224 -1.8329999 14
7.1849999 1.306 -1.827 14
7.6900001 1.398 -1.8200001 14
5.507 1.0140001 -1.847 12
5.8439999 1.074 -1.849 16
6.1750002 1.1339999 -1.839 14
6.5630002 1.204 -1.834 15
6.987 1.2819999 -1.827 13
7.4580002 1.368 -1.818 15
5.3990002 1.003 -1.854 13
5.6869998 1.0549999 -1.844 14
6.0320001 1.118 -1.842 14
6.3959999 1.184 -1.835 15
6.8060002 1.26 -1.83 14
7.256 1.3430001 -1.821 13
5.277 0.99000001 -1.854 12
5.5580001 1.04 -1.846 15
5.8959999 1.102 -1.846 14
6.2490001 1.1670001 -1.84 12
6.6329999 1.238 -1.832 14
7.0599999 1.317 -1.823 13
5.1570001 0.97600001 -1.854 12
5.4390001 1.027 -1.849 15
5.7540002 1.084 -1.846 15
6.0939999 1.147 -1.84 13
6.4770002 1.2180001 -1.837 16
6.8559999 1.289 -1.821 14
5.0409999 0.96100003 -1.853 12
5.3249998 1.013 -1.853 13
5.6230001 1.068 -1.848 14
5.947 1.128 -1.842 14
6.3109999 1.1950001 -1.837 14
6.6999998 1.268 -1.8279999 13
4.934 0.94800001 -1.854 11
5.2140002 0.99900001 -1.855 14
5.4899998 1.05 -1.846 13
5.8249998 1.112 -1.848 13
6.1459999 1.1720001 -1.834 13
6.5279999 1.243 -1.8279999 14
4.8270001 0.93400002 -1.853 12
5.0869999 0.98100001 -1.851 13
5.3779998 1.035 -1.851 15
5.678 1.091 -1.844 14
5.9910002 1.149 -1.8329999 13
6.3720002 1.221 -1.831 13
4.7280002 0.92000002 -1.854 13
4.9819999 0.96700001 -1.852 14
5.2649999 1.0190001 -1.853 14
5.5469999 1.072 -1.845 14
5.875 1.133 -1.842 15
6.1999998 1.194 -1.8279999 13
4.6300001 0.90600002 -1.854 12
4.882 0.95300001 -1.855 14
5.151 1.002 -1.853 13
5.4320002 1.0549999 -1.848 13
5.7480001 1.114 -1.845 13
6.0679998 1.175 -1.834 12
4.546 0.89499998 -1.859 10
4.7740002 0.93599999 -1.852 14
5.0409999 0.986 -1.854 13
5.3119998 1.036 -1.848 13
5.6040001 1.091 -1.841 13
5.9419999 1.155 -1.84 13
4.4549999 0.88099998 -1.859 11
4.677 0.92199999 -1.853 13
4.9359999 0.97000003 -1.855 14
5.204 1.02 -1.851 13
5.4920001 1.074 -1.846 14
5.8140001 1.135 -1.8430001 13
4.375 0.86900002 -1.862 11
4.592 0.90899998 -1.857 13
4.829 0.95200002 -1.852 13
5.0999999 1.003 -1.853 11
5.368 1.053 -1.845 13
5.6760001 1.1109999 -1.841 13
4.2930002 0.85600001 -1.863 10
4.4990001 0.89300001 -1.8559999 12
4.7329998 0.93599999 -1.853 13
4.9899998 0.98400003 -1.852 13
5.2649999 1.036 -1.849 13
5.5489998 1.089 -1.841 13
4.2129998 0.84299999 -1.864 11
4.4190001 0.88 -1.859 13
4.6290002 0.91900003 -1.849 14
4.8860002 0.96600002 -1.851 13
5.152 1.016 -1.849 13
5.4369998 1.0700001 -1.845 12
4.1329999 0.829 -1.864 10
4.3369999 0.866 -1.86 13
4.5510001 0.90499997 -1.855 12
4.7919998 0.94999999 -1.853 13
5.046 0.99699998 -1.848 13
5.3260002 1.05 -1.846 13
4.0549998 0.81599998 -1.863 10
4.257 0.852 -1.8609999 12
4.4650002 0.88999999 -1.855 13
4.6900001 0.93099999 -1.85 12
4.9419999 0.97799999 -1.848 13
5.2249999 1.031 -1.849 13
3.99 0.80400002 -1.867 10
4.1950002 0.84100002 -1.868 11
4.3909998 0.87599999 -1.859 12
4.6009998 0.91399997 -1.85 13
4.8520002 0.96100003 -1.851 13
5.119 1.011 -1.85 12
3.918 0.79100001 -1.8660001 10
4.1100001 0.82499999 -1.864 11
4.3239999 0.86400002 -1.865 12
4.5209999 0.89899999 -1.853 11
4.756 0.94199997 -1.85 13
5.013 0.99000001 -1.848 12
3.8710001 0.78200001 -1.877 10
4.0380001 0.81099999 -1.865 11
4.2389998 0.847 -1.863 11
4.4419999 0.884 -1.855 12
4.6550002 0.92299998 -1.846 12
4.9169998 0.97100002 -1.849 12
3.7980001 0.76800001 -1.874 9
3.973 0.79799998 -1.867 11
4.171 0.83399999 -1.8660001 10
4.368 0.86900002 -1.859 11
4.5780001 0.90700001 -1.85 13
4.8210001 0.95200002 -1.849 12
3.7390001 0.75599998 -1.877 9
3.904 0.78399998 -1.867 11
4.0949998 0.81800002 -1.865 11
4.2969999 0.85399997 -1.8609999 11
4.4959998 0.88999999 -1.851 11
4.7220001 0.93099999 -1.845 12
3.675 0.74199998 -1.876 9
3.8469999 0.77200001 -1.8710001 11
4.0219998 0.80199999 -1.863 11
4.2249999 0.83899999 -1.863 10
4.427 0.875 -1.855 11
4.6370001 0.912 -1.846 12
3.6159999 0.73000002 -1.876 9
3.7880001 0.759 -1.873 10
3.9630001 0.79000002 -1.867 11
4.1550002 0.82300001 -1.863 9
4.3610001 0.86000001 -1.86 11
4.5570002 0.89499998 -1.847 11
3.5639999 0.71799999 -1.8789999 9
3.724 0.745 -1.872 10
3.898 0.77499998 -1.868 10
4.085 0.80800003 -1.864 11
4.2839999 0.84299999 -1.859 11
4.4910002 0.88 -1.853 10
3.4990001 0.704 -1.875 8
3.671 0.73299998 -1.876 10
3.8429999 0.76200002 -1.872 11
4.0149999 0.792 -1.862 10
4.2280002 0.829 -1.8660001 11
4.414 0.86199999 -1.853 10
3.441 0.69099998 -1.873 9
3.6170001 0.72000003 -1.878 10
3.7850001 0.74900001 -1.873 10
3.957 0.778 -1.865 10
4.1459999 0.81 -1.8609999 10
4.3429999 0.84500003 -1.854 10
3.391 0.67900002 -1.874 8
3.552 0.70499998 -1.873 10
3.7260001 0.73400003 -1.873 10
3.898 0.76300001 -1.867 10
4.0840001 0.79500002 -1.862 10
4.2789998 0.829 -1.857 10
3.3380001 0.66600001 -1.873 8
3.5050001 0.69300002 -1.876 9
3.668 0.72000003 -1.872 10
3.8510001 0.75099999 -1.873 10
4.0190001 0.77899998 -1.862 10
4.2249999 0.81400001 -1.863 11
3.289 0.653 -1.872 8
3.4579999 0.68099999 -1.8789999 9
3.6199999 0.70700002 -1.875 10
3.7839999 0.73500001 -1.869 10
3.9619999 0.764 -1.864 11
4.1669998 0.79900002 -1.867 10
3.2490001 0.64300001 -1.877 8
3.401 0.667 -1.875 9
3.5639999 0.69300002 -1.874 9
3.7349999 0.72100002 -1.872 10
3.9030001 0.74900001 -1.865 10
4.1009998 0.78200001 -1.8660001 10
3.2030001 0.63099998 -1.877 8
3.3529999 0.65399998 -1.875 9
3.5120001 0.67900002 -1.873 10
3.6819999 0.70700002 -1.873 10
3.848 0.73299998 -1.865 10
4.0339999 0.764 -1.863 10
3.1559999 0.61799997 -1.876 7
3.3069999 0.64099997 -1.875 8
3.47 0.667 -1.877 10
3.632 0.69300002 -1.874 9
3.799 0.71899998 -1.868 9
3.9790001 0.74800003 -1.864 10
3.112 0.60600001 -1.875 7
3.253 0.62699997 -1.87 9
3.415 0.65200001 -1.873 9
3.5780001 0.67799997 -1.872 9
3.75 0.70499998 -1.87 9
3.9200001 0.73199999 -1.863 9
3.0739999 0.59399998 -1.877 7
3.2190001 0.616 -1.875 8
3.3729999 0.63999999 -1.875 9
3.5380001 0.66500002 -1.876 9
3.7030001 0.69099998 -1.872 9
3.8740001 0.71799999 -1.867 10
3.039 0.58399999 -1.8789999 6
3.1719999 0.60299999 -1.872 9
3.3310001 0.62699997 -1.876 9
3.484 0.64999998 -1.872 9
3.652 0.676 -1.8710001 9
3.8340001 0.704 -1.872 10
0 0 0 0
3.1340001 0.59100002 -1.873 8
3.2850001 0.61299998 -1.873 8
3.4460001 0.63700002 -1.875 9
3.608 0.662 -1.872 9
3.7780001 0.68699998 -1.869 9
1.571 0.29699999 -0.99599999 2
3.1029999 0.57999998 -1.877 8
3.2409999 0.60000002 -1.8710001 8
3.402 0.62400001 -1.874 9
3.5610001 0.64700001 -1.8710001 9
3.733 0.67299998 -1.8710001 9
1.51 0.28299999 -0.96899998 2
3.0610001 0.56699997 -1.875 7
3.204 0.58700001 -1.872 8
3.3599999 0.61000001 -1.874 8
3.5179999 0.63300002 -1.872 8
3.687 0.65700001 -1.87 9
1.473 0.273 -0.95599997 4
3.026 0.55500001 -1.875 6
3.164 0.574 -1.8710001 8
3.3110001 0.59500003 -1.868 8
3.477 0.61900002 -1.872 9
3.6440001 0.64200002 -1.8710001 9
1.439 0.264 -0.94499999 5
0 0 0 0
3.1359999 0.56300002 -1.876 7
3.28 0.583 -1.872 7
3.441 0.60500002 -1.874 9
3.6040001 0.62800002 -1.872 8
0 0 0 0
1.562 0.28 -0.99000001 2
3.095 0.54900002 -1.872 7
3.243 0.56900001 -1.872 8
3.401 0.59100002 -1.873 8
3.5599999 0.61299998 -1.8710001 8
0 0 0 0
1.523 0.27000001 -0.97600001 3
3.0680001 0.53899997 -1.876 7
3.207 0.55599999 -1.8710001 8
3.3610001 0.57700002 -1.8710001 8
3.5250001 0.59899998 -1.872 8
0 0 0 0
1.484 0.25999999 -0.96100003 4
3.033 0.52600002 -1.873 7
3.1800001 0.54500002 -1.874 7
3.326 0.56300002 -1.8710001 8
3.493 0.58600003 -1.875 8
0 0 0 0
1.452 0.25099999 -0.94999999 5
0 0 0 0
3.145 0.53100002 -1.873 7
3.2920001 0.55000001 -1.8710001 8
3.448 0.56999999 -1.87 8
0 0 0 0
0 0 0 0
1.597 0.26899999 -1.006 1
3.1140001 0.51899999 -1.872 7
3.2609999 0.537 -1.8710001 8
3.4170001 0.55599999 -1.8710001 8
0 0 0 0
0 0 0 0
1.5470001 0.257 -0.98400003 2
3.082 0.50599998 -1.87 7
3.23 0.52399999 -1.8710001 8
3.3789999 0.542 -1.868 8
0 0 0 0
0 0 0 0
1.513 0.24699999 -0.97100002 2
3.056 0.493 -1.872 7
3.194 0.509 -1.867 8
3.3529999 0.528 -1.87 8
0 0 0 0
0 0 0 0
1.4809999 0.23800001 -0.95899999 3
3.027 0.48100001 -1.87 6
3.171 0.49700001 -1.87 7
3.3199999 0.514 -1.869 8
0 0 0 0
0 0 0 0
1.456 0.23 -0.95099998 4
0 0 0 0
3.145 0.484 -1.87 7
3.2939999 0.50099999 -1.869 8
0 0 0 0
0 0 0 0
1.433 0.223 -0.94300002 5
1.625 0.249 -1.021 1
3.1129999 0.47 -1.8660001 6
3.2709999 0.48800001 -1.872 7
0 0 0 0
0 0 0 0
1.416 0.21600001 -0.93900001 6
1.562 0.235 -0.98900002 1
3.0929999 0.458 -1.868 7
3.24 0.47400001 -1.868 8
0 0 0 0
0 0 0 0
0 0 0 0
1.522 0.22400001 -0.97100002 2
3.072 0.44600001 -1.869 7
3.217 0.461 -1.868 8
0 0 0 0
0 0 0 0
0 0 0 0
1.506 0.21699999 -0.96700001 2
3.0469999 0.433 -1.867 7
3.1919999 0.447 -1.8660001 7
1.2359999 0.184 -0.92199999 0
0 0 0 0
0 0 0 0
1.4859999 0.20900001 -0.95999998 2
0 0 0 0
3.1689999 0.43399999 -1.865 7
0 0 0 0
0 0 0 0
0 0 0 0
1.4680001 0.20200001 -0.95499998 2
0 0 0 0
3.152 0.421 -1.867 7
0 0 0 0
0 0 0 0
0 0 0 0
1.452 0.19499999 -0.94999999 2
0 0 0 0
3.1359999 0.40900001 -1.868 7
0 0 0 0
0 0 0 0
0 0 0 0
1.434 0.18799999 -0.94300002 2
1.6109999 0.208 -1.011 1
3.1159999 0.396 -1.867 7
0 0 0 0
0 0 0 0
0 0 0 0
0 0 0 0
1.5650001 0.19599999 -0.98699999 1
3.099 0.38299999 -1.8660001 7
0 0 0 0
0 0 0 0
0 0 0 0
0 0 0 0
1.544 0.18799999 -0.97799999 2
3.0829999 0.37 -1.865 7
0 0 0 0
0 0 0 0
0 0 0 0
0 0 0 0
1.525 0.18000001 -0.97000003 2
3.072 0.35800001 -1.8660001 7
0 0 0 0
0 0 0 0
0 0 0 0
0 0 0 0
1.513 0.17399999 -0.96700001 2
3.063 0.345 -1.868 7
0 0 0 0
0 0 0 0
0 0 0 0
0 0 0 0
1.5039999 0.167 -0.96399999 2
3.0510001 0.333 -1.867 6
0 0 0 0
0 0 0 0
0 0 0 0
0 0 0 0
1.5039999 0.162 -0.96799999 2
3.0439999 0.32100001 -1.869 6
0 0 0 0
0 0 0 0
0 0 0 0
0 0 0 0
1.489 0.154 -0.96100003 2
3.0309999 0.308 -1.8660001 6
0 0 0 0
0 0 0 0
0 0 0 0
0 0 0 0
1.48 0.148 -0.958 2
1.586 0.155 -0.97899997 0
0 0 0 0
0 0 0 0
0 0 0 0
0 0 0 0
1.478 0.142 -0.958 2
3.0120001 0.28299999 -1.863 9
0 0 0 0
0 0 0 0
0 0 0 0
0 0 0 0
1.47 0.13500001 -0.954 2
0 0 0 0
0 0 0 0
0 0 0 0
0 0 0 0
0 0 0 0
1.4630001 0.12899999 -0.95099998 2
0 0 0 0
0 0 0 0
0 0 0 0
0 0 0 0
0 0 0 0
1.4579999 0.123 -0.949 2
2.017 0.16500001 -1.252 9
0 0 0 0
0 0 0 0
0 0 0 0
0 0 0 0
1.46 0.117 -0.95099998 2
0 0 0 0
0 0 0 0
0 0 0 0
0 0 0 0
0 0 0 0
1.464 0.111 -0.95300001 2
2.0050001 0.148 -1.2460001 7
0 0 0 0
0 0 0 0
0 0 0 0
0 0 0 0
1.46 0.105 -0.94999999 2
2.0220001 0.141 -1.256 7
0 0 0 0
0 0 0 0
0 0 0 0
0 0 0 0
1.464 0.098999999 -0.95200002 2
0 0 0 0
0 0 0 0
0 0 0 0
0 0 0 0
0 0 0 0
1.4680001 0.093999997 -0.954 2
0 0 0 0
0 0 0 0
0 0 0 0
0 0 0 0
0 0 0 0
1.476 0.088 -0.958 2
3.0120001 0.17399999 -1.865 9
0 0 0 0
0 0 0 0
0 0 0 0
0 0 0 0
1.479 0.082000002 -0.958 2
1.6109999 0.086000003 -0.995 0
0 0 0 0
0 0 0 0
0 0 0 0
0 0 0 0
1.485 0.075999998 -0.95999998 2
3.026 0.15000001 -1.8660001 6
0 0 0 0
0 0 0 0
0 0 0 0
0 0 0 0
1.4960001 0.071000002 -0.96499997 2
3.0409999 0.138 -1.8710001 6
0 0 0 0
0 0 0 0
0 0 0 0
0 0 0 0
1.512 0.064999998 -0.972 2
3.056 0.126 -1.875 6
0 0 0 0
0 0 0 0
0 0 0 0
1.387 0.057 -0.93300003 2
1.515 0.059 -0.97100002 2
3.0639999 0.114 -1.873 7
0 0 0 0
0 0 0 0
0 0 0 0
1.396 0.052000001 -0.935 2
1.525 0.052999999 -0.97399998 2
3.069 0.101 -1.87 6
0 0 0 0
0 0 0 0
0 0 0 0
1.406 0.046 -0.93800002 3
1.539 0.046999998 -0.97899997 2
3.0840001 0.089000002 -1.8710001 7
0 0 0 0
0 0 0 0
0 0 0 0
1.415 0.039999999 -0.94 3
1.554 0.041000001 -0.98500001 2
3.0929999 0.077 -1.868 7
0 0 0 0
0 0 0 0
0 0 0 0
1.4299999 0.035 -0.94599998 2
1.5779999 0.035999998 -0.995 1
3.109 0.064999998 -1.869 7
0 0 0 0
0 0 0 0
0 0 0 0
1.4400001 0.028999999 -0.94800001 2
1.706 0.032000002 -1.0700001 2
3.1259999 0.052999999 -1.87 6
0 0 0 0
0 0 0 0
0 0 0 0
1.455 0.024 -0.95300001 2
0 0 0 0
3.151 0.039999999 -1.875 6
0 0 0 0
0 0 0 0
0 0 0 0
1.474 0.017999999 -0.95899999 2
3.0139999 0.032000002 -1.87 8
3.165 0.028000001 -1.872 7
0 0 0 0
0 0 0 0
0 0 0 0
1.4960001 0.012 -0.96799999 2
3.0309999 0.02 -1.869 6
3.178 0.015 -1.868 6
0 0 0 0
0 0 0 0
0 0 0 0
1.5190001 0.0070000002 -0.977 2
3.0550001 0.0080000004 -1.8710001 6
3.204 0.003 -1.8710001 7
0 0 0 0
0 0 0 0
1.399 0.003 -0.93800002 5
1.535 0.001 -0.98000002 2
3.076 -0.003 -1.872 7
3.2219999 -0.0089999996 -1.869 7
0 0 0 0
0 0 0 0
1.416 -0.001 -0.94199997 5
1.571 -0.0049999999 -0.99599999 1
3.102 -0.015 -1.874 7
3.2479999 -0.021 -1.87 7
0 0 0 0
0 0 0 0
1.437 -0.0070000002 -0.949 4
1.636 -0.011 -1.03 1
3.1229999 -0.027000001 -1.873 7
3.279 -0.034000002 -1.874 7
0 0 0 0
0 0 0 0
1.4579999 -0.013 -0.95499998 4
0 0 0 0
3.1530001 -0.039000001 -1.876 7
3.302 -0.046999998 -1.872 7
0 0 0 0
0 0 0 0
1.48 -0.018999999 -0.96200001 3
3.0250001 -0.044 -1.873 6
3.174 -0.050999999 -1.873 7
3.329 -0.059 -1.872 7
0 0 0 0
1.374 -0.02 -0.93000001 7
1.5089999 -0.025 -0.97299999 2
3.056 -0.056000002 -1.876 6
3.2060001 -0.064000003 -1.876 7
3.3559999 -0.071999997 -1.87 8
0 0 0 0
1.397 -0.026000001 -0.93699998 6
1.546 -0.030999999 -0.98699999 2
3.082 -0.068000004 -1.876 7
3.2219999 -0.075999998 -1.868 8
3.398 -0.085000001 -1.877 8
0 0 0 0
1.421 -0.030999999 -0.94400001 6
1.584 -0.037999999 -1.003 1
3.105 -0.079999998 -1.872 7
3.263 -0.089000002 -1.875 8
3.425 -0.098999999 -1.874 9
0 0 0 0
1.449 -0.037 -0.954 6
0 0 0 0
3.145 -0.092 -1.8789999 7
3.2909999 -0.102 -1.873 8
3.4519999 -0.112 -1.87 8
0 0 0 0
1.476 -0.044 -0.96200001 4
3.017 -0.093999997 -1.874 6
3.1719999 -0.104 -1.876 8
3.3299999 -0.114 -1.876 9
3.4979999 -0.125 -1.876 8
0 0 0 0
1.508 -0.050000001 -0.97299999 3
3.05 -0.106 -1.875 7
3.204 -0.116 -1.876 7
3.3629999 -0.127 -1.875 8
3.5309999 -0.139 -1.875 8
1.396 -0.048999999 -0.93599999 5
1.553 -0.057 -0.99199998 2
3.089 -0.118 -1.88 7
3.2379999 -0.12800001 -1.876 8
3.3989999 -0.14 -1.875 9
3.5680001 -0.152 -1.874 8
1.421 -0.054000001 -0.94300002 5
1.6210001 -0.064999998 -1.025 2
3.119 -0.13 -1.877 7
3.28 -0.141 -1.88 8
3.4389999 -0.153 -1.876 8
3.6070001 -0.16500001 -1.874 8
1.447 -0.059999999 -0.94999999 5
0 0 0 0
3.1570001 -0.142 -1.88 7
3.3110001 -0.153 -1.877 8
3.4779999 -0.16599999 -1.877 8
3.6559999 -0.17900001 -1.878 8
1.484 -0.067000002 -0.96399999 4
3.0480001 -0.142 -1.885 7
3.1960001 -0.154 -1.882 8
3.348 -0.16500001 -1.876 8
3.5220001 -0.17900001 -1.8789999 9
3.6919999 -0.193 -1.874 8
1.53 -0.074000001 -0.98199999 2
3.0810001 -0.154 -1.883 7
3.2279999 -0.16500001 -1.878 8
3.391 -0.178 -1.878 8
3.5569999 -0.192 -1.875 8
3.7349999 -0.206 -1.873 8
1.585 -0.081 -1.006 2
3.112 -0.16500001 -1.88 7
3.2620001 -0.177 -1.876 8
3.4300001 -0.191 -1.877 8
3.5999999 -0.205 -1.875 9
3.78 -0.22 -1.872 8
0 0 0 0
3.1459999 -0.176 -1.878 7
3.3039999 -0.189 -1.877 7
3.473 -0.20299999 -1.878 8
3.6489999 -0.21799999 -1.877 8
3.8239999 -0.233 -1.87 9
3.04 -0.175 -1.883 7
3.1860001 -0.18799999 -1.878 8
3.3380001 -0.20100001 -1.873 9
3.5239999 -0.21699999 -1.881 9
3.6949999 -0.23199999 -1.876 9
3.8740001 -0.248 -1.869 9
3.0780001 -0.186 -1.883 6
3.2309999 -0.2 -1.881 8
3.3929999 -0.214 -1.8789999 9
3.5639999 -0.229 -1.878 9
3.7390001 -0.245 -1.873 9
3.915 -0.26100001 -1.864 9
3.1129999 -0.197 -1.88 6
3.2650001 -0.211 -1.876 8
3.4349999 -0.226 -1.878 9
3.6059999 -0.242 -1.875 9
3.7880001 -0.25799999 -1.872 9
3.964 -0.27500001 -1.8609999 9
3.154 -0.20900001 -1.8789999 7
3.3150001 -0.223 -1.88 8
3.4849999 -0.23899999 -1.8789999 10
3.6630001 -0.255 -1.878 9
3.835 -0.27200001 -1.869 9
4.0250001 -0.28999999 -1.863 10
3.1989999 -0.22 -1.88 7
3.359 -0.235 -1.878 9
3.5339999 -0.25099999 -1.88 9
3.71 -0.26800001 -1.876 9
3.8889999 -0.28600001 -1.869 10
4.092 -0.30500001 -1.867 10
3.2420001 -0.23199999 -1.88 7
3.4089999 -0.24699999 -1.881 9
3.586 -0.264 -1.881 9
3.7609999 -0.28099999 -1.875 9
3.9360001 -0.29899999 -1.864 10
4.1500001 -0.31999999 -1.865 10
3.289 -0.243 -1.88 7
3.46 -0.25999999 -1.882 9
3.631 -0.27599999 -1.878 9
3.8150001 -0.29499999 -1.874 9
4.0009999 -0.31299999 -1.8660001 10
4.2150002 -0.33399999 -1.865 10
3.335 -0.25400001 -1.8789999 8
3.5139999 -0.27200001 -1.883 9
3.6930001 -0.28999999 -1.881 9
3.8670001 -0.30700001 -1.872 9
4.0570002 -0.32699999 -1.864 10
4.2839999 -0.34999999 -1.8660001 10
3.381 -0.266 -1.878 8
3.562 -0.28400001 -1.881 10
3.7379999 -0.30199999 -1.876 9
3.9219999 -0.32100001 -1.869 10
4.1240001 -0.34099999 -1.865 10
4.3470001 -0.36399999 -1.863 11
3.4360001 -0.278 -1.88 8
3.6159999 -0.296 -1.881 9
3.799 -0.315 -1.877 8
3.9849999 -0.33399999 -1.869 10
4.1890001 -0.35600001 -1.864 11
4.428 -0.38 -1.867 10
3.494 -0.28999999 -1.883 8
3.6730001 -0.30899999 -1.881 10
3.8529999 -0.32800001 -1.875 10
4.0370002 -0.347 -1.864 10
4.2600002 -0.37 -1.865 11
4.4959998 -0.39500001 -1.864 10
3.5469999 -0.30199999 -1.883 8
3.724 -0.31999999 -1.878 10
3.918 -0.34099999 -1.876 10
4.1069999 -0.361 -1.8660001 10
4.335 -0.38499999 -1.8660001 11
4.579 -0.41100001 -1.8660001 11
3.6010001 -0.31400001 -1.882 9
3.7820001 -0.333 -1.877 10
3.9649999 -0.352 -1.868 10
4.1799998 -0.375 -1.867 10
4.415 -0.40099999 -1.868 11
4.6500001 -0.426 -1.862 11
3.6630001 -0.32600001 -1.883 9
3.839 -0.345 -1.875 11
4.0339999 -0.366 -1.869 11
4.2459998 -0.389 -1.865 11
4.4920001 -0.41499999 -1.868 12
4.7309999 -0.442 -1.86 11
3.7149999 -0.33700001 -1.88 9
3.8970001 -0.35699999 -1.872 10
4.1020002 -0.37900001 -1.869 11
4.3260002 -0.40400001 -1.868 11
4.5700002 -0.43000001 -1.867 11
4.8179998 -0.458 -1.86 12
3.7739999 -0.34900001 -1.878 10
3.96 -0.36899999 -1.87 10
4.1739998 -0.39199999 -1.869 11
4.4050002 -0.41800001 -1.868 12
4.6469998 -0.44499999 -1.864 12
4.9159999 -0.47499999 -1.862 12
3.8369999 -0.361 -1.878 10
4.0320001 -0.382 -1.872 11
4.2480001 -0.40599999 -1.869 12
4.487 -0.43200001 -1.869 12
4.737 -0.46000001 -1.865 12
5.0139999 -0.491 -1.863 13
3.901 -0.37200001 -1.876 10
4.1009998 -0.39399999 -1.8710001 11
4.329 -0.41999999 -1.8710001 12
4.572 -0.447 -1.87 12
4.8280001 -0.47600001 -1.865 12
5.1069999 -0.50800002 -1.8609999 13
3.96 -0.38299999 -1.872 10
4.1739998 -0.40700001 -1.8710001 12
4.4050002 -0.433 -1.87 13
4.6459999 -0.46000001 -1.865 13
4.9200001 -0.491 -1.864 13
5.2129998 -0.52499998 -1.862 13
4.0300002 -0.39500001 -1.872 9
4.2470002 -0.41999999 -1.869 12
4.4899998 -0.447 -1.87 12
4.737 -0.47499999 -1.865 11
5.0170002 -0.50700003 -1.863 13
5.323 -0.542 -1.862 13
4.1079998 -0.40799999 -1.873 10
4.3369999 -0.43399999 -1.873 12
4.579 -0.461 -1.8710001 12
4.8379998 -0.491 -1.867 13
5.1199999 -0.523 -1.863 13
5.427 -0.55900002 -1.858 13
4.1750002 -0.419 -1.869 10
4.4070001 -0.44600001 -1.867 12
4.6599998 -0.47400001 -1.867 12
4.9330001 -0.505 -1.8660001 14
5.2259998 -0.53899997 -1.862 12
5.539 -0.57599998 -1.8559999 13
4.2610002 -0.43200001 -1.872 11
4.513 -0.461 -1.876 12
4.756 -0.48899999 -1.868 12
5.0310001 -0.51999998 -1.864 13
5.3379998 -0.55599999 -1.862 14
5.665 -0.59399998 -1.8559999 14
4.3439999 -0.44499999 -1.872 11
4.5879998 -0.472 -1.87 12
4.8509998 -0.50199997 -1.867 14
5.1409998 -0.53600001 -1.865 13
5.4390001 -0.57099998 -1.8559999 14
5.7989998 -0.61199999 -1.857 13
4.4299998 -0.45699999 -1.873 10
4.6810002 -0.486 -1.87 12
4.9499998 -0.51599997 -1.8660001 13
5.2550001 -0.55199999 -1.8660001 15
5.566 -0.588 -1.857 14
5.9359999 -0.63099998 -1.857 14
4.5190001 -0.47 -1.872 12
4.7750001 -0.49900001 -1.869 13
5.0599999 -0.53100002 -1.867 13
5.3709998 -0.56699997 -1.8660001 14
5.6960001 -0.60500002 -1.858 14
6.0710001 -0.64899999 -1.854 14
4.6110001 -0.48199999 -1.872 11
4.8740001 -0.51200002 -1.868 14
5.1700001 -0.546 -1.868 14
5.474 -0.58099997 -1.859 14
5.8309999 -0.62199998 -1.858 13
6.2059999 -0.66600001 -1.85 15
4.704 -0.49399999 -1.8710001 11
4.9759998 -0.52499998 -1.867 13
5.2839999 -0.56 -1.868 15
5.6040001 -0.597 -1.86 13
5.9710002 -0.63999999 -1.858 14
6.3509998 -0.68400002 -1.846 15
4.802 -0.50599998 -1.8710001 11
5.0799999 -0.53799999 -1.8660001 13
5.4039998 -0.57499999 -1.867 14
5.7259998 -0.61199999 -1.857 14
6.1059999 -0.65600002 -1.854 15
6.5100002 -0.70300001 -1.844 15
4.902 -0.51800001 -1.869 12
5.1950002 -0.55199999 -1.8660001 15
5.5050001 -0.58700001 -1.859 14
5.875 -0.63 -1.86 13
6.2459998 -0.67299998 -1.849 16
6.6950002 -0.72500002 -1.847 14
5.007 -0.52999997 -1.868 13
5.3150001 -0.565 -1.867 15
5.6389999 -0.602 -1.86 15
6.0180001 -0.64600003 -1.859 14
6.4099998 -0.69099998 -1.849 15
6.8629999 -0.74299997 -1.842 14
5.1170001 -0.54299998 -1.868 12
5.4310002 -0.57800001 -1.865 15
5.776 -0.61699998 -1.86 14
6.1609998 -0.66100001 -1.8559999 15
6.5710001 -0.708 -1.847 14
7.0619998 -0.76499999 -1.844 16
5.2360001 -0.55500001 -1.868 14
5.5440001 -0.58999997 -1.859 13
5.9229999 -0.63300002 -1.8609999 15
6.3000002 -0.676 -1.85 16
6.7620001 -0.72799999 -1.85 14
7.277 -0.787 -1.847 15
5.3559999 -0.56699997 -1.868 13
5.6750002 -0.60299999 -1.858 15
6.0689998 -0.64700001 -1.8609999 15
6.473 -0.69300002 -1.852 17
6.9349999 -0.74599999 -1.846 16
7.4899998 -0.80900002 -1.846 16
5.4809999 -0.57999998 -1.867 14
5.8299999 -0.61900002 -1.863 15
6.2119999 -0.66100001 -1.857 16
6.6409998 -0.70999998 -1.85 16
7.1490002 -0.76700002 -1.85 15
7.7189999 -0.83099997 -1.846 15
5.6020002 -0.59100002 -1.864 13
5.967 -0.63099998 -1.86 15
6.3530002 -0.67400002 -1.85 18
6.8210001 -0.72600001 -1.849 15
7.3520002 -0.78500003 -1.848 14
7.9580002 -0.85299999 -1.845 15
5.7270002 -0.602 -1.86 13
6.1069999 -0.64399999 -1.8559999 15
6.5339999 -0.69099998 -1.853 17
7.0079999 -0.74299997 -1.847 17
7.5780001 -0.80599999 -1.849 17
8.2049999 -0.87599999 -1.844 16
5.869 -0.61400002 -1.86 13
6.2550001 -0.65600002 -1.853 17
6.711 -0.70599997 -1.852 17
7.211 -0.75999999 -1.847 16
7.809 -0.82599998 -1.848 16
8.4969997 -0.90200001 -1.847 16
6.0219998 -0.62599999 -1.86 14
6.4060001 -0.66799998 -1.848 16
6.8920002 -0.72000003 -1.85 17
7.4499998 -0.77999997 -1.852 15
8.0550003 -0.84600002 -1.846 16
8.7720003 -0.92500001 -1.844 16
6.171 -0.63800001 -1.858 14
6.5939999 -0.68300003 -1.851 16
7.1030002 -0.73699999 -1.852 17
7.6700001 -0.79799998 -1.85 16
8.3249998 -0.86799997 -1.847 16
9.0749998 -0.949 -1.842 16
6.3200002 -0.648 -1.853 15
6.77 -0.69499999 -1.849 17
7.3060002 -0.75199997 -1.85 16
7.915 -0.81599998 -1.85 17
8.6090002 -0.88999999 -1.848 15
9.3950005 -0.97399998 -1.839 15
6.493 -0.66000003 -1.854 13
6.96 -0.708 -1.848 16
7.5450001 -0.76899999 -1.855 15
8.165 -0.83399999 -1.849 17
8.901 -0.91100001 -1.846 16
9.7259998 -0.99800003 -1.835 16
6.6739998 -0.67199999 -1.854 14
7.1609998 -0.72100002 -1.846 15
7.7610002 -0.78299999 -1.849 16
8.4160004 -0.85100001 -1.844 17
9.2119999 -0.93300003 -1.844 16
10.071 -1.022 -1.8279999 16
6.8649998 -0.68300003 -1.854 14
7.381 -0.73500001 -1.847 15
8.0159998 -0.80000001 -1.851 15
8.7049999 -0.87 -1.8430001 13
9.5249996 -0.95300001 -1.8380001 15
10.462 -1.049 -1.824 15
7.0599999 -0.69400001 -1.852 15
7.619 -0.75 -1.85 15
8.2650003 -0.81400001 -1.848 18
9.0170002 -0.889 -1.844 14
9.8520002 -0.97299999 -1.83 15
10.89 -1.0779999 -1.821 17
7.2709999 -0.70499998 -1.852 16
7.8540001 -0.76200002 -1.848 16
8.5389996 -0.82999998 -1.846 17
9.3140001 -0.90600002 -1.8380001 14
10.204 -0.99400002 -1.823 16
11.316 -1.104 -1.814 17
7.5089998 -0.71799999 -1.857 15
8.1020002 -0.77499998 -1.847 17
8.8369999 -0.84600002 -1.846 17
9.6479998 -0.92400002 -1.835 16
10.611 -1.017 -1.821 16
11.794 -1.132 -1.808 16
7.7259998 -0.727 -1.852 14
8.3540001 -0.78600001 -1.8430001 17
9.1440001 -0.861 -1.845 17
9.9770002 -0.94 -1.826 16
11.036 -1.041 -1.817 16
12.316 -1.163 -1.804 16
7.9759998 -0.73799998 -1.853 16
8.6389999 -0.79900002 -1.8430001 17
9.4370003 -0.87300003 -1.836 15
10.368 -0.95899999 -1.824 15
11.492 -1.064 -1.811 17
12.898 -1.1950001 -1.799 17
8.2119999 -0.74599999 -1.848 16
8.9420004 -0.81199998 -1.842 16
9.7559996 -0.88599998 -1.8279999 15
10.784 -0.97899997 -1.821 16
12.003 -1.09 -1.808 16
13.498 -1.226 -1.79 16
8.4729996 -0.75400001 -1.844 15
9.2440004 -0.82200003 -1.8380001 15
10.139 -0.90100002 -1.827 16
11.22 -0.99699998 -1.817 15
12.524 -1.113 -1.8 17
14.172 -1.26 -1.783 15
8.7749996 -0.76499999 -1.846 14
9.5530005 -0.83099997 -1.831 15
10.519 -0.91399997 -1.822 16
11.681 -1.015 -1.8099999 15
13.102 -1.138 -1.793 16
14.992 -1.302 -1.784 15
9.0690002 -0.77200001 -1.8430001 14
9.8800001 -0.83999997 -1.824 15
10.935 -0.92799997 -1.817 16
12.172 -1.033 -1.802 17
13.704 -1.1619999 -1.7819999 16
15.874 -1.346 -1.783 16
9.3830004 -0.77899998 -1.839 15
10.239 -0.84799999 -1.818 14
11.386 -0.94199997 -1.813 16
12.728 -1.052 -1.7970001 17
14.437 -1.192 -1.779 16
16.844 -1.39 -1.777 16
9.7019997 -0.78399998 -1.832 16
10.658 -0.86000001 -1.817 16
11.867 -0.95599997 -1.808 16
13.322 -1.071 -1.79 16
15.292 -1.227 -1.781 16
17.92 -1.437 -1.771 17
10.024 -0.787 -1.822 16
11.084 -0.86799997 -1.813 16
12.359 -0.96600002 -1.798 17
13.957 -1.089 -1.78 15
16.201 -1.261 -1.779 14
19.193001 -1.492 -1.77 14
10.414 -0.792 -1.8200001 14
11.546 -0.87599999 -1.808 15
12.915 -0.977 -1.79 18
14.693 -1.11 -1.775 16
17.184 -1.295 -1.773 15
20.705999 -1.557 -1.773 16
10.812 -0.79500002 -1.814 16
12.017 -0.88099998 -1.8 16
13.522 -0.98900002 -1.783 16
15.582 -1.136 -1.779 13
18.306999 -1.332 -1.767 13
21.92 -1.591 -1.734 18
11.255 -0.79900002 -1.812 16
12.511 -0.88499999 -1.789 17
14.18 -1 -1.775 15
16.483 -1.158 -1.772 15
19.6 -1.372 -1.7640001 14
23.160999 -1.618 -1.682 18
11.709 -0.80000001 -1.8049999 15
13.088 -0.88999999 -1.784 17
14.966 -1.0140001 -1.774 14
17.473 -1.179 -1.7640001 12
21.035999 -1.414 -1.756 16
24.142 -1.617 -1.596 21
12.202 -0.79900002 -1.798 16
13.68 -0.89099997 -1.772 16
15.849 -1.028 -1.774 12
18.698 -1.2079999 -1.766 13
22.547001 -1.449 -1.7359999 19
25.85 -1.655 -1.543 24
12.717 -0.796 -1.788 16
14.371 -0.89399999 -1.767 15
16.799 -1.04 -1.771 14
20.035 -1.234 -1.763 15
24.365999 -1.494 -1.721 22
28.395 -1.733 -1.518 24
13.259 -0.79000002 -1.778 16
15.174 -0.89899999 -1.767 13
17.846001 -1.051 -1.767 12
21.334999 -1.249 -1.7410001 17
26.093 -1.5190001 -1.678 25
0 0 0 0
13.899 -0.78500003 -1.772 15
16.084999 -0.903 -1.77 15
19.007999 -1.0599999 -1.76 13
22.837999 -1.265 -1.719 19
27.684999 -1.524 -1.609 22
33.502998 -1.834 -1.375 26
14.603 -0.77899998 -1.768 14
17.01 -0.90100002 -1.763 11
20.26 -1.064 -1.749 15
24.59 -1.2819999 -1.698 22
29.356001 -1.52 -1.524 21
29.125999 -1.497 -1.015 1
15.421 -0.77200001 -1.768 13
18.032 -0.89499998 -1.7539999 12
21.681 -1.067 -1.735 17
26.964001 -1.3150001 -1.694 13
32.470001 -1.5700001 -1.485 13
29.240999 -1.403 -0.84100002 86
16.325001 -0.76200002 -1.768 13
19.245001 -0.88999999 -1.752 14
23.18 -1.061 -1.711 19
29.433001 -1.335 -1.67 31
29.275 -1.3150001 -1.1619999 118
29.108 -1.295 -0.662 121
17.285999 -0.74699998 -1.7640001 11
20.431 -0.87300003 -1.733 15
25.093 -1.0599999 -1.699 15
32.138 -1.3430001 -1.627 37
29.106001 -1.2029999 -0.98000002 110
29.091999 -1.189 -0.48699999 120
18.334 -0.72799999 -1.758 12
21.837999 -0.85600001 -1.72 17
27.716 -1.073 -1.71 16
29.042999 -1.11 -1.299 93
29.077 -1.097 -0.80800003 128
29.104 -1.0829999 -0.31799999 114
19.502001 -0.704 -1.752 14
23.323999 -0.829 -1.696 19
29.886999 -1.0470001 -1.666 11
29.112 -1.0039999 -1.13 85
29.237 -0.99400002 -0.64200002 90
29.191999 -0.977 -0.149 1
20.673 -0.66900003 -1.732 15
25.256001 -0.80299997 -1.687 10
32.584 -1.018 -1.625 8
40.460999 -1.242 -1.334 4
29.287001 -0.88300002 -0.47299999 83
58.089001 -1.72 0.035999998 62
22.108999 -0.63099998 -1.721 16
27.243 -0.76099998 -1.659 8
36.118 -0.98900002 -1.591 8
49.234001 -1.3200001 -1.339 7
29.016001 -0.76099998 -0.30199999 60
62.283001 -1.599 0.39300001 21
23.664 -0.583 -1.7029999 13
29.437 -0.70700002 -1.622 10
29.135 -0.68300003 -1.1160001 115
28.969 -0.66100001 -0.62300003 128
28.975 -0.64399999 -0.13699999 9
62.783001 -1.358 0.74900001 35
25.555 -0.52700001 -1.6900001 9
29.150999 -0.583 -1.438 107
28.989 -0.56 -0.94199997 117
28.957001 -0.54100001 -0.45699999 131
29.018 -0.52399999 0.026000001 10
76.469002 -1.33 1.348 44
28.348 -0.46700001 -1.711 29
28.908001 -0.45699999 -1.26 131
28.940001 -0.43900001 -0.77700001 132
28.945 -0.419 -0.294 115
75.787003 -1.048 0.493 3
105.799 -1.391 2.45 25
30.122999 -0.37 -1.647 6
29.033001 -0.33700001 -1.102 72
29.032 -0.31600001 -0.61699998 90
101.74 -1.0369999 -0.46799999 41
105.435 -1 1.268 47
72.332001 -0.63499999 2.072 8
32.633999 -0.259 -1.599 4
0 0 0 0
29.162001 -0.19 -0.458 97
109.904 -0.63999999 0.093000002 74
106.395 -0.54100001 1.8559999 6
72.310997 -0.315 2.461 32
28.99 -0.103 -1.261 8
29.041 -0.082000002 -0.77999997 113
29.066999 -0.059999999 -0.29899999 102
128.19299 -0.175 0.79900002 21
124.109 -0.071000002 2.8340001 25
82.027 0.015 3.23 12
29.032 0.026000001 -1.103 87
29.044001 0.048 -0.62300003 127
29.129 0.071000002 -0.14300001 26
0 0 0 0
124.159 0.50300002 3.4979999 9
81.585999 0.396 3.6470001 16
29.040001 0.16 -0.94599998 76
28.958 0.183 -0.465 113
0 0 0 0
0 0 0 0
107.916 0.94700003 3.609 11
81.273003 0.778 4.0560002 43
0 0 0 0
0 0 0 0
116.319 1.375 0.65200001 50
0 0 0 0
82.000999 1.104 3.1570001 11
81.574997 1.171 4.487 46
0 0 0 0
0 0 0 0
0 0 0 0
0 0 0 0
82.185997 1.507 3.582 44
74.181999 1.426 4.454 9
0 0 0 0
144.42599 2.9690001 -0.093000002 36
0 0 0 0
124.802 2.7869999 4.0100002 9
82.302002 1.909 3.9920001 11
68.927002 1.665 4.4780002 6
0 0 0 0
0 0 0 0
0 0 0 0
112.748 3.079 4.178 13
111.253 3.138 5.9419999 42
61.826 1.803 4.316 3
0 0 0 0
0 0 0 0
0 0 0 0
0 0 0 0
73.703003 2.4590001 4.2969999 10
61.771999 2.122 4.6129999 6
0 0 0 0
0 0 0 0
0 0 0 0
0 0 0 0
73.597 2.839 4.6420002 9
0 0 0 0
0 0 0 0
0 0 0 0
144.644 6.052 5.0900002 27
0 0 0 0
0 0 0 0
0 0 0 0
0 0 0 0
0 0 0 0
144.02299 6.7919998 5.7399998 15
145.172 6.9959998 8.1459999 28
0 0 0 0
0 0 0 0
0 0 0 0
164.433 8.4680004 4.638 36
143.39 7.5370002 6.3720002 15
0 0 0 0
0 0 0 0
0 0 0 0
205.955 11.509 3.415 25
136.733 7.7820001 4.4720001 14
100.096 5.7989998 4.8889999 13
78.879997 4.6589999 5.1339998 14
0 0 0 0
65.880997 4.0349998 6.4299998 19
0 0 0 0
84.225998 5.257 3.1259999 7
79.586998 5.053 4.2389998 6
75.096001 4.849 5.2140002 38
65.890999 4.3299999 5.645 13
61.323002 4.1020002 6.2529998 27
144.575 9.6689997 3.664 12
83.900002 5.7020001 3.474 48
68.900002 4.7589998 3.964 6
68.134003 4.7839999 5.0219998 20
65.051003 4.6440001 5.8499999 34
59.549 4.322 6.3260002 11
101.754 7.382 3.0150001 28
78.880997 5.8099999 3.6029999 21
68.738998 5.1409998 4.2459998 17
67.028999 5.0910001 5.224 25
59.505001 4.5910001 5.6030002 21
56.685001 4.4419999 6.2579999 50
83.487 6.5359998 2.825 5
80.948997 6.4289999 4.0359998 13
68.253998 5.5 4.5 26
65.878998 5.3870001 5.4070001 38
57.249001 4.7519999 5.6269999 9
55.703999 4.6929998 6.3800001 64
84.473 7.1030002 3.2019999 4
79.237 6.756 4.2750001 8
66.939003 5.7839999 4.6849999 24
65.726997 5.7600002 5.6599998 24
56.508999 5.0209999 5.7800002 24
55.305 4.987 6.5570002 55
83.028 7.4679999 3.48 29
79.760002 7.2680001 4.6170001 6
65.681 6.0619998 4.855 26
67.059998 6.2729998 6.0380001 15
56.043999 5.3130002 5.9520001 4
54.088001 5.2010002 6.6259999 2
74.262001 7.1199999 3.4030001 11
67.422997 6.5450001 4.165 13
65.710999 6.4569998 5.112 8
53.327 5.309 5.007 29
52.561001 5.302 5.7859998 62
51.609001 5.2740002 6.5190001 69
80.388 8.1879997 3.9879999 13
67.082001 6.914 4.3969998 20
65.814003 6.869 5.3709998 27
52.851002 5.5830002 5.1630001 71
51.712002 5.5320001 5.888 65
51.263 5.5560002 6.6700001 60
67.112 7.2459998 3.5810001 14
67.585999 7.3779998 4.6810002 3
53.966 5.9590001 4.6009998 15
53.014 5.9239998 5.3720002 36
51.258999 5.7989998 6.0229998 36
50.598999 5.7950001 6.7670002 59
67.021004 7.6440001 3.816 26
62.080002 7.1630001 4.526 29
53.178001 6.2030001 4.7270002 79
51.521999 6.0799999 5.408 20
50.480999 6.027 6.1139998 70
50.255001 6.073 6.9039998 69
62.105999 7.4720001 3.757 20
54.618 6.6409998 4.1729999 3
53.175999 6.5349998 4.9120002 63
51.112 6.3540001 5.5450001 37
50.484001 6.348 6.2930002 71
50.178001 6.3829999 7.0700002 55
62.057999 7.8559999 3.9690001 21
57.243999 7.322 4.5710001 3
54 6.9780002 5.1739998 13
50.962002 6.658 5.7020001 35
50.397999 6.658 6.4530001 61
50.584 6.7620001 7.302 67
57.588001 7.6589999 3.8770001 12
52.455002 7.046 4.3649998 1
51.827 7.0339999 5.1409998 11
50.499001 6.927 5.8210001 20
50.647999 7.0240002 6.6589999 75
50.646 7.1009998 7.4809999 71
52.282001 7.2919998 3.6919999 15
52.193001 7.3499999 4.5139999 5
50.601002 7.197 5.1849999 33
50.578999 7.2680001 5.9949999 78
50.467999 7.3299999 6.7979999 66
50.542999 7.421 7.632 70
65.785004 9.6079998 4.8559999 26
49.817001 7.342 4.467 35
50.643002 7.5359998 5.3499999 73
50.307999 7.559 6.1220002 63
50.057999 7.5999999 6.902 66
51.183998 7.8520002 7.8889999 66
49.405998 7.5359998 3.7969999 21
49.16 7.5650001 4.5570002 79
50.124001 7.7839999 5.4460001 89
50.228001 7.8740001 6.2639999 69
50.167 7.9439998 7.0679998 64
52.679001 8.427 8.2790003 33
49.608002 7.8889999 3.957 59
48.959 7.855 4.6820002 71
49.964001 8.0900002 5.5760002 92
49.858002 8.1520004 6.3670001 75
50.174 8.283 7.2189999 15
54.419998 9.0760002 8.717 62
49.248001 8.1630001 4.0710001 44
48.952999 8.184 4.823 76
49.344002 8.3219995 5.6490002 85
49.615002 8.4460001 6.4780002 70
50.214001 8.6309996 7.369 8
55.467999 9.6309996 9.0469999 72
48.967999 8.4469995 4.1849999 54
49.101002 8.5410004 4.9749999 74
48.848999 8.5719995 5.73 70
49.398998 8.7480001 6.5890002 84
56.125999 10.031 8.3950005 37
55.824001 10.075 9.2609997 50
49.237 8.8260002 4.3390002 27
48.784 8.8179998 5.073 71
48.577999 8.8570004 5.8299999 68
49.441002 9.0950003 6.7290001 6
55.344002 10.273 8.4289999 55
55.445 10.389 9.349 58
49.277 9.1719999 4.4710002 62
48.573002 9.1140003 5.178 82
48.602001 9.1960001 5.9580002 69
50.456001 9.6280003 6.9970002 30
55.345001 10.657 8.573 74
55.805 10.845 9.5559998 58
48.984001 9.4580002 4.5679998 4
49.376999 9.6070004 5.388 64
50.455002 9.8970003 6.3119998 57
50.632 10.015 7.1490002 16
55.074001 10.991 8.6709995 57
56.001999 11.281 9.7329998 5
50.422001 10.086 4.822 70
50.365002 10.15 5.6149998 92
50.555 10.268 6.4450002 66
55.250999 11.316 7.934 74
55.931999 11.556 8.941 72
73.526001 15.333 12.961 32
50.206001 10.396 4.9180002 47
49.881001 10.407 5.678 51
55.495998 11.667 7.2049999 84
55.203999 11.701 8.0570002 71
56.069 11.987 9.0959997 3
73.377998 15.825 13.106 52
50.042 10.715 5.0110002 58
49.917 10.766 5.7930002 40
56.459 12.271 7.4559999 35
62.775002 13.755 9.3039999 5
67.333 14.879 11.076 30
68.795998 15.333 12.445 8
50.075001 11.08 5.1209998 8
54.916 12.239 6.4889998 5
62.763 14.094 8.4209995 49
65.959 14.926 9.9160004 40
65.847 15.026 10.975 40
68.563004 15.783 12.554 27
59.657001 13.632 6.2220001 59
60.030998 13.811 7.2150002 65
64.199997 14.88 8.7460003 27
65.702003 15.344 10.013 33
65.946999 15.531 11.126 41
68.356003 16.239 12.661 15
59.485001 14.023 6.3189998 60
59.528999 14.128 7.2709999 46
59.727001 14.281 8.2539997 61
64.042 15.427 9.8870001 29
65.358002 15.871 11.157 36
67.449997 16.518 12.626 36
59.215 14.389 6.3959999 45
59.143002 14.469 7.3299999 72
59.658001 14.702 8.3549995 69
62.011002 15.394 9.6899996 42
65.471001 16.382 11.301 42
67.067001 16.921 12.683 2
58.643002 14.68 6.4359999 60
58.783001 14.81 7.388 69
59.627998 15.129 8.4540005 48
60.491001 15.459 9.5579996 50
66.843002 17.216 11.656 36
67.128998 17.431999 12.815 20
58.140999 14.983 6.4759998 72
58.091 15.071 7.3979998 65
59.16 15.452 8.4860001 30
60.202 15.839 9.6140003 68
66.065002 17.511999 11.634 38
67.055 17.919001 12.918 33
57.901001 15.352 6.5359998 41
58.030998 15.486 7.4780002 66
58.702999 15.773 8.5129995 35
60.030998 16.243 9.6829996 64
65.985001 17.99 11.727 37
66.502998 18.273001 12.921 35
57.555 15.69 6.5799999 72
57.789001 15.853 7.5310001 74
58.609001 16.186001 8.5839996 75
60.418999 16.806 9.8360004 44
61.351002 17.190001 10.997 2
66.220001 18.704 12.969 29
57.287998 16.049999 6.6259999 57
57.146 16.106001 7.5250001 42
58.917 16.715 8.71 55
60.106998 17.174999 9.8669996 50
61.131001 17.594 11.042 8
67.185997 19.489 13.256 38
57.327 16.496 6.7010002 55
57.688 16.698 7.6690001 67
58.292 16.982 8.6929998 54
60.331001 17.697001 9.9829998 43
65.578003 19.372999 11.933 47
66.237999 19.719 13.157 33
56.904999 16.805 6.7150002 52
57.208 16.992001 7.6690001 72
58.778 17.575001 8.835 65
60.388 18.174999 10.066 45
65.367996 19.816 11.976 40
66.651001 20.358999 13.323 35
57.112999 17.304001 6.7989998 53
57.938 17.653999 7.829 65
58.741001 18.011 8.8909998 41
60.787998 18.76 10.198 52
65.602997 20.389999 12.091 31
68.616997 21.483 13.794 38
57.932999 17.99 6.9489999 65
57.805 18.051001 7.8649998 55
58.457001 18.368999 8.9069996 62
60.002998 18.979 10.127 5
62.255001 19.83 11.54 42
68.954002 22.127001 13.937 53
58.219002 18.525 7.0320001 24
57.724998 18.473 7.9039998 57
58.868999 18.955 9.0220003 67
61.353001 19.884001 10.412 36
62.043999 20.243999 11.561 34
69.263 22.766001 14.068 49
57.508999 18.746 6.9889998 38
57.639999 18.893 7.9359999 63
58.763 19.374001 9.0500002 21
61.401001 20.372999 10.468 45
61.318001 20.482 11.475 52
69.052002 23.235001 14.087 43
57.674999 19.245001 7.0469999 46
57.929001 19.436001 8.0150003 60
60.567001 20.438 9.3710003 43
60.820999 20.653999 10.414 41
61.167999 20.913 11.494 45
68.671997 23.643 14.062 50
57.993999 19.799999 7.1149998 50
58.338001 20.025 8.1029997 37
59.465 20.527 9.2340002 50
60.716999 21.091999 10.436 51
61.604 21.540001 11.618 39
68.308998 24.055 14.036 40
57.962002 20.239 7.1370001 40
59.011002 20.715 8.2250004 48
59.645 21.058001 9.2919998 38
60.532001 21.499001 10.434 39
61.659 22.044001 11.661 40
68.836998 24.787001 14.186 22
58.394001 20.849001 7.21 54
58.66 21.049999 8.1990004 43
59.318001 21.406 9.2659998 54
61.256001 22.24 10.586 31
62.543999 22.853001 11.859 44
69.384003 25.528999 14.332 37
