# .PCD v0.7 - Point Cloud Data file format
VERSION 0.7
FIELDS x y z intensity
SIZE 4 4 4 4
TYPE F F F F
COUNT 1 1 1 1
WIDTH 1784
HEIGHT 1
VIEWPOINT 0 0 0 1 0 0 0
POINTS 1784
DATA ascii
5.4380002 -1.184 -1.84 9
5.8010001 -1.257 -1.837 9
6.2030001 -1.337 -1.831 10
6.6389999 -1.426 -1.821 10
4.9029999 -1.072 -1.842 10
5.2189999 -1.1339999 -1.842 10
5.5630002 -1.202 -1.84 9
5.9359999 -1.276 -1.834 10
6.355 -1.36 -1.829 10
6.7989998 -1.449 -1.816 9
5.0170002 -1.0880001 -1.845 10
5.3270001 -1.148 -1.8380001 9
5.6960001 -1.221 -1.84 9
6.0830002 -1.2970001 -1.834 10
6.5079999 -1.381 -1.825 10
6.994 -1.479 -1.818 10
5.1279998 -1.103 -1.844 9
5.4520001 -1.165 -1.8380001 9
5.8249998 -1.237 -1.837 9
6.23 -1.317 -1.832 10
6.6789999 -1.405 -1.824 10
7.2020001 -1.5089999 -1.8200001 9
5.2449999 -1.117 -1.844 9
5.579 -1.181 -1.8380001 10
5.9660001 -1.256 -1.836 10
6.381 -1.336 -1.8279999 10
6.842 -1.426 -1.818 9
7.3839998 -1.533 -1.812 9
5.3629999 -1.131 -1.842 9
5.7140002 -1.198 -1.837 9
6.1059999 -1.273 -1.832 10
6.552 -1.358 -1.8279999 10
7.0320001 -1.451 -1.817 10
7.5879998 -1.5599999 -1.809 9
5.4819999 -1.1440001 -1.84 10
5.8340001 -1.21 -1.831 10
6.256 -1.29 -1.83 10
6.6999998 -1.375 -1.8200001 9
7.2420001 -1.48 -1.8200001 9
7.7909999 -1.586 -1.802 9
5.6110001 -1.158 -1.839 10
5.9860001 -1.228 -1.8329999 11
6.4180002 -1.3099999 -1.83 10
6.9089999 -1.403 -1.826 9
7.4250002 -1.501 -1.812 9
8.0249996 -1.6160001 -1.799 10
5.7490001 -1.173 -1.84 9
6.1240001 -1.242 -1.829 10
6.5749998 -1.326 -1.825 10
7.0799999 -1.421 -1.8200001 9
7.618 -1.522 -1.8049999 9
8.2390003 -1.64 -1.789 10
5.8889999 -1.187 -1.839 10
6.277 -1.258 -1.826 10
6.75 -1.345 -1.824 11
7.2690001 -1.442 -1.816 9
7.8460002 -1.549 -1.803 10
8.5389996 -1.679 -1.795 19
6.0190001 -1.198 -1.8329999 10
6.4369998 -1.274 -1.825 10
6.9180002 -1.3609999 -1.819 10
7.461 -1.461 -1.811 9
8.0649996 -1.572 -1.7970001 10
8.7379999 -1.697 -1.776 19
6.1739998 -1.2130001 -1.8329999 10
6.6040001 -1.29 -1.823 11
7.1259999 -1.3839999 -1.821 9
7.6570001 -1.48 -1.803 9
8.2959995 -1.596 -1.79 10
9.0319996 -1.73 -1.773 9
6.3210001 -1.225 -1.829 10
6.7579999 -1.302 -1.8150001 9
7.3099999 -1.4 -1.8150001 9
7.8850002 -1.502 -1.8 9
8.54 -1.62 -1.783 9
9.3330002 -1.763 -1.768 10
6.4829998 -1.238 -1.826 10
6.9840002 -1.326 -1.824 9
7.4990001 -1.415 -1.807 9
8.1070004 -1.523 -1.794 9
8.8199997 -1.649 -1.78 10
9.6709995 -1.8 -1.766 15
6.6539998 -1.251 -1.825 10
7.1680002 -1.34 -1.8200001 10
7.71 -1.433 -1.804 10
8.3640003 -1.5470001 -1.7920001 11
9.1479998 -1.684 -1.784 22
9.9200001 -1.819 -1.745 16
6.8189998 -1.262 -1.821 9
7.3429999 -1.351 -1.812 10
7.9229999 -1.45 -1.798 9
8.5939999 -1.564 -1.7819999 23
9.3699999 -1.698 -1.763 18
10.341 -1.8660001 -1.75 12
7.0250001 -1.279 -1.824 9
7.5370002 -1.364 -1.806 10
8.1450005 -1.466 -1.791 9
8.8459997 -1.5829999 -1.774 12
9.6929998 -1.727 -1.758 10
10.721 -1.902 -1.742 10
7.211 -1.29 -1.8200001 9
7.7420001 -1.377 -1.8 10
8.3780003 -1.4809999 -1.784 10
9.1389999 -1.608 -1.77 10
10.039 -1.758 -1.7539999 11
11.054 -1.927 -1.724 19
7.4109998 -1.302 -1.818 10
7.9439998 -1.387 -1.7920001 10
8.6309996 -1.499 -1.779 9
9.4379997 -1.63 -1.765 10
10.433 -1.793 -1.7539999 26
11.53 -1.973 -1.723 9
7.5929999 -1.309 -1.808 10
8.1739998 -1.401 -1.7869999 10
8.9239998 -1.52 -1.779 11
9.8030005 -1.661 -1.767 25
10.716 -1.807 -1.73 11
12.003 -2.0150001 -1.716 9
7.796 -1.318 -1.802 9
8.4530001 -1.42 -1.79 15
9.2049999 -1.5369999 -1.772 28
10.042 -1.668 -1.743 13
11.154 -1.8430001 -1.728 9
12.507 -2.0569999 -1.7079999 9
8.0159998 -1.327 -1.7970001 10
8.6700001 -1.426 -1.776 24
9.4530001 -1.546 -1.757 11
10.407 -1.692 -1.739 12
11.586 -1.875 -1.721 9
13.022 -2.0969999 -1.6950001 8
8.2320004 -1.3329999 -1.789 10
8.9309998 -1.437 -1.77 9
9.7770004 -1.564 -1.753 10
10.836 -1.724 -1.7410001 14
12.077 -1.911 -1.717 8
13.558 -2.1359999 -1.6799999 8
8.4680004 -1.341 -1.783 11
9.2110004 -1.449 -1.765 10
10.126 -1.584 -1.75 12
11.203 -1.742 -1.728 10
12.575 -1.9450001 -1.7079999 9
14.149 -2.178 -1.666 7
8.7209997 -1.349 -1.778 11
9.526 -1.4630001 -1.762 12
10.468 -1.598 -1.7410001 11
11.643 -1.767 -1.722 9
13.073 -1.974 -1.6950001 8
14.791 -2.2219999 -1.65 8
9.0459995 -1.365 -1.785 15
9.8199997 -1.471 -1.753 11
10.885 -1.6210001 -1.7410001 18
12.098 -1.791 -1.7130001 9
13.588 -2 -1.678 8
15.58 -2.2809999 -1.643 41
9.2779999 -1.364 -1.77 14
10.176 -1.4859999 -1.752 14
11.192 -1.624 -1.72 15
12.572 -1.813 -1.7029999 10
14.161 -2.03 -1.6619999 7
16.256001 -2.319 -1.618 70
9.5790005 -1.3710001 -1.766 14
10.471 -1.488 -1.737 18
11.661 -1.646 -1.72 9
13.092 -1.836 -1.694 9
14.793 -2.062 -1.647 8
17.054001 -2.365 -1.596 88
9.8470001 -1.369 -1.753 25
10.853 -1.499 -1.732 15
12.103 -1.66 -1.711 9
13.619 -1.855 -1.679 9
15.599 -2.112 -1.6440001 11
17.929001 -2.414 -1.572 88
10.18 -1.374 -1.748 13
11.167 -1.4960001 -1.7130001 17
12.576 -1.673 -1.702 10
14.18 -1.874 -1.664 8
16.357 -2.148 -1.628 31
18.823 -2.457 -1.5420001 85
10.484 -1.3710001 -1.735 20
11.65 -1.512 -1.716 9
13.084 -1.6849999 -1.692 9
14.761 -1.8890001 -1.645 8
17.084999 -2.1719999 -1.601 52
19.573 -2.473 -1.4910001 54
10.856 -1.374 -1.7309999 12
12.076 -1.516 -1.707 10
13.592 -1.694 -1.678 9
15.439 -1.91 -1.631 8
17.934999 -2.2030001 -1.5779999 81
20.711 -2.5280001 -1.461 15
11.175 -1.365 -1.715 15
12.549 -1.521 -1.7 10
14.156 -1.7029999 -1.665 9
16.135 -1.926 -1.612 9
18.794001 -2.2279999 -1.549 90
22.465 -2.6459999 -1.459 16
11.639 -1.3710001 -1.717 9
13.006 -1.5190001 -1.686 9
14.737 -1.707 -1.648 8
16.893 -1.942 -1.592 10
19.676001 -2.2449999 -1.51 83
24.246 -2.747 -1.441 10
12.081 -1.369 -1.711 9
13.523 -1.518 -1.675 9
15.352 -1.709 -1.63 8
17.701 -1.955 -1.569 11
20.617001 -2.2590001 -1.469 66
26.070999 -2.836 -1.4069999 8
12.532 -1.362 -1.7029999 10
14.059 -1.5140001 -1.6619999 9
16.044001 -1.7130001 -1.614 9
18.552 -1.964 -1.543 12
22.134001 -2.325 -1.4579999 17
28.058001 -2.9230001 -1.364 6
12.991 -1.352 -1.691 10
14.628 -1.507 -1.647 8
16.754999 -1.711 -1.594 10
19.591 -1.983 -1.523 14
23.846001 -2.3940001 -1.443 12
30.636999 -3.0510001 -1.329 5
13.49 -1.34 -1.681 10
15.38 -1.512 -1.647 38
17.542 -1.709 -1.574 11
20.632 -1.9910001 -1.495 15
25.483999 -2.438 -1.409 7
33.965 -3.221 -1.2970001 5
13.986 -1.323 -1.6670001 9
15.874 -1.4859999 -1.6160001 108
18.337 -1.699 -1.549 12
21.844 -2.0039999 -1.469 17
27.664 -2.513 -1.385 6
38.716999 -3.4849999 -1.279 19
14.526 -1.303 -1.652 9
0 0 0 0
19.271999 -1.691 -1.526 13
23.322001 -2.026 -1.447 13
29.537001 -2.54 -1.329 5
38.723999 -3.2950001 -1.084 53
15.217 -1.289 -1.65 25
17.34 -1.452 -1.581 94
20.291 -1.6799999 -1.501 15
25.038 -2.05 -1.425 8
32.285999 -2.615 -1.29 3
38.484001 -3.0829999 -0.88499999 84
15.773 -1.257 -1.628 92
18.079 -1.423 -1.5549999 100
21.395 -1.663 -1.475 16
26.867001 -2.0639999 -1.395 7
0 0 0 0
38.412998 -2.8840001 -0.69700003 67
16.427999 -1.225 -1.6109999 91
18.93 -1.393 -1.533 104
22.716 -1.65 -1.4529999 18
28.643999 -2.0539999 -1.347 6
38.525002 -2.73 -1.163 53
38.389 -2.6860001 -0.51300001 25
17.160999 -1.192 -1.597 53
19.705 -1.349 -1.499 83
24.271999 -1.638 -1.434 12
31.198999 -2.076 -1.316 4
38.356998 -2.5179999 -0.97399998 69
42.109001 -2.727 -0.36399999 63
17.908001 -1.15 -1.579 21
20.533001 -1.298 -1.462 59
25.881001 -1.612 -1.406 8
33.856998 -2.076 -1.2690001 1
38.223999 -2.3099999 -0.79299998 70
41.979 -2.4990001 -0.17 70
18.514999 -1.091 -1.543 12
21.618999 -1.253 -1.437 17
27.622999 -1.574 -1.372 7
38.242001 -2.145 -1.2589999 35
38.252998 -2.1099999 -0.62 52
41.889 -2.273 0.017999999 54
19.354 -1.038 -1.523 13
23.264 -1.225 -1.439 17
29.658001 -1.531 -1.337 5
38.18 -1.9349999 -1.0829999 66
38.199001 -1.902 -0.44800001 2
41.897999 -2.0480001 0.20299999 70
20.257 -0.97600001 -1.5 15
24.702 -1.165 -1.414 12
32.055 -1.4809999 -1.301 5
38.068001 -1.721 -0.91000003 77
41.819 -1.852 -0.30500001 62
41.993999 -1.821 0.38800001 62
21.208 -0.90499997 -1.474 16
26.341 -1.097 -1.391 8
37.833 -1.539 -1.368 3
37.986 -1.51 -0.74400002 71
41.794998 -1.6210001 -0.125 62
42.207001 -1.597 0.56999999 59
22.368999 -0.82999998 -1.455 18
27.99 -1.011 -1.3559999 7
38.064999 -1.337 -1.2130001 42
37.942001 -1.296 -0.58099997 37
41.873001 -1.39 0.048999999 60
42.536999 -1.37 0.75199997 62
23.775999 -0.74800003 -1.444 15
29.913 -0.91000003 -1.3200001 5
37.969002 -1.119 -1.049 78
0 0 0 0
41.980999 -1.156 0.223 62
42.941002 -1.143 0.93300003 4
25.198999 -0.648 -1.423 9
32.196999 -0.796 -1.2869999 4
37.814999 -0.898 -0.88800001 69
42.064999 -0.95899999 -0.29699999 62
42.331001 -0.92400002 0.39500001 62
62.598999 -1.306 1.6109999 12
26.617001 -0.53200001 -1.393 8
35.660999 -0.67900002 -1.281 1
37.784 -0.67900002 -0.73500001 71
42.213001 -0.71799999 -0.13 62
42.868 -0.68699998 0.56900001 55
147.17799 -2.221 4.3600001 37
28.243 -0.40200001 -1.3660001 7
37.869999 -0.50099999 -1.211 44
37.771999 -0.46200001 -0.58899999 48
42.556 -0.479 0.030999999 64
51.242001 -0.52600002 0.87400001 62
0 0 0 0
29.954 -0.25099999 -1.332 6
37.737999 -0.27900001 -1.061 67
38.102001 -0.243 -0.449 10
50.807999 -0.27500001 0.227 65
50.821999 -0.223 1.057 64
52.419998 -0.17900001 1.943 9
32.028 -0.079000004 -1.302 6
37.619999 -0.055 -0.917 77
40.876999 -0.017999999 -0.33000001 0
50.299 0.027000001 0.41100001 69
50.599998 0.078000002 1.2359999 60
52.089001 0.13500001 2.1210001 20
37.426998 0.133 -1.382 7
37.562 0.171 -0.77700001 74
43.970001 0.245 -0.19499999 1
49.990002 0.32699999 0.58700001 65
50.363998 0.38100001 1.409 81
51.868 0.44499999 2.293 21
37.556 0.36199999 -1.251 35
37.479 0.398 -0.64200002 72
41.348999 0.48100001 -0.037999999 59
41.683998 0.52499998 0.63499999 13
38.578999 0.52600002 1.212 50
51.841 0.75999999 2.4679999 19
37.578999 0.58899999 -1.1210001 67
37.578999 0.62699997 -0.514 39
41.057999 0.72500002 0.1 46
41.568001 0.77499998 0.77200001 51
38.374001 0.755 1.3329999 78
51.849998 1.072 2.638 6
37.498001 0.81599998 -0.99299997 67
40.598999 0.92400002 -0.421 60
40.903 0.97100002 0.233 55
38.271999 0.94999999 0.83600003 10
38.191002 0.98799998 1.45 57
0 0 0 0
37.377998 1.046 -0.86699998 78
40.73 1.181 -0.28999999 58
40.824001 1.224 0.36399999 47
41.535999 1.288 1.039 48
50.236 1.6109999 2.0650001 71
234.782 7.7789998 13.436 32
37.353001 1.281 -0.74599999 78
40.587002 1.432 -0.161 58
40.745998 1.479 0.491 55
41.573002 1.552 1.169 37
50.339001 1.933 2.2249999 69
0 0 0 0
37.396 1.521 -0.63099998 49
40.533001 1.688 -0.035999998 44
40.852001 1.742 0.616 57
41.539001 1.8150001 1.2920001 12
50.528 2.2609999 2.382 63
0 0 0 0
37.293999 1.752 -0.51999998 19
40.460999 1.9400001 0.079999998 58
40.962002 2.007 0.736 47
41.627998 2.0829999 1.414 3
50.560001 2.585 2.527 30
0 0 0 0
37.278999 1.99 -0.414 1
40.588001 2.2090001 0.19599999 47
40.959 2.2720001 0.852 52
49.535 2.7980001 1.8200001 75
50.798 2.925 2.6789999 6
229.054 13.432 15.748 31
40.448002 2.4219999 -0.33700001 53
40.526001 2.4679999 0.30599999 55
41.064999 2.5450001 0.96499997 60
49.609001 3.1270001 1.957 75
131.291 8.4139996 7.2750001 37
133.7 8.7119999 9.5450001 18
40.526001 2.691 -0.23 48
40.671001 2.743 0.414 46
41.435001 2.8380001 1.081 61
49.800999 3.4619999 2.0910001 65
118.538 8.3699999 6.869 33
132.74001 9.5220003 9.8129997 13
40.574001 2.964 -0.126 48
40.812 3.0209999 0.51899999 59
41.784 3.1370001 1.194 11
50.051998 3.812 2.227 73
118.03 9.1190004 7.131 8
0 0 0 0
40.685001 3.243 -0.027000001 49
40.987 3.3099999 0.62099999 57
49.313 4.0339999 1.529 83
50.459999 4.1810002 2.365 78
107.945 9.0629997 6.7779999 32
105.558 8.9829998 8.3109999 11
40.814999 3.526 0.067000002 53
41.452999 3.6240001 0.72299999 61
49.535999 4.3800001 1.648 63
50.834999 4.552 2.4979999 36
105.665 9.5799999 6.8730001 18
104.442 9.585 8.4560003 34
41.097 3.8280001 0.15899999 52
41.830002 3.9389999 0.82200003 1
49.750999 4.7340002 1.7640001 62
51.292999 4.9369998 2.631 6
101.994 9.9320002 6.8509998 35
103.717 10.22 8.618 49
41.66 4.1630001 0.25 6
49.344002 4.9790001 1.072 75
49.987 5.0960002 1.876 77
101.633 10.473 5.4239998 44
100.734 10.489 6.973 26
103.575 10.906 8.8170004 25
49.602001 5.2909999 0.396 53
49.625999 5.3439999 1.177 62
50.462002 5.487 1.993 72
100.641 11.055 5.566 36
100.567 11.156 7.1550002 20
103.746 11.631 9.0299997 28
49.823002 5.6599998 0.493 51
49.907001 5.7199998 1.278 70
51.262001 5.9289999 2.1210001 63
100.575 11.744 5.75 36
101.044 11.909 7.3759999 27
103.562 12.329 9.2049999 29
50.015999 6.026 0.58399999 58
50.348 6.1139998 1.378 53
51.955002 6.3670001 2.24 2
101.427 12.54 5.9759998 27
100.978 12.596 7.5469999 32
102.618 12.923 9.2989998 36
42.673 5.4380002 0.56999999 41
51.265999 6.5830002 1.489 80
121.705 15.756 5.4489999 20
109.145 14.25 6.6079998 21
103.039 13.567 7.868 19
103.445 13.744 9.5410004 41
42.167 5.6659999 0.62800002 50
165.67101 22.427 5.0669999 28
107.224 14.632 4.967 31
104.395 14.361 6.4819999 26
104.045 14.433 8.1059999 31
104.171 14.571 9.7679996 29
41.834999 5.9180002 0.685 50
142.832 20.348 4.5770001 21
116.77 16.752001 5.5760002 10
107.094 15.492 6.8049998 27
116.463 16.972 9.2370005 32
228.34 33.550999 21.738001 31
41.653999 6.1859999 0.73799998 51
0 0 0 0
116.943 17.605 5.7420001 10
110.127 16.701 7.1420002 30
116.4 17.782 9.3879995 28
0 0 0 0
41.566002 6.467 0.78799999 57
159.026 24.892 5.5050001 34
108.896 17.159 5.4780002 31
108.494 17.216 7.1659999 44
109.261 17.465 8.9429998 27
0 0 0 0
41.519001 6.7589998 0.83499998 57
137.67999 22.542 4.9219999 14
107.373 17.697001 5.5229998 23
107.09 17.764 7.1950002 47
107.94 18.031 8.9569998 32
0 0 0 0
41.698002 7.0879998 0.88200003 41
137.5 23.507999 5.0580001 20
106.627 18.346001 5.5939999 23
107.172 18.552999 7.3099999 22
106.993 18.646999 8.9879999 42
0 0 0 0
41.838001 7.4180002 0.92299998 63
108.823 19.396999 4.1030002 28
105.938 18.992001 5.6560001 26
104.978 18.936001 7.257 32
107.14 19.447001 9.099 29
0 0 0 0
42.123001 7.7729998 0.96200001 62
124.025 23.002001 4.7729998 9
104.597 19.511 5.6690001 23
103.961 19.511999 7.2709999 30
105.316 19.885 9.0299997 22
0 0 0 0
42.348999 8.1239996 0.99699998 6
118.61 22.868 4.6479998 10
103.839 20.127001 5.698 19
103.403 20.156 7.302 34
104.525 20.493 9.033 15
113.654 22.419001 11.625 13
0 0 0 0
123.557 24.726999 4.915 16
103.074 20.728001 5.7179999 30
103.274 20.881001 7.355 23
103.844 21.118999 9.0369997 28
117.049 23.945 12.044 14
132.07001 27.271999 3.25 29
105.45 21.868999 4.244 6
104.707 21.820999 5.8569999 27
103.276 21.636 7.4039998 25
0 0 0 0
112.279 23.799999 11.61 51
123.88 26.503 3.0940001 16
131.797 28.313 5.3540001 24
102.091 22.034 5.75 20
0 0 0 0
101.93 22.233999 8.9619999 14
113.121 24.818001 11.742 13
56.451 12.499 1.424 5
0 0 0 0
102.193 22.816999 5.783 14
100.783 22.612 7.2919998 8
103.205 23.280001 9.1040001 19
80.480003 18.252001 8.3789997 5
56.140999 12.848 1.425 19
99.656998 22.892 4.0910001 10
111.558 25.737 6.3319998 9
100.849 23.375 7.3150001 23
101.345 23.608 8.9560003 18
99.712997 23.349001 10.398 24
55.931 13.216 1.421 24
81.446999 19.318001 3.3440001 29
101.18 24.101 5.7490001 19
101.252 24.222 7.3520002 32
81.575996 19.610001 7.2160001 18
99.75 24.110001 10.41 24
55.870998 13.623 1.415 18
82.18 20.111 3.369 28
0 0 0 0
0 0 0 0
98.191002 24.341999 8.6829996 13
100.008 24.913 10.437 14
47.821999 12.02 1.2029999 13
119.52 30.145 4.881 15
100.964 25.562 5.7129998 23
101.043 25.684 7.316 14
98.535004 25.155001 8.6999998 35
100.366 25.749001 10.461 25
47.599998 12.321 1.182 28
110.119 28.598 4.4640002 17
99.82 26.017 5.625 23
0 0 0 0
97.474998 25.615999 8.585 10
100.161 26.447001 10.419 14
47.444 12.639 1.16 36
108.046 28.868999 4.3410001 12
100.47 26.938999 5.6220002 11
100.443 27.035999 7.2119999 14
98.706001 26.677 8.658 10
98.152 26.659 10.178 7
47.262001 12.949 1.132 32
100.991 27.753 4.0079999 17
107.462 29.631001 5.9619999 16
96.671997 26.754999 6.8959999 7
98.426003 27.353001 8.5880003 10
99.724998 27.833 10.297 11
47.390999 13.343 1.105 17
106.017 29.933001 4.1420002 12
0 0 0 0
96.726997 27.500999 6.8470001 18
96.629997 27.577 8.382 19
98.055 28.106001 10.074 7
47.585999 13.76 1.075 5
0 0 0 0
0 0 0 0
96.714996 28.219999 6.7810001 21
98.247002 28.771999 8.4580002 22
97.788002 28.764 9.9829998 18
78.790001 23.379999 1.7130001 62
78.747002 23.424 2.957 56
101.182 30.184999 5.4039998 11
96.807999 28.98 6.7150002 22
104.521 31.4 8.9219999 12
99.536003 30.025999 10.092 14
78.301003 23.83 1.631 64
78.241997 23.868999 2.868 61
78.111 23.896 4.1030002 10
96.964996 29.759001 6.6389999 10
98.867996 30.447001 8.3529997 8
97.757004 30.225 9.8290005 21
77.816002 24.274 1.538 61
77.728996 24.305 2.7709999 63
77.647003 24.344999 4.0019999 20
98.095001 30.844999 6.6240001 23
96.894997 30.573999 8.0950003 33
96.098 30.438999 9.5740004 19
77.303001 24.709999 1.438 59
77.224998 24.738001 2.6619999 55
77.139 24.77 3.8900001 35
101.265 32.608002 6.7270002 8
96.601997 31.209999 7.967 21
97.737 31.698999 9.6379995 7
76.818001 25.143999 1.3329999 60
76.742996 25.166 2.5539999 61
76.646004 25.195999 3.7739999 42
97.194 32.040001 6.342 13
96.867996 32.030998 7.8790002 25
97.505997 32.354 9.5059996 32
76.333 25.563999 1.221 64
76.281998 25.591 2.437 59
76.161003 25.610001 3.6500001 61
96.927002 32.685001 6.204 7
97.508003 32.983002 7.8099999 23
98.971001 33.59 9.5290003 8
75.855003 25.982 1.104 61
75.802002 26.01 2.3139999 70
75.696999 26.031 3.523 62
84.311996 29.068001 5.2779999 33
83.911003 29.016001 6.6059999 25
82.720001 28.698 7.8530002 24
75.417999 26.419001 0.977 68
75.370003 26.441999 2.1830001 62
75.259003 26.458 3.388 53
83.285004 29.351999 5.0900002 18
84.994003 30.040001 6.5669999 18
82.188004 29.139999 7.684 34
74.949997 26.827999 0.84299999 58
74.879997 26.84 2.0439999 61
74.792 26.861 3.2449999 58
82.783997 29.804001 4.9299998 14
83.970001 30.315001 6.3590002 8
81.652 29.568001 7.5110002 15
74.501999 27.24 0.70599997 68
74.416 27.247 1.901 65
74.347 27.267 3.099 64
83.027 30.518999 4.803 26
83.737 30.857 6.204 8
81.052002 29.959 7.323 25
74.046997 27.639 0.56099999 59
73.990997 27.65 1.7539999 55
73.906998 27.667999 2.948 58
73.667 27.636999 4.132 3
83.099998 31.250999 6.013 5
80.195 30.247999 7.1100001 14
73.625 28.046 0.412 66
73.559998 28.054001 1.599 61
73.489998 28.068001 2.79 59
73.379997 28.077999 3.9779999 14
79.054001 30.323 5.573 31
79.775002 30.687 6.9260001 17
73.384003 28.516001 0.259 16
73.581001 28.622999 1.45 3
0 0 0 0
81.601997 31.849001 4.2600002 24
79.191002 30.983999 5.4289999 38
0 0 0 0
74.858002 29.666 0.098999999 32
87.679001 34.778999 1.539 5
0 0 0 0
82.166 32.694 4.118 20
81.292 32.417999 5.4039998 17
80.758003 32.292999 6.6950002 24
71.046997 28.705 -0.071000002 3
84.523003 34.173 1.2920001 60
84.653999 34.269001 2.675 19
84.774002 34.369999 4.0669999 6
80.250999 32.605 5.165 10
79.019997 32.186001 6.3839998 9
68.757004 28.298 -0.23199999 3
73.571999 30.299999 0.95099998 14
0 0 0 0
85.570999 35.335999 3.9130001 6
86.766998 35.901001 5.3930001 33
78.545998 32.575001 6.178 5
70.110001 29.388 -0.41 7
73.969002 31.023001 0.77700001 17
0 0 0 0
82.139 34.529999 3.5610001 15
81.496002 34.324001 4.875 10
85.332001 36.019001 6.5149999 11
69.663002 29.726 -0.58899999 3
73.777 31.499001 0.58899999 32
81.885002 34.992001 2 10
0 0 0 0
79.464996 34.058998 4.5630002 4
79.709 34.240002 5.8959999 5
0 0 0 0
73.873001 32.102001 0.391 36
163.151 70.945999 3.5610001 23
113.943 49.608002 4.368 9
79.744003 34.777 4.3759999 17
79.350998 34.679001 5.6700001 13
0 0 0 0
73.627998 32.543999 0.18799999 28
0 0 0 0
0 0 0 0
79.667 35.330002 4.1669998 23
79.422997 35.289001 5.4770002 18
0 0 0 0
68.458 30.766001 -0.013 3
73.449997 33.030998 1.2 31
73.400002 33.037998 2.421 11
79.295998 35.743 3.934 24
79.25 35.791 5.2519999 7
0 0 0 0
68.164001 31.143 -0.213 12
73.896004 33.776001 0.99800003 15
0 0 0 0
139.24899 63.790001 6.5209999 24
78.785004 36.152 5.0079999 32
0 0 0 0
67.789001 31.476 -0.41600001 4
73.783997 34.27 0.77700001 25
0 0 0 0
81.422997 37.889999 3.582 13
78.699997 36.685001 4.7800002 28
0 0 0 0
0 0 0 0
73.325996 34.584999 0.551 38
83.514999 39.417 2.027 11
81.25 38.387001 3.3369999 17
75.515999 35.735001 4.369 14
0 0 0 0
0 0 0 0
73.227997 35.063 0.324 31
0 0 0 0
99.542 47.741001 3.79 7
75.652 36.337002 4.1539998 16
0 0 0 0
0 0 0 0
70.055 34.048 0.086999997 4
87.044998 42.324001 1.575 5
0 0 0 0
75.761002 36.928001 3.927 40
31.837999 15.717 -1.143 1
0 0 0 0
66.453003 32.776001 -0.13600001 5
73.310997 36.166 1.091 6
0 0 0 0
74.973 37.057999 3.655 34
0 0 0 0
0 0 0 0
66.066002 33.047001 -0.35699999 6
73.360001 36.702999 0.847 18
79.361 39.736 2.266 16
75.152 37.667999 3.424 25
29.372999 14.92 -1.261 5
0 0 0 0
64.011002 32.469002 -0.565 3
73.075996 37.07 0.59799999 28
81.397003 41.314999 2.05 34
75.542999 38.380001 3.191 7
27.448 14.136 -1.279 5
0 0 0 0
0 0 0 0
73.075996 37.575001 0.34599999 24
85.589996 44.028999 1.8660001 9
78.082001 40.202 3.0369999 36
26.037001 13.593 -1.309 5
0 0 0 0
0 0 0 0
68.914001 35.903 0.081 3
80.500999 41.953999 1.472 4
118.684 61.898998 4.2059999 18
23.990999 12.691 -1.298 26
31.302 16.538 -1.153 3
0 0 0 0
64.884003 34.238998 -0.153 4
72.917999 38.487 1.079 18
99.365997 52.485001 3.175 28
23.841999 12.776 -1.381 27
29.677 15.88 -1.206 5
0 0 0 0
62.573002 33.435001 -0.38 2
73.253998 39.146 0.81599998 17
0 0 0 0
22.493 12.208 -1.393 8
28.006001 15.176 -1.247 5
0 0 0 0
0 0 0 0
73.166 39.580002 0.54299998 22
0 0 0 0
21.516001 11.821 -1.419 12
26.219999 14.382 -1.27 6
34.035999 18.645 -1.057 1
0 0 0 0
72.902 39.907001 0.26800001 13
79.516998 43.544998 1.668 4
19.031 10.583 -1.3329999 17
24.874001 13.807 -1.306 29
32.944 18.261999 -1.154 1
0 0 0 0
0 0 0 0
79.575996 44.081001 1.367 6
18.499001 10.409 -1.372 16
0 0 0 0
30.436001 17.068001 -1.189 1
0 0 0 0
63.326 35.463001 -0.25799999 5
72.797997 40.772999 0.96899998 29
18.006001 10.249 -1.4119999 15
20.344 11.555 -1.235 2
28.624001 16.232 -1.234 5
0 0 0 0
63.062 35.702999 -0.505 5
73.037003 41.351002 0.68900001 20
17.620001 10.14 -1.457 20
19.891001 11.421 -1.2920001 19
25.764 14.77 -1.2180001 12
35.865002 20.535999 -1.061 1
0 0 0 0
73.124001 41.839001 0.39899999 18
17.275 10.051 -1.5039999 14
19.061001 11.063 -1.319 18
25.705 14.891 -1.323 32
0 0 0 0
0 0 0 0
72.814003 42.09 0.104 7
16.884001 9.927 -1.544 14
17.997999 10.555 -1.324 18
18.025 10.551 -1.005 15
18.038 10.543 -0.685 15
18.049 10.54 -0.366 15
18.069 10.548 -0.046999998 10
16.288 9.6759996 -1.563 13
17.85 10.575 -1.391 27
17.924 10.597 -1.076 32
17.941999 10.59 -0.75700003 47
18.007999 10.618 -0.44 76
17.990999 10.603 -0.122 85
15.689 9.4119997 -1.576 12
17.572001 10.512 -1.446 20
17.868999 10.665 -1.149 42
17.878 10.652 -0.82999998 47
17.903 10.655 -0.51300001 14
57.258999 34.057999 -0.625 2
15.163 9.184 -1.591 11
17.194 10.383 -1.4910001 18
17.855 10.756 -1.227 31
17.868999 10.743 -0.90600002 32
17.878 10.736 -0.58700001 47
0 0 0 0
14.665 8.9650002 -1.6059999 10
16.766001 10.217 -1.529 14
18.264 11.101 -1.334 17
17.889 10.851 -0.98500001 15
17.892 10.838 -0.66399997 30
17.913 10.841 -0.345 72
14.183 8.7469997 -1.618 10
16.174999 9.9429998 -1.549 13
17.981001 11.023 -1.3940001 16
21.006001 12.85 -1.249 21
28.240999 17.249001 -1.17 5
0 0 0 0
13.759 8.5579996 -1.633 9
15.708 9.7370005 -1.576 12
17.598 10.877 -1.443 15
19.947001 12.302 -1.274 21
27.51 16.937 -1.2589999 38
0 0 0 0
13.364 8.382 -1.648 9
15.139 9.4610004 -1.587 11
17.23 10.736 -1.49 15
19.094 11.869 -1.304 18
22.694 14.081 -1.138 0
33.578999 20.809999 -1.08 1
12.977 8.2049999 -1.6619999 8
14.603 9.198 -1.599 10
16.849001 10.58 -1.535 14
18.525999 11.604 -1.349 17
22.121 13.829 -1.209 7
31.384001 19.593 -1.149 1
12.619 8.04 -1.676 8
14.161 8.9870005 -1.617 10
16.209 10.253 -1.551 13
18.101 11.419 -1.4 16
21.059 13.257 -1.244 19
28.297001 17.789 -1.158 19
12.224 7.8460002 -1.681 7
13.684 8.7469997 -1.626 9
15.685 9.9919996 -1.572 12
17.714001 11.253 -1.45 16
19.862 12.59 -1.263 20
28.127001 17.799 -1.278 40
11.883 7.6810002 -1.691 7
13.284 8.5500002 -1.641 9
15.174 9.7320004 -1.592 11
17.299 11.062 -1.495 15
19.042 12.148 -1.2970001 18
23.028999 14.666 -1.149 3
11.529 7.5019999 -1.697 6
12.907 8.3629999 -1.656 8
14.623 9.4390001 -1.602 8
16.837999 10.835 -1.5319999 14
18.5 11.875 -1.344 17
22.283001 14.277 -1.212 10
11.207 7.3390002 -1.7029999 8
12.551 8.1820002 -1.669 8
14.132 9.1780005 -1.614 10
16.18 10.474 -1.546 13
18.007 11.625 -1.388 16
21.087 13.586 -1.239 18
10.894 7.1760001 -1.707 8
12.192 7.9949999 -1.679 7
13.767 8.9910002 -1.636 10
15.62 10.167 -1.564 12
17.631001 11.444 -1.4400001 16
19.952 12.924 -1.262 20
10.601 7.0240002 -1.7130001 8
11.829 7.7989998 -1.6849999 7
13.32 8.7460003 -1.646 9
15.243 9.9729996 -1.597 12
17.233 11.243 -1.4859999 15
18.982 12.357 -1.286 18
10.324 6.8759999 -1.717 8
11.495 7.619 -1.691 6
12.926 8.5299997 -1.656 8
14.617 9.6110001 -1.598 9
16.837 11.036 -1.526 14
18.393 12.027 -1.3279999 17
10.066 6.737 -1.722 8
11.171 7.4390001 -1.696 6
12.576 8.3380003 -1.67 8
14.172 9.3599997 -1.613 10
16.25 10.698 -1.5470001 14
17.958 11.793 -1.377 16
9.8190002 6.6020002 -1.727 7
10.871 7.2719998 -1.701 8
12.232 8.1440001 -1.679 7
13.765 9.1289997 -1.63 9
15.647 10.343 -1.559 13
17.528999 11.556 -1.421 20
9.5860004 6.474 -1.7309999 7
10.588 7.1110001 -1.706 8
11.902 7.9559999 -1.689 7
13.364 8.8970003 -1.643 9
15.284 10.139 -1.591 12
17.194 11.375 -1.47 26
9.3579998 6.3429999 -1.734 7
10.324 6.96 -1.712 8
11.56 7.7550001 -1.693 7
12.964 8.6599998 -1.652 9
14.694 9.7810001 -1.596 10
16.854 11.186 -1.517 15
9.1739998 6.2410002 -1.743 7
10.079 6.8179998 -1.7180001 8
11.25 7.5710001 -1.699 8
12.609 8.4490004 -1.663 8
14.218 9.4919996 -1.607 10
16.355 10.885 -1.544 14
8.9650002 6.118 -1.745 7
9.8339996 6.6719999 -1.721 8
10.953 7.3930001 -1.705 7
12.309 8.2709999 -1.6799999 8
13.808 9.2419996 -1.623 9
15.66 10.448 -1.5470001 13
8.7819996 6.0100002 -1.75 7
9.6169996 6.5419998 -1.728 8
10.672 7.2210002 -1.709 8
11.957 8.0530005 -1.6849999 7
13.492 9.0509996 -1.645 9
15.316 10.241 -1.581 12
8.6009998 5.901 -1.7539999 7
9.4040003 6.4120002 -1.732 7
10.4 7.053 -1.712 8
11.63 7.849 -1.691 7
13.073 8.7860003 -1.652 9
14.805 9.915 -1.592 11
8.4230003 5.7909999 -1.756 7
9.1949997 6.2820001 -1.734 7
10.163 6.9039998 -1.7180001 8
11.346 7.6700001 -1.7 6
12.706 8.552 -1.661 8
14.355 9.6269999 -1.6059999 9
8.2530003 5.6830001 -1.758 7
9.0100002 6.165 -1.74 7
9.927 6.7529998 -1.722 8
11.057 7.4829998 -1.704 7
12.386 8.3459997 -1.6720001 8
13.927 9.3500004 -1.618 8
8.1110001 5.5929999 -1.7640001 7
8.8330002 6.0500002 -1.744 7
9.7080002 6.6100001 -1.726 8
10.765 7.2919998 -1.705 8
12.071 8.1400003 -1.681 7
13.57 9.1149998 -1.632 9
7.9619999 5.494 -1.766 7
8.6660004 5.9400001 -1.749 7
9.5170002 6.4850001 -1.733 7
10.519 7.1290002 -1.711 8
11.779 7.9460001 -1.6900001 7
13.225 8.8859997 -1.647 9
7.816 5.3969998 -1.768 8
8.5019999 5.8299999 -1.752 7
9.316 6.349 -1.7359999 7
10.276 6.9650002 -1.714 9
11.488 7.7490001 -1.696 7
12.843 8.6280003 -1.652 8
7.6869998 5.3080001 -1.771 8
8.3330002 5.7140002 -1.752 7
9.1339998 6.224 -1.74 7
10.061 6.8169999 -1.72 8
11.193 7.5469999 -1.698 7
12.562 8.4350004 -1.6670001 10
7.526 5.1960001 -1.765 10
8.1920004 5.6149998 -1.756 7
8.9610004 6.1030002 -1.744 7
9.8409996 6.664 -1.723 8
10.943 7.3730001 -1.704 8
12.254 8.2209997 -1.675 7
7.421 5.1199999 -1.771 14
8.052 5.5139999 -1.7589999 7
8.8030005 5.9899998 -1.748 7
9.6540003 6.5310001 -1.728 8
10.673 7.1830001 -1.704 8
11.978 8.0249996 -1.6849999 5
7.3010001 5.0320001 -1.772 24
7.921 5.4190001 -1.762 8
8.6499996 5.8779998 -1.752 7
9.4510002 6.3839998 -1.729 7
10.455 7.026 -1.71 9
11.698 7.8249998 -1.691 8
7.21 4.9619999 -1.779 28
7.7950001 5.3239999 -1.765 8
8.4849997 5.756 -1.752 7
9.2819996 6.2589998 -1.734 7
10.251 6.875 -1.716 8
11.411 7.6170001 -1.693 8
7.1079998 4.882 -1.781 24
7.677 5.2329998 -1.767 8
8.3529997 5.6550002 -1.756 8
9.1239996 6.1389999 -1.738 7
10.05 6.7249999 -1.72 8
11.159 7.4299998 -1.698 8
6.974 4.7800002 -1.774 25
7.5349998 5.1240001 -1.763 10
8.2119999 5.546 -1.757 8
8.967 6.0180001 -1.742 7
9.849 6.573 -1.722 8
10.906 7.2420001 -1.699 8
6.9070001 4.7220001 -1.7819999 29
7.4190001 5.0320001 -1.762 22
8.0780001 5.4400001 -1.758 8
8.823 5.9039998 -1.7460001 7
9.6529999 6.4219999 -1.722 7
10.694 7.079 -1.704 9
6.8150001 4.645 -1.783 26
7.3260002 4.9530001 -1.767 29
7.9679999 5.349 -1.762 8
8.6850004 5.7919998 -1.749 7
9.4980001 6.2969999 -1.728 7
10.488 6.9180002 -1.709 8
6.7150002 4.5609999 -1.78 28
7.2459998 4.882 -1.773 29
7.8610001 5.257 -1.765 8
8.559 5.6859999 -1.7539999 8
9.3509998 6.1760001 -1.734 7
10.288 6.7589998 -1.711 8
6.6719999 4.5149999 -1.791 27
7.1329999 4.7870002 -1.7690001 32
7.7519999 5.164 -1.767 8
8.408 5.5640001 -1.751 8
9.198 6.0500002 -1.7359999 7
10.119 6.6199999 -1.717 8
6.6040001 4.4499998 -1.795 16
7.0580001 4.717 -1.774 36
7.6469998 5.072 -1.768 9
8.2950001 5.4650002 -1.7539999 8
9.0559998 5.9289999 -1.739 8
9.9370003 6.4710002 -1.719 8
6.5100002 4.3660002 -1.79 8
6.9809999 4.6430001 -1.777 33
7.5159998 4.961 -1.762 11
8.1780005 5.3610001 -1.755 9
8.9169998 5.809 -1.7410001 8
9.757 6.3200002 -1.719 8
6.4369998 4.296 -1.79 8
6.8829999 4.5549998 -1.773 38
7.4289999 4.8790002 -1.7640001 16
8.0780001 5.2680001 -1.7589999 8
8.7989998 5.7020001 -1.745 8
9.6160002 6.1960001 -1.723 7
6.3740001 4.2309999 -1.791 8
6.8439999 4.5050001 -1.783 33
7.316 4.7779999 -1.7589999 32
7.9699998 5.1680002 -1.7589999 8
8.6709995 5.586 -1.745 8
9.4840002 6.0749998 -1.729 8
6.3130002 4.1669998 -1.7920001 8
6.7779999 4.4349999 -1.785 17
7.27 4.7199998 -1.7690001 42
7.8800001 5.079 -1.762 8
8.5699997 5.4879999 -1.751 8
9.3470001 5.9499998 -1.7309999 8
6.2509999 4.1009998 -1.7920001 8
6.7090001 4.3629999 -1.786 9
7.2020001 4.6459999 -1.772 34
7.7820001 4.9840002 -1.762 9
8.4519997 5.3769999 -1.75 8
9.2180004 5.8299999 -1.733 8
6.2020001 4.0419998 -1.794 8
6.631 4.2839999 -1.783 8
7.1020002 4.5510001 -1.767 45
7.6760001 4.8829999 -1.758 13
8.3529997 5.2779999 -1.752 8
9.1049995 5.7189999 -1.7359999 8
6.1469998 3.9790001 -1.794 8
6.5700002 4.2150002 -1.783 8
7.079 4.5040002 -1.779 41
7.559 4.7740002 -1.751 40
8.2519999 5.177 -1.752 8
8.9849997 5.6020002 -1.737 8
6.1030002 3.9219999 -1.796 8
6.5170002 4.151 -1.784 8
7.0219998 4.4349999 -1.7819999 25
7.526 4.7179999 -1.762 53
8.1669998 5.085 -1.755 8
8.8809996 5.4949999 -1.739 8
6.0539999 3.8599999 -1.796 8
6.4640002 4.085 -1.785 8
6.9809999 4.375 -1.788 12
7.4569998 4.638 -1.763 34
8.0839996 4.993 -1.756 9
8.7910004 5.3959999 -1.743 8
6.0100002 3.802 -1.796 8
6.415 4.0209999 -1.786 8
6.8759999 4.2740002 -1.777 8
7.3639998 4.5430002 -1.758 46
7.9629998 4.8779998 -1.747 14
8.691 5.29 -1.743 9
5.9710002 3.7460001 -1.796 8
6.3720002 3.96 -1.7869999 8
6.8330002 4.211 -1.78 8
7.3470001 4.493 -1.77 45
7.8709998 4.7789998 -1.745 38
8.5979996 5.1880002 -1.744 9
5.9330001 3.6889999 -1.7970001 7
6.3330002 3.901 -1.789 8
6.7820001 4.1430001 -1.78 8
7.2919998 4.4190001 -1.772 29
7.8530002 4.7259998 -1.757 52
8.5190001 5.0929999 -1.7460001 9
5.8990002 3.6340001 -1.798 8
6.2930002 3.8410001 -1.789 8
6.737 4.0780001 -1.781 8
7.2579999 4.3579998 -1.777 16
7.7940001 4.6469998 -1.7589999 27
8.427 4.9910002 -1.744 9
5.8730001 3.5840001 -1.799 8
6.2519999 3.78 -1.789 8
6.6869998 4.0079999 -1.78 8
7.1859999 4.2729998 -1.773 10
7.7659998 4.5840001 -1.767 13
8.3380003 4.8889999 -1.7410001 13
5.8460002 3.5320001 -1.8 8
6.2210002 3.724 -1.79 8
6.6490002 3.9460001 -1.781 8
7.125 4.1950002 -1.77 9
7.6739998 4.4850001 -1.76 8
8.2480001 4.7880001 -1.737 28
5.809 3.474 -1.798 7
6.1869998 3.6659999 -1.79 8
6.618 3.888 -1.784 8
7.0869999 4.1290002 -1.772 8
7.619 4.4070001 -1.76 9
8.2399998 4.7340002 -1.749 23
5.8000002 3.4319999 -1.803 8
6.1589999 3.6110001 -1.79 8
6.5809999 3.825 -1.783 9
7.0450001 4.0619998 -1.772 8
7.573 4.3330002 -1.761 9
8.2010002 4.6609998 -1.7539999 20
5.776 3.382 -1.803 8
6.1350002 3.5580001 -1.791 8
6.5549998 3.7679999 -1.785 9
7.0120001 3.9979999 -1.774 8
7.5209999 4.256 -1.76 9
8.1479998 4.579 -1.7539999 13
5.7620001 3.336 -1.8049999 8
6.1059999 3.5009999 -1.79 7
6.5209999 3.7060001 -1.784 8
6.98 3.934 -1.775 9
7.4829998 4.1859999 -1.761 8
8.0740004 4.4850001 -1.749 9
5.7389998 3.283 -1.804 7
6.0939999 3.4530001 -1.793 8
6.5 3.6500001 -1.785 8
6.9489999 3.8710001 -1.775 8
7.4510002 4.119 -1.762 9
8.026 4.4060001 -1.749 9
5.7290001 3.2390001 -1.806 8
6.0679998 3.398 -1.791 8
6.4850001 3.599 -1.788 9
6.9200001 3.809 -1.775 9
7.4130001 4.0489998 -1.762 8
7.9910002 4.3340001 -1.751 9
5.7119999 3.1900001 -1.8049999 8
6.0539999 3.348 -1.793 8
6.46 3.5409999 -1.7869999 9
6.8990002 3.7490001 -1.776 9
7.3850002 3.983 -1.762 8
7.9499998 4.257 -1.75 9
5.6999998 3.1429999 -1.806 8
6.0409999 3.2980001 -1.793 8
6.4390001 3.484 -1.786 8
6.8709998 3.687 -1.775 8
7.362 3.9189999 -1.763 9
7.927 4.1900001 -1.753 9
5.6760001 3.089 -1.801 7
6.0349998 3.2520001 -1.796 8
6.4299998 3.434 -1.788 8
6.8540001 3.6289999 -1.776 9
7.3379998 3.8559999 -1.7640001 9
7.888 4.1149998 -1.751 10
5.6430001 3.03 -1.793 8
6.026 3.204 -1.796 8
6.4180002 3.382 -1.788 9
6.8400002 3.5739999 -1.776 9
7.3260002 3.7969999 -1.766 9
7.8600001 4.0450001 -1.75 9
5.6339998 2.9849999 -1.7920001 9
6.0149999 3.155 -1.795 8
6.4159999 3.3340001 -1.791 9
6.8210001 3.5150001 -1.775 8
7.3049998 3.7349999 -1.765 9
7.8439999 3.9809999 -1.752 10
5.6269999 2.9389999 -1.791 9
6.0180001 3.112 -1.798 8
6.3909998 3.2750001 -1.786 8
6.8200002 3.4649999 -1.777 8
7.29 3.674 -1.7640001 9
7.823 3.914 -1.751 9
5.6259999 2.8959999 -1.7920001 9
6.0110002 3.0639999 -1.7970001 8
6.395 3.23 -1.789 9
6.8099999 3.4100001 -1.777 9
7.2849998 3.618 -1.766 9
7.8119998 3.8510001 -1.752 9
5.6269999 2.8540001 -1.7920001 9
6.0110002 3.0190001 -1.7970001 8
6.3740001 3.171 -1.784 10
6.7989998 3.3540001 -1.775 9
7.2800002 3.562 -1.767 9
7.7969999 3.7869999 -1.751 10
5.631 2.8139999 -1.793 10
6.0139999 2.9749999 -1.798 8
6.3860002 3.1300001 -1.788 9
6.8049998 3.306 -1.778 9
7.2670002 3.5020001 -1.765 10
7.789 3.7249999 -1.751 9
5.6269999 2.7679999 -1.791 10
6.0120001 2.928 -1.7970001 8
6.3889999 3.0829999 -1.788 9
6.8000002 3.253 -1.776 9
7.277 3.4530001 -1.768 9
7.7909999 3.6689999 -1.752 10
5.6240001 2.724 -1.788 9
5.9759998 2.8659999 -1.785 10
6.3959999 3.0380001 -1.789 9
6.802 3.2030001 -1.776 9
7.2719998 3.3959999 -1.766 9
7.7870002 3.608 -1.751 10
5.6399999 2.688 -1.791 9
5.9829998 2.823 -1.785 9
6.402 2.9920001 -1.789 9
6.8119998 3.1559999 -1.777 9
7.2779999 3.3429999 -1.766 10
7.7919998 3.552 -1.751 10
5.6539998 2.6500001 -1.7920001 10
5.9910002 2.78 -1.784 9
6.4060001 2.9449999 -1.7869999 9
6.8200002 3.1070001 -1.777 9
7.276 3.2880001 -1.7640001 10
7.789 3.4920001 -1.749 10
5.6550002 2.6070001 -1.79 9
6.006 2.7409999 -1.786 9
6.421 2.902 -1.789 9
6.829 3.059 -1.777 9
7.296 3.2409999 -1.766 10
7.8000002 3.438 -1.749 10
5.6750002 2.5710001 -1.7920001 10
6.0110002 2.6960001 -1.784 10
6.3959999 2.8410001 -1.778 10
6.8429999 3.0120001 -1.777 10
7.2989998 3.1860001 -1.7640001 9
7.8270001 3.3900001 -1.752 10
5.6890001 2.5320001 -1.7920001 9
6.0300002 2.6570001 -1.785 10
6.4169998 2.8010001 -1.78 9
6.8569999 2.9660001 -1.776 9
7.3119998 3.1359999 -1.763 9
7.8319998 3.332 -1.749 10
5.7010002 2.4920001 -1.79 10
6.0440001 2.615 -1.784 11
6.421 2.7520001 -1.776 10
6.868 2.9159999 -1.774 9
7.3429999 3.092 -1.765 10
7.855 3.2809999 -1.75 10
5.723 2.4560001 -1.791 10
6.0640001 2.576 -1.784 10
6.4520001 2.7149999 -1.778 9
6.8959999 2.875 -1.775 10
7.3540001 3.04 -1.762 10
7.875 3.23 -1.749 10
5.7290001 2.414 -1.7869999 10
6.0760002 2.5339999 -1.781 10
6.4580002 2.6670001 -1.774 11
6.9289999 2.836 -1.778 10
7.3790002 2.994 -1.762 10
7.901 3.1800001 -1.748 10
5.7579999 2.3800001 -1.789 9
6.1009998 2.4960001 -1.781 11
6.4899998 2.6300001 -1.776 10
6.9460001 2.79 -1.775 10
7.4099998 2.95 -1.762 10
7.9239998 3.1289999 -1.7460001 10
5.7820001 2.3440001 -1.789 10
6.1300001 2.46 -1.7819999 10
6.5240002 2.5929999 -1.777 10
6.9809999 2.7490001 -1.776 10
7.4310002 2.902 -1.7589999 10
7.9580002 3.082 -1.745 10
5.8080001 2.3099999 -1.789 10
6.152 2.421 -1.781 10
6.5409999 2.549 -1.774 10
7.0089998 2.7060001 -1.775 10
7.4710002 2.8599999 -1.76 10
7.9949999 3.0350001 -1.745 11
5.8379998 2.2750001 -1.789 10
6.177 2.3829999 -1.779 11
6.5840001 2.5139999 -1.776 10
7.0279999 2.6600001 -1.77 10
7.5100002 2.8169999 -1.76 10
8.0310001 2.9879999 -1.743 11
5.8590002 2.2379999 -1.7869999 10
6.204 2.345 -1.777 12
6.6149998 2.4760001 -1.775 10
7.0819998 2.6259999 -1.774 10
7.552 2.7750001 -1.76 11
8.0869999 2.947 -1.745 11
5.8660002 2.194 -1.779 15
6.244 2.3110001 -1.779 11
6.6589999 2.4400001 -1.776 10
7.1139998 2.582 -1.771 10
7.5960002 2.733 -1.7589999 10
8.125 2.8989999 -1.7410001 11
5.9219999 2.168 -1.785 17
6.283 2.276 -1.779 10
6.6919999 2.401 -1.775 11
7.1490002 2.54 -1.7690001 10
7.6339998 2.688 -1.755 11
8.184 2.8570001 -1.742 11
5.9499998 2.132 -1.783 17
6.3260002 2.243 -1.78 10
6.7389998 2.3659999 -1.775 11
7.1989999 2.503 -1.7690001 10
7.6869998 2.6489999 -1.755 11
8.2399998 2.8139999 -1.74 11
5.9889998 2.099 -1.783 18
6.3379998 2.198 -1.771 20
6.7709999 2.3239999 -1.771 11
7.2480001 2.464 -1.768 10
7.7340002 2.6059999 -1.753 10
8.3009996 2.773 -1.739 11
6.02 2.063 -1.78 19
6.3940001 2.168 -1.774 22
6.8150001 2.2880001 -1.7690001 11
7.2740002 2.418 -1.761 11
7.789 2.5669999 -1.751 11
8.3730001 2.7349999 -1.739 11
6.085 2.039 -1.786 18
6.4320002 2.132 -1.771 22
6.8649998 2.253 -1.768 12
7.3520002 2.3889999 -1.765 10
7.8569999 2.53 -1.751 11
8.4329996 2.691 -1.7359999 11
6.1300001 2.006 -1.785 10
6.4819999 2.099 -1.771 21
6.8839998 2.2060001 -1.7589999 23
7.4039998 2.3499999 -1.762 10
7.9180002 2.4890001 -1.749 11
8.5080004 2.651 -1.735 11
6.1750002 1.973 -1.784 10
6.5370002 2.066 -1.772 23
6.954 2.175 -1.761 23
7.4499998 2.3080001 -1.757 12
7.987 2.4519999 -1.747 11
8.5889997 2.6129999 -1.733 11
6.2290001 1.943 -1.785 10
6.6100001 2.04 -1.775 10
7.0229998 2.145 -1.763 22
7.5100002 2.2709999 -1.755 12
8.0609999 2.414 -1.7460001 11
8.6730003 2.5739999 -1.732 11
6.2740002 1.909 -1.7819999 11
6.6500001 2.0009999 -1.77 10
7.0749998 2.1070001 -1.7589999 25
7.5209999 2.217 -1.739 37
8.1350002 2.3759999 -1.743 11
8.7580004 2.5339999 -1.729 12
6.3189998 1.874 -1.778 19
6.7049999 1.9680001 -1.768 10
7.171 2.082 -1.765 21
7.6300001 2.194 -1.7460001 40
8.2130003 2.3380001 -1.74 11
8.8500004 2.497 -1.727 11
6.3730001 1.8430001 -1.777 19
6.7750001 1.938 -1.7690001 11
7.25 2.052 -1.766 12
7.71 2.1600001 -1.745 26
8.2969999 2.302 -1.738 12
8.9490004 2.46 -1.724 11
6.4390001 1.814 -1.777 18
6.8210001 1.9 -1.762 19
7.3280001 2.02 -1.765 10
7.8119998 2.132 -1.748 23
8.3780003 2.2639999 -1.733 19
9.0609999 2.4260001 -1.723 12
6.507 1.785 -1.778 18
6.9000001 1.872 -1.7640001 23
7.408 1.988 -1.7640001 10
7.9169998 2.1029999 -1.75 24
8.4980001 2.2349999 -1.735 23
9.1809998 2.391 -1.722 12
6.5799999 1.756 -1.778 17
6.9720001 1.84 -1.762 22
7.4590001 1.947 -1.756 11
8.0019999 2.0680001 -1.747 11
8.6049995 2.201 -1.734 20
9.2989998 2.3559999 -1.7180001 12
6.6459999 1.726 -1.776 11
7.053 1.8099999 -1.761 21
7.5320001 1.9119999 -1.751 23
8.0959997 2.0339999 -1.744 11
8.7189999 2.1689999 -1.732 22
9.3979998 2.3150001 -1.711 14
6.7210002 1.696 -1.776 12
7.132 1.78 -1.76 21
7.632 1.883 -1.752 23
8.2019997 2.003 -1.743 11
8.8540001 2.1400001 -1.733 22
9.5459995 2.2850001 -1.71 23
6.7969999 1.666 -1.774 12
7.244 1.755 -1.765 13
7.7319999 1.853 -1.751 22
8.3079996 1.97 -1.74 12
8.9910002 2.1099999 -1.733 13
9.7340002 2.2620001 -1.715 36
6.8699999 1.635 -1.771 11
7.3449998 1.729 -1.766 10
7.8309999 1.823 -1.749 23
8.3929996 1.932 -1.732 20
9.0860004 2.0699999 -1.723 11
9.8409996 2.22 -1.704 32
6.9530001 1.6059999 -1.7690001 12
7.4400001 1.699 -1.7640001 10
7.9520001 1.795 -1.75 21
8.5360003 1.906 -1.734 27
9.2250004 2.0380001 -1.72 11
10.043 2.197 -1.7079999 23
7.0469999 1.579 -1.77 13
7.5409999 1.669 -1.763 10
8.0749998 1.767 -1.75 11
8.6949997 1.882 -1.738 23
9.3900003 2.01 -1.72 12
10.237 2.1700001 -1.707 18
7.145 1.551 -1.7690001 11
7.6469998 1.64 -1.762 10
8.1999998 1.739 -1.749 12
8.8260002 1.85 -1.734 21
9.5209999 1.974 -1.7130001 18
10.407 2.1359999 -1.701 13
7.2490001 1.524 -1.7690001 12
7.75 1.609 -1.758 10
8.3520002 1.714 -1.753 16
8.9890003 1.824 -1.7359999 20
9.7250004 1.952 -1.716 22
10.594 2.1040001 -1.696 11
7.3759999 1.5 -1.773 10
7.8740001 1.582 -1.758 11
8.4720001 1.682 -1.748 19
9.1289997 1.7920001 -1.73 14
9.934 1.929 -1.7180001 27
10.807 2.076 -1.692 11
7.4689999 1.469 -1.768 12
7.9879999 1.552 -1.7539999 11
8.5839996 1.648 -1.74 11
9.2559996 1.756 -1.721 14
10.12 1.898 -1.714 27
11.024 2.046 -1.687 12
7.5669999 1.438 -1.763 12
8.118 1.523 -1.752 11
8.7440004 1.6210001 -1.739 12
9.4560003 1.732 -1.723 13
10.304 1.8660001 -1.7079999 19
11.231 2.0120001 -1.678 17
7.7179999 1.415 -1.768 11
8.2449999 1.493 -1.747 10
8.8959999 1.591 -1.735 12
9.7410002 1.721 -1.738 25
10.508 1.836 -1.702 18
11.553 1.995 -1.682 30
7.8470001 1.388 -1.766 11
8.382 1.4630001 -1.744 11
9.0860004 1.566 -1.737 29
9.8070002 1.67 -1.712 14
10.766 1.812 -1.702 15
11.825 1.9680001 -1.677 41
7.961 1.3559999 -1.76 11
8.5200005 1.433 -1.738 25
9.2360001 1.534 -1.73 13
10.017 1.643 -1.709 13
11.002 1.784 -1.697 30
12.142 1.946 -1.675 31
8.0939999 1.3279999 -1.756 11
8.6829996 1.406 -1.737 19
9.4320002 1.507 -1.728 12
10.298 1.625 -1.716 27
11.23 1.751 -1.687 12
12.446 1.918 -1.6670001 32
8.2480001 1.301 -1.755 11
8.8660002 1.38 -1.737 11
9.6429996 1.4809999 -1.727 16
10.488 1.591 -1.705 21
11.511 1.725 -1.682 13
12.799 1.896 -1.663 20
8.4230003 1.276 -1.756 19
9.0349998 1.351 -1.732 11
9.8319998 1.45 -1.72 29
10.729 1.563 -1.699 13
11.819 1.7 -1.678 12
13.124 1.865 -1.651 12
8.5799999 1.248 -1.752 17
9.2019997 1.3200001 -1.724 24
10.081 1.426 -1.721 15
10.985 1.534 -1.694 14
12.127 1.673 -1.671 11
13.522 1.842 -1.643 11
8.7220001 1.215 -1.743 10
9.441 1.2970001 -1.728 13
10.293 1.395 -1.712 13
11.235 1.502 -1.683 14
12.476 1.647 -1.665 11
13.928 1.8150001 -1.632 11
8.9130001 1.188 -1.7410001 11
9.684 1.273 -1.729 14
10.505 1.362 -1.701 16
11.582 1.4809999 -1.684 12
12.851 1.622 -1.659 12
14.365 1.789 -1.62 12
9.1309996 1.163 -1.742 28
9.8640003 1.239 -1.716 11
10.893 1.349 -1.715 27
11.903 1.454 -1.677 11
13.264 1.598 -1.652 12
14.823 1.763 -1.6059999 11
9.3050003 1.132 -1.733 14
10.119 1.212 -1.715 11
11.092 1.3099999 -1.696 14
12.267 1.428 -1.673 11
13.675 1.5700001 -1.641 12
15.37 1.742 -1.596 11
9.5430002 1.1059999 -1.732 11
10.373 1.184 -1.71 29
11.405 1.283 -1.6900001 12
12.653 1.403 -1.6670001 11
14.146 1.546 -1.632 12
15.725 1.6950001 -1.5599999 26
9.7390003 1.073 -1.722 12
10.672 1.159 -1.7079999 13
11.741 1.256 -1.6849999 11
13.061 1.376 -1.659 11
14.618 1.518 -1.618 12
16.354 1.675 -1.546 46
9.967 1.043 -1.714 15
10.929 1.126 -1.697 11
12.094 1.227 -1.678 11
13.491 1.348 -1.65 11
15.341 1.511 -1.625 50
17.228001 1.6720001 -1.546 82
10.329 1.025 -1.726 25
11.212 1.095 -1.687 14
12.474 1.199 -1.67 10
13.938 1.319 -1.637 11
0 0 0 0
17.989 1.651 -1.527 70
10.549 0.99000001 -1.711 12
11.584 1.069 -1.6849999 11
12.899 1.1720001 -1.664 11
14.47 1.293 -1.628 11
16.371 1.4400001 -1.575 77
18.701 1.6210001 -1.4960001 63
10.849 0.96100003 -1.705 11
11.959 1.0420001 -1.681 11
13.342 1.143 -1.655 11
15.096 1.272 -1.624 23
17.042999 1.413 -1.5549999 88
19.629999 1.601 -1.472 63
11.101 0.92500001 -1.689 18
12.344 1.011 -1.6720001 11
13.822 1.113 -1.6440001 10
15.579 1.234 -1.598 9
17.833 1.3890001 -1.5369999 85
20.570999 1.576 -1.438 48
11.528 0.90200001 -1.694 11
12.761 0.98100001 -1.663 11
14.323 1.082 -1.63 11
16.214001 1.204 -1.58 9
18.593 1.357 -1.508 72
22.138 1.5880001 -1.4349999 17
11.913 0.87199998 -1.689 11
13.229 0.95099998 -1.655 11
14.899 1.051 -1.618 11
16.910999 1.1720001 -1.559 10
19.773001 1.347 -1.501 65
23.797001 1.5930001 -1.419 17
12.296 0.84100002 -1.679 11
13.714 0.92000002 -1.645 11
15.474 1.018 -1.6 11
17.677 1.141 -1.538 11
20.707001 1.312 -1.4630001 15
25.586 1.592 -1.391 11
12.738 0.80900002 -1.671 11
14.266 0.88800001 -1.635 11
16.163 0.986 -1.585 9
18.579 1.113 -1.517 12
22.091999 1.298 -1.443 17
27.620001 1.592 -1.355 7
13.194 0.77600002 -1.661 10
14.816 0.85399997 -1.619 11
16.855 0.95200002 -1.564 10
19.573999 1.084 -1.495 14
23.802 1.291 -1.428 19
30.358999 1.615 -1.327 5
13.697 0.74299997 -1.651 10
15.453 0.81999999 -1.605 10
17.625999 0.91500002 -1.54 11
20.735001 1.054 -1.47 15
25.615 1.276 -1.397 11
33.84 1.65 -1.294 4
14.266 0.70899999 -1.641 10
16.104 0.78299999 -1.585 9
18.579 0.88300002 -1.522 12
22.110001 1.028 -1.448 17
27.68 1.258 -1.358 7
37.414001 1.663 -1.225 41
14.936 0.676 -1.635 18
16.652 0.736 -1.546 25
19.605 0.847 -1.497 14
23.76 1.002 -1.423 15
30.437 1.2539999 -1.323 5
37.532001 1.51 -1.018 50
15.578 0.63800001 -1.618 60
17.737 0.708 -1.548 96
20.693001 0.80500001 -1.464 16
25.766001 0.97899997 -1.399 12
33.498001 1.24 -1.267 3
37.313 1.347 -0.80000001 72
16.281 0.597 -1.598 64
18.504999 0.66100001 -1.51 69
22.23 0.773 -1.446 17
28.007999 0.94800001 -1.3609999 8
37.442001 1.234 -1.204 49
37.375999 1.2 -0.58999997 39
16.909 0.55000001 -1.564 58
19.502001 0.61699998 -1.4809999 60
24.056999 0.74000001 -1.4299999 14
30.785 0.92000002 -1.321 5
37.403 1.085 -0.98799998 73
40.530998 1.143 -0.40700001 60
17.746 0.50599998 -1.54 62
20.666 0.57099998 -1.45 52
26.111 0.699 -1.399 9
0 0 0 0
37.365002 0.93900001 -0.76999998 85
40.938999 0.99699998 -0.171 45
18.729 0.461 -1.516 76
22.368 0.53200001 -1.4400001 18
28.33 0.65100002 -1.3559999 7
37.513 0.83200002 -1.174 49
37.452 0.801 -0.55400002 43
38.432999 0.79400003 0.063000001 1
19.799999 0.412 -1.488 84
24.261999 0.48500001 -1.42 14
31.320999 0.60299999 -1.3150001 4
37.441002 0.69099998 -0.94999999 74
40.993 0.72600001 -0.36199999 53
41.291 0.70200002 0.31600001 51
21.232 0.36199999 -1.469 16
26.35 0.42899999 -1.385 10
37.382999 0.58099997 -1.345 13
37.407001 0.55500001 -0.72600001 78
41.262001 0.58399999 -0.117 58
41.615002 0.56 0.56999999 18
22.973 0.30700001 -1.452 18
28.677 0.36300001 -1.335 7
37.591999 0.45100001 -1.127 50
37.555 0.42500001 -0.50199997 26
41.625 0.44400001 0.134 52
49.987999 0.50199997 0.98799998 55
24.914 0.24600001 -1.426 13
32.001999 0.294 -1.299 4
37.601002 0.322 -0.89999998 58
41.846001 0.331 -0.30599999 4
49.942001 0.36500001 0.463 65
50.363998 0.33700001 1.307 66
27.261 0.17399999 -1.393 10
37.527 0.21699999 -1.294 30
37.577 0.19499999 -0.66900003 50
50.278999 0.23100001 -0.057999998 73
50.157001 0.20200001 0.77600002 73
50.960999 0.176 1.638 69
29.875 0.090999998 -1.345 6
37.609001 0.093999997 -1.067 67
37.842999 0.072999999 -0.44100001 2
50.318001 0.071000002 0.25 71
50.554001 0.044 1.096 70
52.284 0.018999999 2.0050001 17
33.547001 -0.0049999999 -1.303 1
37.563 -0.025 -0.833 76
44.087002 -0.052000001 -0.241 3
50.442001 -0.085000001 0.56699997 57
51.205002 -0.111 1.4299999 57
128.19701 -0.34299999 5.73 16
37.657001 -0.123 -1.23 40
37.581001 -0.141 -0.59899998 50
43.238998 -0.183 0.032000002 11
50.806 -0.23899999 0.89200002 69
52.562 -0.27200001 1.804 3
127.839 -0.72000003 6.5370002 32
37.682999 -0.23800001 -0.99400002 69
40.346001 -0.273 -0.38800001 3
43.07 -0.31 0.30700001 28
51.604 -0.39399999 1.234 62
128.119 -1.029 5.2150002 12
109.462 -0.92400002 6.2989998 9
37.662998 -0.34900001 -0.75300002 69
42.509998 -0.41100001 -0.13699999 56
43.32 -0.435 0.58499998 1
0 0 0 0
127.696 -1.382 6.0279999 41
112.365 -1.258 7.2030001 16
37.990002 -0.45899999 -0.51899999 18
42.403999 -0.528 0.132 63
52.085999 -0.66799998 1.041 34
129.265 -1.702 4.7639999 9
128.312 -1.7309999 6.8930001 19
91.184998 -1.26 6.4439998 32
42.278 -0.62699997 -0.30500001 63
42.577999 -0.64499998 0.40900001 65
62.650002 -0.96799999 1.655 13
128.011 -2.0190001 5.552 16
129.314 -2.0780001 7.8010001 12
90.989998 -1.487 7.0320001 45
42.136002 -0.736 -0.030999999 61
42.888 -0.75999999 0.69 32
128.256 -2.3069999 4.2259998 70
128.073 -2.335 6.3850002 16
90.601997 -1.675 6.0570002 6
91.634003 -1.717 7.6890001 33
42.171001 -0.84200001 0.23999999 63
62.382999 -1.258 1.406 47
109.347 -2.233 4.3210001 7
100.611 -2.0769999 5.6849999 7
91.271004 -1.903 6.7129998 34
98.356003 -2.0699999 8.9130001 17
42.431999 -0.949 0.51700002 60
128.40199 -2.8940001 3.733 50
94.581001 -2.1489999 4.355 5
91.211998 -2.0880001 5.7540002 32
91.012001 -2.098 7.2930002 48
97.245003 -2.2579999 9.4619999 17
42.769001 -1.054 0.801 30
104.28 -2.5880001 3.7260001 150
0 0 0 0
91.936996 -2.3069999 6.4190001 41
