# .PCD v0.7 - Point Cloud Data file format
VERSION 0.7
FIELDS x y z intensity
SIZE 4 4 4 4
TYPE F F F F
COUNT 1 1 1 1
WIDTH 1741
HEIGHT 1
VIEWPOINT 0 0 0 1 0 0 0
POINTS 1741
DATA ascii
5.4190001 -1.521 -1.9299999 10
4.1030002 -1.196 -1.933 9
4.3439999 -1.253 -1.933 11
4.6030002 -1.316 -1.932 10
4.8940001 -1.388 -1.936 10
5.198 -1.4630001 -1.933 11
5.5380001 -1.549 -1.932 10
4.1729999 -1.21 -1.931 9
4.4320002 -1.273 -1.937 10
4.6939998 -1.336 -1.934 10
4.993 -1.41 -1.937 11
5.2940001 -1.484 -1.9299999 10
5.6669998 -1.5779999 -1.937 10
4.2540002 -1.227 -1.933 10
4.5050001 -1.2869999 -1.932 10
4.7870002 -1.3559999 -1.9349999 10
5.0970001 -1.432 -1.939 11
5.4229999 -1.513 -1.937 10
5.7870002 -1.604 -1.936 10
4.3400002 -1.245 -1.936 9
4.5869999 -1.304 -1.9299999 10
4.8959999 -1.38 -1.941 11
5.198 -1.4529999 -1.937 11
5.5539999 -1.5420001 -1.942 11
5.915 -1.631 -1.936 10
4.4239998 -1.261 -1.937 9
4.6789999 -1.322 -1.932 10
4.9819999 -1.396 -1.936 11
5.2930002 -1.472 -1.933 11
5.665 -1.564 -1.939 9
6.0650001 -1.664 -1.942 9
4.507 -1.277 -1.936 9
4.7820001 -1.3430001 -1.936 12
5.0949998 -1.419 -1.9400001 11
5.4180002 -1.497 -1.937 9
5.8000002 -1.592 -1.942 10
6.1999998 -1.691 -1.9400001 10
4.5929999 -1.293 -1.9349999 10
4.882 -1.362 -1.937 11
5.184 -1.4349999 -1.934 11
5.5479999 -1.524 -1.942 10
5.934 -1.619 -1.944 10
6.3509998 -1.722 -1.941 11
4.6830001 -1.309 -1.9349999 10
4.98 -1.38 -1.937 11
5.2950001 -1.455 -1.9349999 11
5.6700001 -1.5470001 -1.942 10
6.0679998 -1.6440001 -1.943 10
6.5040002 -1.752 -1.942 10
4.7779999 -1.325 -1.9349999 10
5.085 -1.399 -1.937 10
5.421 -1.479 -1.939 11
5.7979999 -1.571 -1.942 10
6.2179999 -1.673 -1.9450001 10
6.6589999 -1.7819999 -1.9400001 10
4.875 -1.342 -1.9349999 10
5.1890001 -1.4170001 -1.936 11
5.5419998 -1.501 -1.9400001 9
5.9310002 -1.595 -1.943 10
6.3569999 -1.698 -1.943 10
6.829 -1.813 -1.941 10
4.9899998 -1.362 -1.9400001 10
5.2969999 -1.434 -1.9349999 11
5.671 -1.524 -1.941 10
6.0689998 -1.619 -1.942 10
6.5159998 -1.727 -1.944 10
7.0440001 -1.8559999 -1.952 9
5.0949998 -1.3789999 -1.939 9
5.4180002 -1.454 -1.936 11
5.8000002 -1.545 -1.941 10
6.223 -1.646 -1.946 11
6.6810002 -1.756 -1.944 11
7.2319999 -1.89 -1.952 9
5.204 -1.396 -1.939 10
5.5500002 -1.477 -1.9400001 10
5.9330001 -1.567 -1.941 11
6.375 -1.6720001 -1.946 10
6.8540001 -1.786 -1.9450001 10
7.4180002 -1.9220001 -1.95 9
5.322 -1.415 -1.941 10
5.6760001 -1.4960001 -1.9400001 10
6.072 -1.589 -1.9400001 10
6.5279999 -1.697 -1.944 10
7.0560002 -1.823 -1.951 9
7.6170001 -1.956 -1.948 10
5.4359999 -1.431 -1.939 10
5.8109999 -1.517 -1.941 10
6.2360001 -1.6160001 -1.946 10
6.6880002 -1.722 -1.943 10
7.2360001 -1.851 -1.949 9
7.8340001 -1.993 -1.949 10
5.5749998 -1.452 -1.9450001 9
5.9419999 -1.536 -1.9400001 10
6.382 -1.638 -1.943 10
6.8769999 -1.752 -1.947 11
7.4239998 -1.88 -1.947 9
8.066 -2.0320001 -1.949 10
5.698 -1.4680001 -1.943 10
6.0819998 -1.5549999 -1.939 10
6.5380001 -1.66 -1.942 11
7.0710001 -1.783 -1.951 9
7.6469998 -1.9170001 -1.951 10
8.3000002 -2.069 -1.948 10
5.8369999 -1.487 -1.944 10
6.2379999 -1.577 -1.941 10
6.711 -1.6849999 -1.944 11
7.2620001 -1.811 -1.951 10
7.8709998 -1.952 -1.952 10
8.5579996 -2.1099999 -1.949 10
5.9689999 -1.503 -1.942 10
6.3920002 -1.598 -1.9400001 10
6.8920002 -1.711 -1.946 10
7.4580002 -1.839 -1.949 10
8.085 -1.982 -1.948 10
8.8330002 -2.1530001 -1.95 11
6.1160002 -1.522 -1.943 10
6.5510001 -1.618 -1.9400001 11
7.105 -1.742 -1.9529999 10
7.678 -1.8710001 -1.952 11
8.3179998 -2.0150001 -1.9450001 10
9.118 -2.1960001 -1.95 11
6.2690001 -1.541 -1.944 10
6.7129998 -1.637 -1.938 10
7.2909999 -1.766 -1.952 10
7.8829999 -1.897 -1.948 11
8.5799999 -2.053 -1.947 10
9.4110003 -2.24 -1.95 10
6.4320002 -1.5599999 -1.946 11
6.9359999 -1.67 -1.951 9
7.4860001 -1.79 -1.95 10
8.1029997 -1.925 -1.9450001 10
8.8559999 -2.092 -1.949 11
9.7390003 -2.2880001 -1.951 11
6.5739999 -1.573 -1.9400001 10
7.1129999 -1.689 -1.949 9
7.7010002 -1.817 -1.951 11
8.349 -1.957 -1.946 11
9.1309996 -2.128 -1.947 11
10.073 -2.335 -1.951 11
6.757 -1.594 -1.944 10
7.309 -1.712 -1.95 10
7.9099998 -1.84 -1.948 10
8.6129999 -1.9910001 -1.948 11
9.4469995 -2.171 -1.95 10
10.438 -2.385 -1.951 11
6.9660001 -1.62 -1.9529999 9
7.5029998 -1.732 -1.948 10
8.1350002 -1.865 -1.946 11
8.8789997 -2.0220001 -1.947 11
9.7639999 -2.211 -1.949 11
10.818 -2.4360001 -1.951 11
7.1599998 -1.64 -1.955 10
7.7080002 -1.752 -1.946 10
8.3800001 -1.892 -1.946 11
9.1669998 -2.0569999 -1.948 10
10.112 -2.2550001 -1.951 11
11.22 -2.4879999 -1.949 11
7.3429999 -1.655 -1.952 10
7.9229999 -1.773 -1.9450001 10
8.6400003 -1.92 -1.948 11
9.474 -2.092 -1.949 11
10.455 -2.2950001 -1.948 11
11.661 -2.546 -1.95 10
7.5339999 -1.671 -1.949 10
8.1540003 -1.795 -1.9450001 11
8.8990002 -1.9450001 -1.946 11
9.7910004 -2.1270001 -1.949 11
10.848 -2.3429999 -1.95 11
12.128 -2.605 -1.95 11
7.744 -1.688 -1.949 10
8.3850002 -1.8150001 -1.942 11
9.191 -1.976 -1.948 11
10.128 -2.1630001 -1.949 11
11.244 -2.388 -1.949 11
12.64 -2.6689999 -1.952 10
7.967 -1.706 -1.95 10
8.6490002 -1.839 -1.944 11
9.4879999 -2.0039999 -1.948 10
10.486 -2.2 -1.95 12
11.662 -2.4330001 -1.947 10
13.2 -2.7379999 -1.955 11
8.1879997 -1.722 -1.948 11
8.9189997 -1.862 -1.9450001 11
9.8009996 -2.0320001 -1.947 11
10.857 -2.2360001 -1.948 11
12.139 -2.4849999 -1.949 12
13.832 -2.816 -1.962 11
8.4250002 -1.738 -1.946 11
9.1940002 -1.883 -1.944 12
10.141 -2.062 -1.948 11
11.249 -2.273 -1.946 12
12.67 -2.5439999 -1.954 11
14.508 -2.8970001 -1.9680001 11
8.6829996 -1.756 -1.946 11
9.5019999 -1.9069999 -1.9450001 11
10.488 -2.0899999 -1.946 12
11.706 -2.3180001 -1.95 12
13.205 -2.599 -1.9529999 11
15.241 -2.983 -1.973 10
8.9519997 -1.773 -1.947 11
9.8109999 -1.929 -1.9450001 11
10.856 -2.1199999 -1.946 12
12.138 -2.355 -1.947 13
13.824 -2.6659999 -1.961 11
16.018 -3.0710001 -1.978 9
9.224 -1.789 -1.947 11
10.133 -1.95 -1.9450001 11
11.256 -2.151 -1.947 12
12.646 -2.401 -1.951 11
14.508 -2.737 -1.97 11
16.912001 -3.1730001 -1.988 11
9.5159998 -1.8049999 -1.948 11
10.482 -1.974 -1.946 11
11.673 -2.1819999 -1.947 12
13.188 -2.448 -1.954 11
15.204 -2.8050001 -1.973 9
17.834999 -3.2709999 -1.99 12
9.8319998 -1.822 -1.949 11
10.832 -1.993 -1.943 13
12.117 -2.2130001 -1.947 13
13.781 -2.5 -1.959 11
15.987 -2.882 -1.9809999 9
18.877001 -3.3829999 -1.998 13
10.158 -1.8380001 -1.95 11
11.224 -2.0150001 -1.944 11
12.604 -2.247 -1.949 12
14.414 -2.552 -1.964 11
16.837 -2.961 -1.988 10
20.011 -3.4990001 -2.003 15
10.479 -1.85 -1.947 11
11.639 -2.0380001 -1.9450001 11
13.125 -2.2809999 -1.951 12
15.116 -2.608 -1.97 9
17.718 -3.0380001 -1.99 12
21.223 -3.6159999 -2.003 16
10.841 -1.864 -1.948 12
12.06 -2.0569999 -1.943 14
13.719 -2.323 -1.959 12
15.881 -2.6700001 -1.979 9
18.702999 -3.1229999 -1.994 13
22.466999 -3.7290001 -1.9960001 18
11.205 -1.875 -1.946 11
12.529 -2.0799999 -1.9450001 13
14.321 -2.3599999 -1.9630001 12
16.649 -2.723 -1.98 10
19.833 -3.221 -2.0039999 14
23.893999 -3.8559999 -1.9910001 16
11.611 -1.8890001 -1.948 13
13.024 -2.102 -1.947 12
14.99 -2.4000001 -1.969 11
17.504999 -2.7820001 -1.985 11
20.968 -3.3099999 -2.0039999 16
25.382 -3.98 -1.978 5
12.033 -1.901 -1.949 12
13.565 -2.125 -1.95 11
15.727 -2.444 -1.977 9
18.528 -2.8570001 -1.998 13
22.164 -3.3940001 -1.998 18
27.687 -4.21 -2.0079999 7
12.459 -1.908 -1.946 13
14.165 -2.151 -1.957 12
16.485001 -2.483 -1.9809999 10
19.539 -2.921 -2.0020001 14
23.489 -3.4849999 -1.9910001 20
27.531 -4.0570002 -1.853 31
12.936 -1.918 -1.949 12
14.797 -2.175 -1.962 11
17.296 -2.5209999 -1.985 11
20.667 -2.9879999 -2.006 15
25.179001 -3.6129999 -2.0009999 15
26.038 -3.7090001 -1.615 61
13.477 -1.931 -1.955 13
15.483 -2.198 -1.9680001 9
18.205999 -2.563 -1.9910001 12
21.684 -3.0280001 -1.99 17
25.841999 -3.5810001 -1.92 24
25.643999 -3.526 -1.459 58
14.037 -1.941 -1.959 12
16.215 -2.2219999 -1.975 10
19.233 -2.6110001 -2.0020001 13
22.983999 -3.095 -1.99 19
26.051001 -3.4790001 -1.802 61
25.827 -3.4230001 -1.34 60
14.623 -1.947 -1.962 11
16.959999 -2.237 -1.976 10
20.223 -2.6440001 -2.0009999 15
24.419001 -3.165 -1.9910001 21
25.573 -3.2880001 -1.642 29
0 0 0 0
15.283 -1.957 -1.971 8
17.782 -2.2550001 -1.98 11
21.284 -2.675 -1.999 17
25.506001 -3.1760001 -1.952 21
25.688999 -3.1719999 -1.523 72
27.313999 -3.3429999 -1.15 21
15.958 -1.96 -1.976 9
18.711 -2.276 -1.99 13
22.327999 -2.6900001 -1.985 18
25.775999 -3.076 -1.846 41
25.753 -3.0450001 -1.402 67
28.684999 -3.3629999 -1.071 52
16.679001 -1.961 -1.9809999 10
19.716 -2.2939999 -1.998 14
23.636999 -2.7219999 -1.985 20
25.797001 -2.9430001 -1.723 73
25.976 -2.9349999 -1.29 46
27.098 -3.0339999 -0.884 34
17.423 -1.955 -1.982 11
20.663 -2.2920001 -1.9910001 16
25.145 -2.7609999 -1.99 19
25.834 -2.8080001 -1.602 79
28.174999 -3.033 -1.267 122
0 0 0 0
18.284 -1.952 -1.9910001 12
21.664 -2.2880001 -1.985 17
25.851 -2.7 -1.925 21
25.871 -2.6730001 -1.485 83
30.471001 -3.115 -1.23 34
34.471001 -3.4879999 -0.80900002 6
19.212 -1.946 -1.999 14
22.719999 -2.2750001 -1.975 19
26.063 -2.579 -1.8200001 56
25.951 -2.54 -1.3710001 82
33.279999 -3.2219999 -1.1950001 43
64.490997 -6.1750002 -1.228 26
20.143 -1.929 -2.003 15
24.002001 -2.27 -1.976 17
26.037001 -2.434 -1.701 73
26.495001 -2.447 -1.2819999 47
34.313 -3.1329999 -1.082 21
36.637001 -3.3069999 -0.54000002 33
21.042999 -1.898 -1.9960001 16
25.438 -2.2650001 -1.9809999 19
26.061001 -2.29 -1.587 75
27.466 -2.3829999 -1.209 27
36.925999 -3.164 -1.005 8
37.078999 -3.1400001 -0.389 17
22.030001 -1.862 -1.9910001 18
26.059 -2.1730001 -1.915 24
26.103001 -2.1470001 -1.477 85
30.431999 -2.47 -1.21 1
36.313999 -2.9089999 -0.83600003 3
72.677002 -5.7490001 -0.463 33
23.111 -1.823 -1.989 19
26.327 -2.0469999 -1.822 43
26.183001 -2.0050001 -1.3710001 76
31.459999 -2.375 -1.12 1
37.865002 -2.8180001 -0.71700001 56
38.02 -2.79 -0.086999997 4
24.174999 -1.767 -1.978 13
26.370001 -1.897 -1.714 77
26.416 -1.8710001 -1.274 61
36.139999 -2.5209999 -1.141 51
37.673 -2.5869999 -0.56199998 150
37.591999 -2.543 0.061000001 1
21.844999 -1.47 -1.696 2
21.750999 -1.439 -1.325 69
0 0 0 0
37.738998 -2.414 -1.0420001 14
70.490997 -4.434 -0.77700001 3
84.000999 -5.1989999 0.46000001 14
21.718 -1.335 -1.599 23
21.618999 -1.3049999 -1.232 58
27 -1.599 -1.089 0
38.949001 -2.263 -0.92500001 55
39.125999 -2.233 -0.28299999 14
81.538002 -4.5679998 0.75400001 6
21.518 -1.1950001 -1.499 68
21.608999 -1.175 -1.147 24
30.514999 -1.626 -1.114 27
39.263 -2.049 -0.78399998 9
39.573002 -2.0239999 -0.139 40
64.810997 -3.25 0.83600003 11
21.4 -1.062 -1.41 51
26.603001 -1.29 -1.312 75
33.250999 -1.574 -1.091 10
39.59 -1.832 -0.64700001 2
92.457001 -4.1810002 0.0060000001 19
64.283997 -2.842 1.057 40
21.099001 -0.91799998 -1.311 69
26.914 -1.142 -1.229 86
38.905998 -1.609 -1.136 45
59.208 -2.3840001 -0.75700003 82
59.137001 -2.3180001 0.213 66
59.091999 -2.2539999 1.179 59
21.000999 -0.78600001 -1.229 74
27.711 -1.006 -1.166 56
40.009998 -1.411 -1.028 7
40.471001 -1.383 -0.377 80
87.737 -2.905 0.616 19
64.938004 -2.0840001 1.5140001 44
21.329 -0.66799998 -1.173 56
29.184 -0.88200003 -1.127 38
40.757 -1.189 -0.90899998 30
40.863998 -1.148 -0.244 10
69.031998 -1.868 0.71100003 6
65.024002 -1.691 1.728 33
21.9 -0.55199999 -1.131 18
32.970001 -0.79500002 -1.165 65
40.812 -0.94 -0.77600002 1
88.595001 -1.9450001 -0.242 14
69.047997 -1.442 0.93400002 36
65.156998 -1.291 1.9400001 36
22.341999 -0.42300001 -1.08 1
33.886002 -0.60600001 -1.087 47
41.469002 -0.69800001 -0.65600002 43
110.549 -1.742 0.044 24
69.009003 -1.01 1.149 12
64.739998 -0.87900001 2.1270001 7
27.034 -0.34200001 -1.22 64
28.569 -0.33000001 -0.82599998 57
41.75 -0.43700001 -0.52999997 29
95.206001 -0.898 0.331 32
69.758003 -0.57999998 1.373 7
69.530998 -0.50400001 2.493 25
0 0 0 0
28.437 -0.147 -0.73500001 56
42.049999 -0.17399999 -0.40799999 11
0 0 0 0
80.238998 -0.15899999 1.814 26
92.647003 -0.089000002 3.5880001 23
28.354 0.003 -1.107 48
28.443001 0.034000002 -0.65200001 58
84.514 0.192 -0.574 5
86.198997 0.285 0.80199999 47
80.755997 0.354 2.053 30
92.591003 0.505 3.845 27
28.27 0.184 -1.024 53
28.497999 0.21600001 -0.57300001 45
42.738998 0.37 -0.17200001 61
86.407997 0.83700001 1.04 5
94.028999 1.016 2.645 20
92.151001 1.095 4.0739999 23
28.221001 0.366 -0.94400001 59
28.747999 0.40400001 -0.5 3
43.055 0.64899999 -0.059 6
95.941002 1.551 1.408 9
94.915001 1.636 2.9159999 11
92.407997 1.689 4.3210001 21
28.312 0.551 -0.87300003 63
43.036999 0.88200003 -0.63800001 1
0 0 0 0
77.914001 1.7640001 1.34 29
0 0 0 0
0 0 0 0
28.899 0.75300002 -0.81800002 58
57.304001 1.553 -0.70599997 59
78.500999 2.211 0.28600001 3
77.327003 2.2579999 1.517 30
0 0 0 0
0 0 0 0
28.899 0.94499999 -0.74699998 57
29.219 0.98500001 -0.28999999 4
78.519997 2.7309999 0.47099999 6
77.449997 2.776 1.701 29
0 0 0 0
61.823002 2.3469999 3.3310001 7
28.750999 1.131 -0.67799997 74
66.252998 2.678 -0.50599998 64
62.418999 2.5880001 0.51599997 6
62.276001 2.6459999 1.506 38
61.972 2.697 2.4860001 38
62.824001 2.803 3.5220001 5
28.739 1.323 -0.61400002 72
62.363998 2.9349999 -0.34299999 69
113.782 5.4749999 1.182 76
78.560997 3.8659999 2.0669999 31
0 0 0 0
0 0 0 0
28.731001 1.517 -0.55400002 67
92.502998 4.9770002 -0.31799999 11
78.375999 4.2979999 0.97299999 14
121.914 6.8150001 3.45 15
122.415 6.9699998 5.408 29
0 0 0 0
28.9 1.721 -0.5 54
92.708 5.6199999 -0.13699999 21
0 0 0 0
120.924 7.5780001 3.651 20
121.111 7.7199998 5.579 38
0 0 0 0
29.007 1.928 -0.447 25
87.591003 5.9060001 0.030999999 29
123.108 8.4280005 1.99 24
119.603 8.3140001 3.8269999 39
120.23 8.4809999 5.7519999 31
122.955 8.809 7.8330002 20
77.345001 5.6680002 -1.059 13
86.862 6.4530001 0.17900001 15
0 0 0 0
64.144997 4.9000001 2.161 33
63.959999 4.9549999 3.1670001 18
63.902 5.0209999 4.177 21
78.091003 6.2690001 -0.94099998 4
63.910999 5.1900001 0.235 72
63.630001 5.2379999 1.24 74
63.431 5.2849998 2.237 33
63.243 5.3369999 3.23 10
121.641 10.394 8.1400003 37
70.458 6.1440001 -0.741 41
126.378 11.145 0.65700001 37
134.44299 11.992 2.816 42
120.464 10.875 4.4260001 31
121.081 11.06 6.362 35
125.981 11.647 8.6129999 21
66.097 6.2270002 -0.602 78
74.383003 7.0840001 0.491 10
122.173 11.752 2.7279999 38
122.608 11.92 4.6700001 30
122.949 12.079 6.6230001 20
0 0 0 0
72.490997 7.3400002 -0.56599998 56
74.307999 7.5960002 0.58499998 10
121.874 12.579 2.8759999 35
123.806 12.906 4.8699999 35
123.011 12.955 6.7789998 32
68.349998 7.2729998 4.848 6
69.940002 7.5770001 -0.463 47
81.002998 8.8529997 0.73299998 11
121.961 13.444 3.0179999 45
121.442 13.511 4.9159999 11
122.031 13.701 6.8629999 53
65.914001 7.473 4.7470002 11
69.668999 8.0369997 -0.38800001 57
80.681 9.3830004 0.81300002 14
121.823 14.293 3.142 47
122.026 14.435 5.066 29
122.352 14.603 7.006 41
0 0 0 0
65.303001 7.9970002 -0.301 48
65.276001 8.0539999 0.71899998 52
65.164001 8.1029997 1.74 20
65.545998 8.217 2.78 14
65.026001 8.2180004 3.7809999 5
0 0 0 0
73.831001 9.5640001 -0.28 50
0 0 0 0
121.156 15.921 3.335 31
64.529999 8.5450001 2.789 10
0 0 0 0
65.185997 8.7720003 4.8709998 5
22.867001 3.1270001 -0.07 0
133.83701 18.416 1.6799999 10
121.049 16.771 3.4159999 15
0 0 0 0
65.402 9.1949997 3.902 13
63.317001 8.9709997 4.776 7
22.677 3.2620001 -0.055 31
129.68201 18.774 1.707 10
122.816 17.895 3.54 11
0 0 0 0
72.056999 10.642 4.3400002 3
63.667 9.4759998 4.8400002 23
22.351999 3.378 -0.043000001 55
0 0 0 0
126.613 19.364 3.711 21
127.655 19.649 5.744 32
71.839996 11.132 4.362 5
63.459999 9.8999996 4.8530002 22
22.091 3.4979999 -0.035 68
0 0 0 0
126.909 20.323999 3.7679999 34
126.454 20.374001 5.7379999 35
71.492996 11.589 4.368 19
62.195999 10.153 4.7800002 39
21.909 3.6289999 -0.028999999 67
147.27299 24.518999 2.1040001 16
123.964 20.743999 3.7119999 11
0 0 0 0
71.141998 12.042 4.3639998 13
62.662998 10.675 4.8309999 49
21.790001 3.7679999 -0.025 65
124.439 21.615 1.799 44
123.814 21.611 3.7279999 16
130.91901 22.975 5.9949999 13
71.543999 12.628 4.401 23
63.008999 11.187 4.869 37
21.702 3.9100001 -0.024 62
124.352 22.500999 1.801 16
124.044 22.548 3.7390001 28
125.976 23.018 5.7729998 16
71.731003 13.175 4.415 17
62.798 11.605 4.855 44
21.656 4.0599999 -0.026000001 62
123.674 23.283001 1.783 9
126.013 23.830999 3.79 16
125.466 23.844 5.7420001 21
84.108002 16.068001 5.1719999 14
62.800999 12.062 4.8520002 11
21.577999 4.2049999 -0.029999999 64
22.337 4.3699999 0.31799999 2
73.125 14.367 2.1860001 34
115.855 22.868999 5.2820001 18
77.976997 15.466 4.783 19
64.027 12.764 4.9369998 4
21.580999 4.3629999 -0.035999998 64
22.285999 4.5219998 0.31 6
72.958 14.866 2.1589999 16
73.546997 15.056 3.3329999 3
76.892998 15.812 4.6960001 11
69.750999 14.417 5.3600001 30
21.552 4.5170002 -0.045000002 61
22.329 4.697 0.301 3
82.214996 17.361 2.4000001 93
72.059998 15.277 3.237 3
69.283997 14.755 4.2030001 9
70.166 15.013 5.3649998 53
21.513 4.6680002 -0.056000002 68
22.35 4.8639998 0.28999999 4
82.213997 17.962 2.3599999 150
72.704002 15.944 3.2309999 10
69.392998 15.284 4.178 3
69.863998 15.457 5.3099999 16
21.548 4.8340001 -0.07 58
22.257 5.0079999 0.27500001 3
105.432 23.806999 2.96 61
86.738998 19.660999 3.8 5
106.474 24.229 6.3449998 12
68.861 15.744 5.1939998 21
21.540001 4.993 -0.086000003 71
22.403 5.2080002 0.25999999 1
0 0 0 0
104.662 24.495001 4.5120001 15
105.771 24.847 6.2309999 30
70.072998 16.533001 5.2360001 8
21.613001 5.1700001 -0.106 67
40.647999 9.75 0.43799999 61
0 0 0 0
104.586 25.249001 4.4239998 23
72.848 17.653 4.2319999 11
71.915001 17.5 5.316 38
21.686001 5.3499999 -0.127 60
30.896999 7.6420002 0.303 36
0 0 0 0
106.177 26.423 4.3930001 12
72.669998 18.15 4.1550002 12
72.508003 18.181999 5.2950001 14
21.899 5.5669999 -0.153 56
30.077 7.6630001 0.26300001 46
31.055 7.9320002 0.76099998 31
0 0 0 0
113.66 29.216 6.3839998 14
84.904999 21.908001 6.1149998 23
22.077999 5.776 -0.18000001 18
29.614 7.763 0.22400001 51
30.187 7.9330001 0.70499998 39
31.591999 8.3260002 1.239 1
0 0 0 0
85.603996 22.719999 6.072 34
29.188 7.8540001 -0.27599999 55
29.24 7.8829999 0.184 57
29.568001 7.9899998 0.653 48
30.792 8.342 1.168 37
0 0 0 0
86.459999 23.580999 6.027 8
28.912001 7.994 -0.315 55
28.948 8.0170002 0.142 55
29.233999 8.1140003 0.60600001 50
29.799 8.2939997 1.091 44
0 0 0 0
0 0 0 0
28.653 8.1370001 -0.35499999 62
28.66 8.1529999 0.097000003 65
28.913 8.2419996 0.55599999 55
29.382 8.3950005 1.0319999 47
30.534 8.7480001 1.558 36
0 0 0 0
28.48 8.3000002 -0.40000001 50
28.474001 8.3120003 0.050999999 62
28.641001 8.3769999 0.50599998 57
29.017 8.5050001 0.97500002 56
29.856001 8.7749996 1.478 35
0 0 0 0
28.284 8.4549999 -0.447 57
28.266001 8.46 0.0020000001 63
28.43 8.5240002 0.454 59
28.782 8.6470003 0.91900003 53
29.385 8.8509998 1.4069999 42
0 0 0 0
20.615999 6.3179998 -0.36399999 33
28.083 8.6169996 -0.048999999 69
28.204 8.6660004 0.40000001 60
28.518999 8.7810001 0.86000001 51
29.028 8.9589996 1.339 47
30.267 9.3660002 1.881 10
20.214001 6.3449998 -0.39700001 47
20.431 6.4200001 -0.075000003 49
28.007 8.8149996 0.34400001 63
28.275 8.9160004 0.79900002 48
28.745001 9.085 1.273 46
29.781 9.4379997 1.796 34
20.132999 6.4720001 -0.43700001 36
20.174999 6.4899998 -0.115 45
20.586 6.631 0.211 28
28.059 9.0550003 0.73699999 56
17.525 5.6659999 0.74199998 51
29.334 9.5080004 1.714 34
19.877001 6.5370002 -0.47400001 35
19.990999 6.5799999 -0.156 37
20.280001 6.6820002 0.16599999 45
17.434 5.7540002 0.42300001 49
17.422001 5.7610002 0.70200002 62
17.357 5.7540002 0.97899997 49
19.822001 6.6680002 -0.51899999 38
19.768999 6.6529999 -0.199 37
20.014999 6.743 0.119 44
17.326 5.8470001 0.382 58
17.288 5.8449998 0.65899998 74
17.243999 5.8429999 0.93599999 60
17.306 5.9499998 -0.49399999 136
17.292 5.948 -0.215 150
17.271999 5.947 0.063000001 82
17.208 5.9330001 0.34 54
17.184 5.9349999 0.61699998 66
17.153 5.9359999 0.89300001 53
19.361 6.803 -0.60100001 52
19.48 6.8470001 -0.28999999 52
19.66 6.915 0.024 37
17.115999 6.027 0.29800001 4
17.091 6.0279999 0.574 72
17.046 6.0229998 0.84799999 59
19.273001 6.915 -0.64899999 41
19.384001 6.9559999 -0.33899999 47
19.469999 6.9920001 -0.024 45
19.882 7.1479998 0.296 33
16.961 6.1059999 0.528 31
16.941 6.1110001 0.80199999 23
19.249001 7.0500002 -0.69999999 39
19.247999 7.0510001 -0.38800001 49
19.363001 7.0960002 -0.075000003 46
19.834 7.276 0.245 29
20.201 7.421 0.57700002 47
27.771999 10.219 1.2460001 49
19.16 7.1599998 -0.75 46
19.135 7.151 -0.43799999 54
19.311001 7.2179999 -0.127 38
19.573999 7.322 0.189 33
19.955 7.474 0.51800001 42
27.629999 10.366 1.1670001 55
19.045 7.2600002 -0.80199999 45
19.117001 7.2849998 -0.49200001 48
19.194 7.316 -0.18000001 45
19.476 7.4289999 0.134 47
19.802 7.5599999 0.46000001 45
27.504 10.517 1.0880001 50
19.164 7.4460001 -0.86500001 43
19.007999 7.3829999 -0.546 46
19.084999 7.414 -0.235 46
19.475 7.5689998 0.078000002 30
19.813999 7.7080002 0.405 31
20.212 7.8740001 0.74299997 9
19.094999 7.559 -0.92000002 35
18.934 7.493 -0.602 48
19.028999 7.5300002 -0.29100001 48
19.247999 7.619 0.021 31
19.514 7.7309999 0.34099999 37
20.052999 7.954 0.68000001 31
18.844999 7.5999999 -0.96899998 53
18.846001 7.5949998 -0.65700001 45
19.021 7.664 -0.34999999 32
19.082001 7.691 -0.037 46
19.382 7.8169999 0.28099999 35
19.875999 8.026 0.61500001 42
18.754999 7.6999998 -1.026 48
18.881001 7.7449999 -0.72000003 45
18.978001 7.7820001 -0.40900001 39
19.028999 7.8039999 -0.096000001 46
19.341 7.9369998 0.22 32
19.764 8.1199999 0.551 35
18.364 7.6739998 -1.067 45
18.844 7.8670001 -0.78100002 45
18.922001 7.8959999 -0.47099999 43
18.899 7.8860002 -0.156 52
19.254 8.0380001 0.15800001 44
19.537001 8.1639996 0.484 40
17.908001 7.6129999 -1.103 50
18.861 8.0100002 -0.84799999 38
18.916 8.0299997 -0.53500003 37
18.916 8.0290003 -0.22 37
19.094 8.1070004 0.093999997 46
19.441999 8.2609997 0.41800001 43
16.242001 7.0229998 -1.059 26
18.743999 8.0959997 -0.90899998 50
18.825001 8.125 -0.59799999 46
18.868 8.1420002 -0.28400001 41
19.084 8.2370005 0.029999999 32
19.371 8.3669996 0.352 41
15.876 6.98 -1.094 52
18.839001 8.2709999 -0.98100001 47
18.858 8.2729998 -0.66600001 42
19.013 8.3380003 -0.354 30
19.009001 8.3360004 -0.035 36
19.357 8.4940004 0.28600001 30
15.834 7.0749998 -1.151 46
18.663 8.3269997 -1.041 41
18.801001 8.3800001 -0.73199999 45
18.893 8.4169998 -0.41800001 34
18.997999 8.4630003 -0.102 34
19.228001 8.5690002 0.21699999 34
15.785 7.165 -1.2079999 64
17.82 8.0760002 -1.062 47
18.834999 8.526 -0.80400002 32
18.843 8.526 -0.486 44
18.921 8.5600004 -0.171 36
19.212999 8.6940002 0.149 35
15.745 7.2589998 -1.267 52
16.864 7.7610002 -1.0700001 41
18.893999 8.684 -0.87800002 38
18.874001 8.6689997 -0.55800003 32
18.882 8.6709995 -0.23999999 45
19.165001 8.8030005 0.078000002 27
15.757 7.3759999 -1.332 52
15.893 7.4260001 -1.072 45
18.933001 8.8339996 -0.95499998 28
18.851 8.7880001 -0.63099998 31
18.934999 8.823 -0.31299999 45
19.056999 8.882 0.0060000001 41
15.694 7.4559999 -1.391 47
15.668 7.4289999 -1.12 43
18.733999 8.8690004 -1.018 37
18.913 8.9449997 -0.70599997 38
18.989 8.9759998 -0.38600001 37
19.034 8.9960003 -0.064000003 44
15.769 7.6009998 -1.464 38
15.684 7.5440001 -1.186 47
17.990999 8.6400003 -1.051 49
18.896 9.0640001 -0.78100002 38
18.898001 9.059 -0.458 42
19.091999 9.1490002 -0.138 32
15.803 7.7259998 -1.535 46
15.673 7.6440001 -1.25 45
17.009001 8.2810001 -1.064 42
18.968 9.2229996 -0.861 29
18.885 9.1750002 -0.53399998 48
19.08 9.2670002 -0.214 39
15.808 7.836 -1.605 44
15.684 7.756 -1.319 46
15.841 7.8189998 -1.058 49
19.111 9.4189997 -0.94700003 30
19.055 9.3830004 -0.61699998 29
19.204 9.4510002 -0.29300001 28
15.764 7.921 -1.67 40
15.63 7.8330002 -1.382 50
15.596 7.7989998 -1.107 48
18.836 9.4049997 -1.012 45
19.195999 9.5740004 -0.699 25
19.191999 9.566 -0.37 30
15.72 8.0030003 -1.7359999 28
15.567 7.9039998 -1.4450001 47
15.548 7.8769999 -1.1720001 51
17.801001 9.0019999 -1.0319999 48
19.201 9.6990004 -0.78100002 26
19.349001 9.7670002 -0.454 30
15.573 8.0319996 -1.7920001 8
15.642 8.0439997 -1.523 45
15.527 7.9660001 -1.239 51
16.753 8.5790005 -1.043 45
19.568001 10.007 -0.87900001 31
19.530001 9.9799995 -0.54000002 7
15.362 8.0240002 -1.8380001 10
15.677 8.1639996 -1.598 44
15.572 8.0880003 -1.312 45
15.723 8.1499996 -1.049 50
21.462 11.11 -1.058 17
28.194 14.581 -0.90100002 27
14.715 7.7820001 -1.831 10
15.614 8.2299995 -1.664 38
15.539 8.1689997 -1.38 47
15.49 8.1260004 -1.103 51
18.319 9.5959997 -0.98400003 13
21.461 11.229 -0.77999997 0
14.191 7.5960002 -1.834 9
15.585 8.3140001 -1.735 19
15.64 8.3199997 -1.462 42
15.491 8.2209997 -1.174 49
17.738001 9.3979998 -1.033 35
21.444 11.346 -0.87400001 10
13.661 7.3979998 -1.831 8
15.479 8.3529997 -1.795 10
15.745 8.4720001 -1.545 39
15.469 8.3030005 -1.244 46
16.516001 8.849 -1.0369999 47
21.441999 11.472 -0.96899998 13
13.18 7.2199998 -1.832 8
15.109 8.2469997 -1.826 11
15.704 8.5439997 -1.615 42
15.428 8.3730001 -1.312 45
15.653 8.4770002 -1.054 44
21.438999 11.594 -1.066 15
12.712 7.0409999 -1.83 7
14.484 7.9920001 -1.821 10
15.558 8.5559998 -1.675 34
15.481 8.4910002 -1.3890001 44
15.436 8.4469995 -1.11 45
17.979 9.8219995 -0.97500002 8
12.252 6.8600001 -1.825 7
13.949 7.7789998 -1.822 9
15.492 8.6099997 -1.743 18
15.448 8.5609999 -1.46 46
15.506 8.573 -1.188 37
17.563 9.6929998 -1.035 49
11.838 6.698 -1.824 8
13.412 7.5580001 -1.819 8
15.372 8.6309996 -1.804 10
15.49 8.6709995 -1.5369999 46
15.428 8.6149998 -1.255 46
16.368999 9.1219997 -1.039 45
11.447 6.5430002 -1.822 9
12.92 7.3540001 -1.817 8
14.917 8.4580002 -1.824 11
15.514 8.7679996 -1.615 35
15.412 8.6879997 -1.327 46
15.484 8.7110004 -1.056 44
11.09 6.4029999 -1.822 9
12.475 7.1700001 -1.818 7
14.313 8.1940002 -1.821 10
15.521 8.8559999 -1.692 34
15.4 8.7620001 -1.4 50
15.423 8.7559996 -1.126 52
10.703 6.2389998 -1.814 9
12.016 6.9720001 -1.812 8
13.774 7.9590001 -1.822 9
15.418 8.8780003 -1.756 11
15.443 8.8660002 -1.479 49
15.409 8.8260002 -1.197 48
10.381 6.1079998 -1.814 10
11.64 6.8150001 -1.8150001 9
13.243 7.7199998 -1.818 8
15.229 8.8470001 -1.8099999 11
15.459 8.9519997 -1.554 39
15.476 8.9399996 -1.276 37
10.077 5.9819999 -1.814 10
11.248 6.6440001 -1.812 9
12.771 7.5100002 -1.818 8
14.663 8.5900002 -1.816 10
15.527 9.066 -1.638 31
15.417 8.9779997 -1.346 41
9.7959995 5.8660002 -1.8150001 10
10.884 6.4829998 -1.809 8
12.31 7.3000002 -1.814 7
14.113 8.335 -1.816 9
15.46 9.1000004 -1.705 21
15.398 9.0380001 -1.418 47
9.5240002 5.7509999 -1.8150001 10
10.539 6.329 -1.806 9
11.885 7.1040001 -1.813 9
13.56 8.0719995 -1.813 9
15.324 9.0889997 -1.766 11
15.366 9.0869999 -1.49 37
9.2589998 5.6360002 -1.813 11
10.235 6.1960001 -1.807 10
11.506 6.9310002 -1.813 9
13.091 7.8509998 -1.817 8
15.023 8.9770002 -1.806 11
15.406 9.177 -1.5700001 34
9.0080004 5.526 -1.812 12
9.9350004 6.0599999 -1.806 11
11.137 6.7579999 -1.812 9
12.59 7.6059999 -1.812 8
14.452 8.6969995 -1.8099999 10
15.446 9.2650003 -1.649 36
8.776 5.4229999 -1.813 12
9.6619997 5.9349999 -1.808 10
10.774 6.5840001 -1.808 9
12.149 7.3909998 -1.808 7
13.91 8.4280005 -1.8099999 9
15.387 9.2910004 -1.717 21
8.5620003 5.329 -1.814 12
9.4040003 5.8169999 -1.808 11
10.452 6.4299998 -1.808 9
11.76 7.1999998 -1.8099999 7
13.393 8.1660004 -1.8099999 9
15.282 9.2860003 -1.781 12
8.3629999 5.2410002 -1.817 12
9.1370001 5.6890001 -1.804 11
10.148 6.2839999 -1.807 10
11.379 7.0110002 -1.808 9
12.935 7.9349999 -1.812 8
14.867 9.0869999 -1.8049999 11
8.1669998 5.1500001 -1.818 11
8.9110003 5.5840001 -1.807 12
9.8620005 6.1430001 -1.807 11
11.028 6.8340001 -1.809 9
12.471 7.6939998 -1.809 7
14.279 8.776 -1.803 10
7.974 5.0599999 -1.817 11
8.6969995 5.4819999 -1.808 12
9.5900002 6.0089998 -1.806 11
10.688 6.6609998 -1.807 9
12.057 7.4790001 -1.809 7
13.783 8.5159998 -1.808 9
7.7750001 4.961 -1.813 11
8.4779997 5.3740001 -1.807 12
9.3409996 5.8850002 -1.807 11
10.361 6.4920001 -1.803 10
11.657 7.2680001 -1.8049999 9
13.264 8.2360001 -1.8049999 8
7.6069999 4.881 -1.814 12
8.2959995 5.2859998 -1.812 12
9.0979996 5.7600002 -1.807 11
10.085 6.349 -1.806 10
11.312 7.0869999 -1.808 9
12.828 8.0019999 -1.808 8
7.4419999 4.7989998 -1.814 11
8.1059999 5.1900001 -1.812 12
8.8710003 5.6430001 -1.807 12
9.7989998 6.197 -1.803 10
10.958 6.895 -1.806 8
12.386 7.7589998 -1.8049999 7
7.2880001 4.7220001 -1.8150001 11
7.9250002 5.0970001 -1.812 11
8.6630001 5.5349998 -1.808 12
9.5410004 6.0599999 -1.803 10
10.627 6.7140002 -1.803 9
11.962 7.5229998 -1.801 9
7.145 4.6500001 -1.817 11
7.7410002 5 -1.809 11
8.467 5.4320002 -1.809 11
9.3000002 5.9299998 -1.804 12
10.338 6.5549998 -1.804 11
11.604 7.323 -1.802 9
7.0079999 4.579 -1.818 11
7.5679998 4.9070001 -1.807 11
8.2889996 5.3369999 -1.812 12
9.0710001 5.8039999 -1.803 12
10.052 6.3959999 -1.802 10
11.28 7.1420002 -1.806 10
6.8930001 4.5209999 -1.823 11
7.427 4.8330002 -1.811 11
8.1110001 5.2399998 -1.813 12
8.8719997 5.6950002 -1.807 12
9.802 6.2550001 -1.804 10
10.929 6.9390001 -1.801 9
6.7639999 4.4510002 -1.823 11
7.283 4.7529998 -1.811 11
7.9429998 5.1469998 -1.814 11
8.6660004 5.5780001 -1.806 12
9.5559998 6.1149998 -1.804 10
10.629 6.7659998 -1.801 9
6.6469998 4.3870001 -1.825 11
7.1409998 4.6739998 -1.812 11
7.7639999 5.0440001 -1.811 11
8.4940004 5.4809999 -1.811 12
9.3179998 5.9759998 -1.803 11
10.351 6.6030002 -1.802 10
6.5430002 4.329 -1.829 11
7.0170002 4.6040001 -1.8150001 12
7.5929999 4.9439998 -1.808 11
8.3030005 5.369 -1.809 12
9.1000004 5.848 -1.803 12
10.083 6.4439998 -1.802 10
6.427 4.2620001 -1.8279999 10
6.9039998 4.539 -1.818 11
7.4559999 4.8639998 -1.8099999 11
8.1350002 5.2690001 -1.8099999 12
8.8929996 5.724 -1.803 12
9.8280001 6.29 -1.8 11
6.3309999 4.2059999 -1.831 10
6.7870002 4.4699998 -1.819 11
7.3169999 4.7810001 -1.8099999 11
7.9840002 5.178 -1.813 12
8.7180004 5.618 -1.806 12
9.6079998 6.1560001 -1.803 10
6.21 4.132 -1.825 11
6.684 4.408 -1.823 11
7.1919999 4.704 -1.812 11
7.8119998 5.072 -1.8099999 11
8.5439997 5.5110002 -1.808 13
9.3769999 6.0120001 -1.801 11
6.1149998 4.073 -1.826 11
6.585 4.3470001 -1.826 11
7.079 4.6339998 -1.8150001 12
7.6659999 4.98 -1.8099999 11
8.3739996 5.4039998 -1.809 12
9.1689997 5.8800001 -1.801 12
6.0289998 4.0190001 -1.8279999 10
6.4840002 4.2820001 -1.827 11
6.9720001 4.566 -1.819 12
7.527 4.8909998 -1.8099999 11
8.224 5.3070002 -1.812 12
8.9829998 5.7610002 -1.802 12
5.9239998 3.95 -1.823 10
6.3870001 4.2189999 -1.8279999 10
6.8720002 4.5 -1.823 12
7.4000001 4.8080001 -1.811 11
8.0670004 5.204 -1.812 11
8.7989998 5.6409998 -1.802 13
5.8470001 3.898 -1.825 10
6.3099999 4.1669998 -1.8329999 10
6.7659998 4.4289999 -1.823 11
7.2820001 4.7290001 -1.812 11
7.9229999 5.1079998 -1.812 11
8.6389999 5.5339999 -1.8049999 12
5.7719998 3.8469999 -1.826 11
6.2249999 4.1079998 -1.835 10
6.6669998 4.3610001 -1.824 11
7.171 4.6529999 -1.814 12
7.7729998 5.007 -1.809 11
8.4860001 5.4299998 -1.807 12
5.7129998 3.8039999 -1.831 11
6.1440001 4.0510001 -1.836 10
6.5619998 4.2870002 -1.822 12
7.0749998 4.585 -1.818 12
7.6360002 4.9109998 -1.807 11
8.3360004 5.3249998 -1.808 12
5.6409998 3.7509999 -1.831 11
6.0619998 3.9909999 -1.836 10
6.4790001 4.2270002 -1.825 12
6.9710002 4.5100002 -1.819 11
7.5279999 4.8330002 -1.811 12
8.2110004 5.2350001 -1.812 12
5.579 3.704 -1.8329999 12
5.9530001 3.9130001 -1.827 11
6.395 4.164 -1.826 11
6.8769999 4.4400001 -1.821 11
7.4169998 4.7519999 -1.813 12
8.0719995 5.1350002 -1.812 12
5.5159998 3.655 -1.834 11
5.8670001 3.848 -1.823 11
6.3150001 4.1020002 -1.827 11
6.79 4.3730001 -1.823 11
7.3060002 4.6690001 -1.813 11
7.948 5.0419998 -1.813 12
5.4640002 3.6110001 -1.837 11
5.803 3.796 -1.824 11
6.2649999 4.059 -1.835 10
6.7049999 4.3060002 -1.824 11
7.217 4.598 -1.816 12
7.8200002 4.9460001 -1.812 12
5.4039998 3.562 -1.837 10
5.7470002 3.7479999 -1.827 12
6.1630001 3.9809999 -1.8279999 12
6.6360002 4.2480001 -1.829 11
7.118 4.52 -1.817 11
7.6950002 4.8499999 -1.8099999 12
5.3449998 3.5109999 -1.835 10
5.6869998 3.6960001 -1.8279999 12
6.0890002 3.9189999 -1.826 11
6.5679998 4.1900001 -1.8329999 11
7.04 4.454 -1.821 12
7.5890002 4.7649999 -1.8099999 11
5.3000002 3.4690001 -1.837 11
5.6290002 3.645 -1.8279999 12
6.0289998 3.8659999 -1.8279999 12
6.494 4.1259999 -1.8329999 10
6.96 4.3860002 -1.822 11
7.5029998 4.6919999 -1.814 12
5.2490001 3.4219999 -1.837 10
5.5799999 3.599 -1.829 11
5.967 3.809 -1.8279999 12
6.4130001 4.0570002 -1.831 10
6.8930001 4.3239999 -1.826 11
7.4190001 4.618 -1.817 12
5.2129998 3.3829999 -1.84 10
5.5370002 3.5550001 -1.832 11
5.9099998 3.756 -1.829 11
6.3720002 4.0120001 -1.8380001 10
6.8189998 4.256 -1.8279999 11
7.3270001 4.5380001 -1.817 12
5.1630001 3.335 -1.8380001 10
5.4910002 3.5079999 -1.834 11
5.8540001 3.701 -1.829 12
6.277 3.9319999 -1.829 11
6.7579999 4.1960001 -1.831 11
7.2490001 4.4660001 -1.819 12
5.1259999 3.293 -1.84 10
5.4450002 3.4590001 -1.834 11
5.8060002 3.651 -1.83 12
6.211 3.869 -1.8279999 11
6.6919999 4.132 -1.832 11
7.1810002 4.3979998 -1.822 12
5.0890002 3.2509999 -1.84 9
5.4039998 3.414 -1.835 11
5.756 3.599 -1.831 12
6.1630001 3.816 -1.83 11
6.638 4.0739999 -1.835 11
7.0999999 4.322 -1.8200001 11
5.0560002 3.211 -1.841 10
5.3639998 3.368 -1.835 11
5.7270002 3.5580001 -1.835 12
6.1110001 3.76 -1.83 12
6.5710001 4.0079999 -1.8329999 10
7.0419998 4.2600002 -1.824 11
5.0209999 3.1689999 -1.84 10
5.3299999 3.325 -1.836 11
5.6869998 3.5109999 -1.836 11
6.0650001 3.707 -1.831 12
6.4949999 3.9349999 -1.8279999 11
6.9949999 4.2030001 -1.8279999 11
4.9990001 3.1329999 -1.844 9
5.2979999 3.283 -1.837 10
5.6409998 3.4579999 -1.834 11
6.0180001 3.6530001 -1.831 12
6.4439998 3.8759999 -1.8279999 12
6.9299998 4.1339998 -1.8279999 10
4.967 3.0910001 -1.8430001 10
5.2690001 3.2409999 -1.8380001 10
5.6110001 3.415 -1.837 12
5.9780002 3.602 -1.831 12
6.3979998 3.8199999 -1.829 11
6.8800001 4.073 -1.83 11
4.9380002 3.05 -1.842 10
5.2360001 3.197 -1.837 11
5.5840001 3.372 -1.839 12
5.9460001 3.5550001 -1.834 12
6.3579998 3.766 -1.831 11
6.8039999 3.9960001 -1.824 12
4.9169998 3.013 -1.8430001 10
5.2119999 3.1559999 -1.8380001 10
5.5479999 3.323 -1.8380001 11
5.914 3.507 -1.835 12
6.3150001 3.71 -1.831 12
6.7849998 3.9519999 -1.832 11
4.8969998 2.9749999 -1.844 10
5.1919999 3.118 -1.84 10
5.527 3.283 -1.841 11
5.8759999 3.454 -1.834 12
6.2779999 3.6559999 -1.832 12
6.71 3.875 -1.824 11
4.881 2.9400001 -1.845 10
5.1719999 3.079 -1.841 12
5.5009999 3.2390001 -1.841 12
5.849 3.408 -1.836 12
6.2490001 3.6070001 -1.834 11
6.6719999 3.8169999 -1.825 12
4.8649998 2.904 -1.847 10
5.1630001 3.0450001 -1.846 11
5.4770002 3.194 -1.841 10
5.8249998 3.3629999 -1.837 12
6.211 3.5510001 -1.832 12
6.6389999 3.7620001 -1.827 13
4.8460002 2.865 -1.846 11
5.132 2.9979999 -1.842 11
5.4549999 3.151 -1.842 12
5.8060002 3.319 -1.839 12
6.1830001 3.5009999 -1.8329999 12
6.6079998 3.7090001 -1.829 12
4.8330002 2.829 -1.846 10
5.1149998 2.9579999 -1.842 11
5.4330001 3.1070001 -1.841 12
5.7810001 3.2720001 -1.8380001 11
6.1589999 3.4530001 -1.834 11
6.5770001 3.654 -1.829 12
4.8200002 2.7920001 -1.846 10
5.1020002 2.921 -1.8430001 10
5.4180002 3.0669999 -1.842 12
5.763 3.2279999 -1.839 12
6.1420002 3.4070001 -1.836 11
6.5479999 3.599 -1.829 12
4.816 2.76 -1.849 10
5.1030002 2.8900001 -1.848 10
5.4120002 3.03 -1.845 12
5.7480001 3.1849999 -1.841 13
6.1110001 3.3529999 -1.834 12
6.5349998 3.553 -1.832 12
4.8060002 2.724 -1.848 10
5.0830002 2.8469999 -1.845 11
5.3920002 2.9860001 -1.8430001 12
5.7329998 3.141 -1.841 14
6.1059999 3.313 -1.8380001 13
6.5100002 3.4990001 -1.832 12
4.8000002 2.6900001 -1.849 11
5.0770001 2.8110001 -1.846 10
5.3940001 2.9530001 -1.847 12
5.7199998 3.098 -1.841 12
6.0830002 3.2620001 -1.836 12
6.4910002 3.4489999 -1.832 12
4.7930002 2.655 -1.849 11
5.073 2.776 -1.847 11
5.3839998 2.9130001 -1.847 11
5.724 3.0639999 -1.846 11
6.0770001 3.221 -1.839 12
6.4780002 3.402 -1.834 12
4.7950001 2.6240001 -1.851 10
5.066 2.7390001 -1.847 11
5.3769999 2.8740001 -1.848 11
5.7140002 3.0220001 -1.846 11
6.0630002 3.174 -1.8380001 12
6.4679999 3.3540001 -1.835 13
4.796 2.592 -1.853 11
5.0619998 2.7030001 -1.847 11
5.3759999 2.8380001 -1.849 11
5.7069998 2.98 -1.846 11
6.0599999 3.1329999 -1.84 12
6.4679999 3.313 -1.8380001 12
4.7979999 2.5599999 -1.854 10
5.0679998 2.671 -1.85 11
5.3800001 2.803 -1.851 11
5.6989999 2.938 -1.845 13
6.0619998 3.0929999 -1.842 12
6.4549999 3.263 -1.837 12
4.7989998 2.527 -1.854 10
5.0630002 2.6329999 -1.848 10
5.3769999 2.7639999 -1.851 12
5.7030001 2.9000001 -1.847 13
6.0609999 3.0510001 -1.8430001 12
6.4559999 3.22 -1.839 12
4.79 2.4879999 -1.85 11
5.0549998 2.5929999 -1.845 12
5.381 2.7279999 -1.852 12
5.7069998 2.8629999 -1.849 13
6.0619998 3.01 -1.844 12
6.4549999 3.175 -1.84 12
4.8060002 2.461 -1.854 10
5.0689998 2.5650001 -1.849 11
5.382 2.691 -1.852 13
5.7049999 2.822 -1.848 11
6.059 2.9660001 -1.8430001 11
6.4590001 3.132 -1.841 12
4.8070002 2.427 -1.853 11
5.0739999 2.53 -1.848 12
5.3860002 2.654 -1.851 12
5.7090001 2.783 -1.848 13
6.0609999 2.924 -1.8430001 12
6.4629998 3.089 -1.842 12
4.8169999 2.3970001 -1.854 11
5.086 2.4990001 -1.851 11
5.3930001 2.619 -1.852 12
5.7199998 2.747 -1.85 12
6.0819998 2.892 -1.848 14
6.467 3.0450001 -1.841 13
4.829 2.3670001 -1.8559999 10
5.0879998 2.4630001 -1.848 11
5.4060001 2.586 -1.854 12
5.7259998 2.7090001 -1.849 12
6.085 2.8499999 -1.847 12
6.4710002 3.0009999 -1.841 12
4.8330002 2.332 -1.853 11
5.1040001 2.4330001 -1.851 12
5.4190001 2.553 -1.854 12
5.7410002 2.675 -1.851 12
6.0970001 2.8110001 -1.847 14
6.4910002 2.964 -1.844 12
4.855 2.306 -1.857 10
5.1139998 2.3989999 -1.85 12
5.4289999 2.517 -1.854 13
5.7529998 2.638 -1.851 11
6.118 2.776 -1.85 13
6.507 2.924 -1.845 12
4.8649998 2.273 -1.8559999 10
5.1360002 2.3699999 -1.853 12
5.4460001 2.484 -1.855 12
5.7719998 2.6040001 -1.852 14
6.1329999 2.7379999 -1.85 12
6.526 2.885 -1.846 12
4.875 2.24 -1.854 10
5.1459999 2.336 -1.852 12
5.467 2.4530001 -1.857 13
5.7810001 2.5650001 -1.85 12
6.151 2.701 -1.851 13
6.5430002 2.8440001 -1.846 12
4.9000001 2.2149999 -1.858 10
5.1700001 2.3080001 -1.854 11
5.4829998 2.4189999 -1.857 12
5.8109999 2.5350001 -1.854 13
6.178 2.6670001 -1.853 12
6.5700002 2.8080001 -1.848 12
4.914 2.1830001 -1.8559999 10
5.198 2.2809999 -1.858 10
5.5050001 2.3870001 -1.858 12
5.8369999 2.503 -1.8559999 14
6.1960001 2.6289999 -1.852 12
6.5939999 2.77 -1.848 11
4.9390001 2.1570001 -1.859 10
5.211 2.247 -1.855 12
5.5320001 2.3570001 -1.86 11
5.8559999 2.467 -1.855 12
6.2290001 2.5969999 -1.855 13
6.6259999 2.7349999 -1.85 12
4.96 2.1270001 -1.859 10
5.2410002 2.22 -1.858 11
5.5549998 2.325 -1.859 11
5.8909998 2.437 -1.858 12
6.2600002 2.563 -1.8559999 14
6.651 2.6960001 -1.849 13
4.9910002 2.1010001 -1.862 10
5.257 2.1860001 -1.855 12
5.5869999 2.296 -1.862 12
5.9219999 2.4059999 -1.86 12
6.2950001 2.53 -1.858 14
6.697 2.665 -1.853 12
5.0050001 2.069 -1.858 11
5.2870002 2.158 -1.857 11
5.618 2.266 -1.863 12
5.9559999 2.375 -1.8609999 12
6.3099999 2.49 -1.853 12
6.7319999 2.6289999 -1.854 13
5.0409999 2.0439999 -1.863 11
5.3189998 2.1300001 -1.859 11
5.6469998 2.234 -1.863 11
5.9850001 2.342 -1.8609999 12
6.3509998 2.4579999 -1.8559999 12
6.77 2.5940001 -1.854 12
5.0679998 2.016 -1.862 10
5.3509998 2.102 -1.86 12
5.6810002 2.2049999 -1.864 12
6.0209999 2.3110001 -1.8609999 12
6.3990002 2.4289999 -1.859 12
6.8210001 2.563 -1.857 12
5.099 1.989 -1.863 10
5.3769999 2.0710001 -1.858 13
5.711 2.1730001 -1.863 12
6.0640001 2.2809999 -1.863 11
6.4429998 2.398 -1.86 11
6.8610001 2.527 -1.8559999 13
5.1279998 1.96 -1.863 11
5.4219999 2.046 -1.863 11
5.75 2.1440001 -1.865 11
6.1030002 2.25 -1.864 12
6.4780002 2.362 -1.858 12
6.9060001 2.493 -1.8559999 12
5.1680002 1.9349999 -1.865 10
5.4559999 2.0179999 -1.862 12
5.7839999 2.1129999 -1.863 13
6.1490002 2.221 -1.865 12
6.533 2.3329999 -1.8609999 12
6.9699998 2.464 -1.86 12
5.2030001 1.908 -1.8660001 11
5.5040002 1.993 -1.8660001 11
5.8379998 2.0880001 -1.868 12
6.1890001 2.188 -1.864 12
6.585 2.303 -1.863 13
7.0289998 2.4330001 -1.8609999 13
5.2389998 1.881 -1.8660001 11
5.5430002 1.965 -1.8660001 11
5.8769999 2.0580001 -1.867 11
6.2399998 2.1600001 -1.8660001 11
6.631 2.27 -1.8609999 12
7.0760002 2.3970001 -1.86 13
5.2810001 1.855 -1.867 10
5.5840001 1.937 -1.8660001 11
5.9159999 2.027 -1.865 12
6.2870002 2.1289999 -1.865 12
6.6919999 2.2409999 -1.863 13
7.138 2.365 -1.86 12
5.3270001 1.83 -1.869 10
5.631 1.91 -1.867 11
5.9770002 2.0020001 -1.869 11
6.342 2.0999999 -1.8660001 12
6.7480001 2.2090001 -1.863 12
7.198 2.332 -1.859 13
5.3720002 1.804 -1.87 11
5.6750002 1.881 -1.867 10
6.027 1.974 -1.869 11
6.408 2.0739999 -1.869 12
6.823 2.184 -1.867 13
7.2729998 2.302 -1.8609999 12
5.4180002 1.778 -1.8710001 11
5.7340002 1.857 -1.87 10
6.0879998 1.947 -1.872 13
6.4650002 2.0439999 -1.869 13
6.8829999 2.151 -1.8660001 12
7.3509998 2.273 -1.862 13
5.4689999 1.753 -1.872 11
5.7779999 1.8279999 -1.868 12
6.1479998 1.921 -1.873 13
6.5320001 2.016 -1.87 12
6.961 2.1240001 -1.868 12
7.4289999 2.2420001 -1.863 14
5.5170002 1.726 -1.872 11
5.842 1.804 -1.8710001 12
6.204 1.892 -1.872 12
6.598 1.988 -1.8710001 12
7.0320001 2.095 -1.868 13
7.5219998 2.217 -1.8660001 13
5.5710001 1.702 -1.873 11
5.8940001 1.777 -1.8710001 11
6.27 1.8660001 -1.874 12
6.665 1.96 -1.8710001 12
7.112 2.0680001 -1.869 13
7.6030002 2.1860001 -1.865 12
5.6339998 1.678 -1.876 11
5.9590001 1.752 -1.873 11
6.3400002 1.841 -1.876 12
6.7329998 1.931 -1.87 12
7.2020001 2.0420001 -1.872 13
7.6820002 2.155 -1.863 13
5.6849999 1.652 -1.875 11
6.02 1.727 -1.873 11
6.4099998 1.8150001 -1.877 12
6.8150001 1.906 -1.872 13
7.283 2.0139999 -1.872 13
7.7870002 2.1300001 -1.8660001 13
5.7410002 1.626 -1.875 11
6.0840001 1.701 -1.873 10
6.4790001 1.788 -1.876 13
6.8940001 1.88 -1.873 12
7.3769999 1.988 -1.874 13
7.8899999 2.102 -1.867 14
5.8080001 1.603 -1.877 11
6.1599998 1.678 -1.876 12
6.546 1.76 -1.875 12
6.9860001 1.855 -1.875 13
7.467 1.96 -1.873 13
7.9980001 2.075 -1.868 13
5.8790002 1.58 -1.8789999 11
6.2280002 1.651 -1.875 11
6.6279998 1.735 -1.875 12
7.0710001 1.8279999 -1.875 12
7.5749998 1.9349999 -1.876 13
8.1099997 2.0480001 -1.868 14
5.9429998 1.554 -1.878 11
6.3049998 1.626 -1.876 11
6.7189999 1.711 -1.878 12
7.177 1.8049999 -1.878 11
7.7020001 1.914 -1.881 13
8.2489996 2.026 -1.873 12
6.0159998 1.53 -1.8789999 11
6.3909998 1.604 -1.8789999 12
6.803 1.6849999 -1.878 13
7.2690001 1.778 -1.878 11
7.7919998 1.883 -1.877 13
8.3730001 1.999 -1.873 12
6.0929999 1.507 -1.88 11
6.4679999 1.5779999 -1.878 11
6.9089999 1.663 -1.882 12
7.3790002 1.7539999 -1.88 12
7.9260001 1.8609999 -1.881 12
8.5080004 1.974 -1.874 12
6.177 1.484 -1.883 11
6.5570002 1.553 -1.8789999 12
7.0079999 1.638 -1.883 12
7.5079999 1.733 -1.885 11
8.0439997 1.834 -1.88 12
8.6470003 1.948 -1.874 12
6.263 1.461 -1.885 11
6.6469998 1.529 -1.88 11
7.1030002 1.612 -1.882 12
7.6199999 1.707 -1.885 11
8.1680002 1.807 -1.8789999 12
8.809 1.926 -1.877 12
6.3439999 1.436 -1.8839999 11
6.743 1.505 -1.881 12
7.2189999 1.59 -1.885 12
7.7319999 1.681 -1.8839999 11
8.2880001 1.779 -1.876 11
8.96 1.9 -1.876 12
6.4450002 1.415 -1.888 11
6.8470001 1.482 -1.882 12
7.3280001 1.5650001 -1.885 12
7.8629999 1.6569999 -1.885 11
8.4379997 1.756 -1.878 12
9.1440001 1.88 -1.88 12
6.5349998 1.391 -1.888 12
6.9489999 1.4579999 -1.882 12
7.4510002 1.5420001 -1.886 12
7.9819999 1.63 -1.882 11
8.6160002 1.737 -1.8839999 12
9.3179998 1.855 -1.88 12
6.6420002 1.368 -1.89 12
7.066 1.4349999 -1.8839999 12
7.5910001 1.521 -1.891 11
8.1280003 1.607 -1.883 12
8.7709999 1.711 -1.883 13
9.5080004 1.832 -1.88 14
6.7319999 1.342 -1.887 12
7.1810002 1.411 -1.885 11
7.7119999 1.495 -1.8890001 11
8.2860003 1.584 -1.886 12
8.941 1.687 -1.883 13
9.7180004 1.811 -1.883 13
6.8429999 1.3200001 -1.888 12
7.302 1.388 -1.886 11
7.8530002 1.472 -1.891 11
8.4309998 1.559 -1.8839999 12
9.1210003 1.664 -1.883 13
9.9350004 1.789 -1.8839999 13
6.9530001 1.296 -1.888 12
7.4559999 1.37 -1.893 10
7.9949999 1.448 -1.89 12
8.6009998 1.536 -1.885 12
9.3079996 1.64 -1.882 13
10.163 1.768 -1.885 13
7.0739999 1.273 -1.8890001 12
7.5799999 1.344 -1.891 10
8.1389999 1.423 -1.888 12
8.7679996 1.511 -1.8839999 12
9.526 1.62 -1.886 14
10.406 1.7460001 -1.886 14
7.21 1.252 -1.893 11
7.7119999 1.3200001 -1.8890001 10
8.2849998 1.397 -1.886 11
8.9449997 1.487 -1.883 12
9.7480001 1.598 -1.887 14
10.675 1.727 -1.888 14
7.3699999 1.234 -1.901 10
7.8569999 1.296 -1.8890001 11
8.4549999 1.375 -1.887 12
9.1499996 1.466 -1.885 13
9.9700003 1.575 -1.886 13
10.965 1.709 -1.891 13
7.4990001 1.21 -1.899 10
8.0190001 1.274 -1.891 11
8.6339998 1.352 -1.887 12
9.3730001 1.446 -1.8890001 13
10.237 1.557 -1.89 14
11.289 1.694 -1.897 14
7.6409998 1.186 -1.899 11
8.1739998 1.25 -1.8890001 12
8.823 1.3279999 -1.887 12
9.6000004 1.425 -1.89 13
10.502 1.536 -1.891 13
11.609 1.675 -1.898 13
7.7849998 1.163 -1.898 11
8.3430004 1.227 -1.8890001 11
9.0299997 1.307 -1.8890001 12
9.8280001 1.402 -1.8890001 12
10.794 1.517 -1.8940001 12
11.962 1.658 -1.901 12
7.9260001 1.137 -1.8940001 11
8.5150003 1.202 -1.887 11
9.2349997 1.284 -1.888 12
10.091 1.382 -1.892 14
11.126 1.501 -1.9 13
12.348 1.642 -1.904 13
8.0889997 1.114 -1.893 10
8.7200003 1.181 -1.89 12
9.4790001 1.2640001 -1.892 12
10.376 1.362 -1.895 12
11.463 1.483 -1.902 14
12.777 1.628 -1.909 12
8.2810001 1.0930001 -1.896 11
8.9110003 1.1569999 -1.887 10
9.7250004 1.242 -1.893 13
10.667 1.342 -1.897 12
11.812 1.4630001 -1.903 13
13.219 1.613 -1.911 13
8.4659996 1.069 -1.896 11
9.1459999 1.136 -1.89 11
9.9910002 1.221 -1.895 13
10.988 1.322 -1.899 13
12.209 1.447 -1.9069999 14
13.729 1.602 -1.918 12
8.6569996 1.046 -1.895 12
9.3789997 1.114 -1.892 11
10.288 1.202 -1.9 12
11.346 1.3049999 -1.905 14
12.629 1.4299999 -1.909 12
14.254 1.5880001 -1.92 13
8.8710003 1.024 -1.896 11
9.6359997 1.0930001 -1.8940001 11
10.607 1.183 -1.905 12
11.723 1.286 -1.908 14
13.099 1.414 -1.914 12
14.834 1.577 -1.923 12
9.0979996 1.001 -1.896 12
9.9069996 1.071 -1.895 12
10.914 1.16 -1.903 13
12.122 1.267 -1.911 13
13.599 1.399 -1.918 12
15.478 1.567 -1.928 11
9.3400002 0.97899997 -1.898 12
10.209 1.051 -1.9 12
11.264 1.141 -1.9069999 12
12.561 1.25 -1.916 12
14.163 1.387 -1.925 13
16.240999 1.564 -1.941 12
9.6040001 0.958 -1.901 11
10.514 1.03 -1.902 12
11.645 1.1210001 -1.91 13
13.022 1.232 -1.918 12
14.752 1.3710001 -1.928 12
16.976999 1.552 -1.939 12
9.8889999 0.93599999 -1.904 13
10.851 1.008 -1.904 11
12.06 1.101 -1.914 13
13.55 1.215 -1.924 13
15.434 1.36 -1.9349999 11
17.82 1.543 -1.941 11
10.192 0.91399997 -1.906 13
11.211 0.98699999 -1.9069999 13
12.504 1.081 -1.916 13
14.109 1.197 -1.927 13
16.219 1.352 -1.947 11
18.694 1.531 -1.937 16
10.51 0.89200002 -1.908 12
11.599 0.96499997 -1.909 12
12.988 1.061 -1.92 11
14.727 1.181 -1.931 12
16.99 1.337 -1.947 10
18.923 1.4630001 -1.858 28
10.846 0.86900002 -1.909 12
12.02 0.94400001 -1.913 12
13.517 1.0420001 -1.924 12
15.423 1.166 -1.939 11
17.836 1.323 -1.947 11
19.077999 1.39 -1.77 57
11.207 0.84600002 -1.91 12
12.48 0.92299998 -1.9170001 12
14.099 1.022 -1.929 12
16.184 1.151 -1.9450001 9
18.773001 1.309 -1.9450001 12
18.987 1.298 -1.655 56
11.623 0.82300001 -1.915 13
12.969 0.89999998 -1.918 12
14.744 1.003 -1.934 13
17.006001 1.1339999 -1.948 10
19.094 1.248 -1.872 24
18.972 1.215 -1.5470001 61
12.069 0.801 -1.919 13
13.524 0.87900001 -1.923 12
15.471 0.98500001 -1.941 11
17.974001 1.12 -1.956 12
19.208 1.173 -1.774 58
19.027 1.1390001 -1.4450001 59
12.551 0.77899998 -1.924 11
14.14 0.85799998 -1.9299999 12
16.268 0.96700001 -1.949 10
18.917999 1.1 -1.952 13
19.239 1.096 -1.668 60
19.094 1.0650001 -1.341 57
13.06 0.755 -1.927 12
14.793 0.83600003 -1.934 12
17.128 0.94700003 -1.9529999 11
19.273001 1.0420001 -1.878 23
19.218 1.016 -1.554 63
19.294001 0.99800003 -1.244 57
13.624 0.73000002 -1.9299999 12
15.527 0.81400001 -1.939 10
18.107 0.92699999 -1.959 12
19.441999 0.97299999 -1.781 61
19.322001 0.94499999 -1.451 55
20.327 0.972 -1.192 64
14.279 0.70700002 -1.938 12
16.347 0.79100001 -1.9450001 9
19.07 0.90100002 -1.951 13
19.329 0.89200002 -1.6569999 56
19.245001 0.86699998 -1.331 62
21.961 0.96600002 -1.158 60
14.96 0.68199998 -1.942 13
17.281 0.76800001 -1.954 11
19.445 0.84299999 -1.874 28
19.336 0.81800002 -1.543 56
19.521999 0.80500001 -1.234 60
23.198 0.93300003 -1.084 5
15.745 0.65600002 -1.949 11
18.302 0.74299997 -1.959 12
19.497 0.77200001 -1.762 57
19.382999 0.74800003 -1.4299999 60
20.694 0.778 -1.184 63
29.464001 1.079 -1.2 33
